ply
format ascii 1.0
element vertex 740
property float x
property float y
property float z
end_header
0.331314116716384888 0.432232022285461426 0.227070152759552002
0.525170624256134033 0.304224342107772827 -0.195903778076171875
0.425736874341964722 0.222941488027572632 0.0135771054774522781
0.16812540590763092 -0.457395106554031372 -0.167379021644592285
0.200348526239395142 -0.408047139644622803 -0.240592852234840393
0.51485520601272583 0.127848953008651733 -0.208451077342033386
-0.473294973373413086 -0.306838482618331909 -0.110737591981887817
0.154280200600624084 0.334962725639343262 0.375978678464889526
0.585982024669647217 -0.041740860790014267 -0.086362205445766449
-0.568642020225524902 0.136033788323402405 0.0932936444878578186
-0.284295141696929932 -0.411856472492218018 -0.0856808274984359741
0.394385308027267456 0.443100661039352417 -0.114447042346000671
0.321722596883773804 0.388456583023071289 0.0771560370922088623
0.342856526374816895 0.407098442316055298 0.222172319889068604
-0.432750791311264038 -0.148806646466255188 -0.0515690520405769348
0.389142394065856934 -0.2217111736536026 -0.139578729867935181
-0.424232691526412964 0.294468522071838379 0.0178736001253128052
0.352339237928390503 -0.194496527314186096 0.0707639455795288086
-0.43709033727645874 -0.355932533740997314 -0.0502068176865577698
0.398834824562072754 -0.35921776294708252 -0.194246768951416016
0.300487995147705078 -0.261830896139144897 -0.266088634729385376
0.290117859840393066 0.4741402268409729 -0.0578021109104156494
0.400088131427764893 -0.402522921562194824 -0.110087171196937561
-0.426120400428771973 0.0524718351662158966 0.137870848178863525
-0.449803084135055542 -0.0359967313706874847 0.117706842720508575
-0.321677207946777344 -0.341355890035629272 -0.0551986023783683777
-0.422101676464080811 -0.18578726053237915 0.0436685681343078613
-0.450849741697311401 -0.302074819803237915 0.0956542640924453735
0.367456316947937012 -0.371791481971740723 -0.106215104460716248
0.535545051097869873 0.322966396808624268 -0.170585200190544128
0.510730564594268799 0.182266175746917725 -0.176609516143798828
0.345087945461273193 -0.353413641452789307 -0.296706825494766235
-0.483219325542449951 0.0683410316705703735 0.0516639202833175659
-0.284770429134368896 -0.341603696346282959 -0.0650924965739250183
0.475228488445281982 -0.368865251541137695 -0.292254269123077393
-0.243743002414703369 0.387677699327468872 0.122360892593860626
0.454391717910766602 -0.221759423613548279 -0.253415197134017944
0.317395329475402832 0.454206675291061401 -0.0729746222496032715
0.524260520935058594 0.182952791452407837 -0.214719995856285095
0.237206608057022095 -0.456547021865844727 -0.127630755305290222
0.532567977905273438 0.189099952578544617 -0.211957603693008423
-0.371314525604248047 -0.112764380872249603 0.0171382948756217957
0.445437014102935791 -0.109950780868530273 -0.103234604001045227
-0.369190722703933716 0.102931566536426544 0.0286526307463645935
-0.565541565418243408 -0.171066373586654663 0.246183604001998901
-0.561022698879241943 0.109784655272960663 0.0682044848799705505
0.347421258687973022 0.415250957012176514 -0.164466395974159241
0.412297427654266357 -0.228566288948059082 0.0885030180215835571
-0.422780901193618774 -0.0703874304890632629 0.122398100793361664
-0.295504599809646606 -0.465347111225128174 -0.106992840766906738
-0.425444483757019043 -0.331223249435424805 0.11505415290594101
-0.289943516254425049 -0.463883966207504272 -0.0691475868225097656
0.410797685384750366 0.115702822804450989 0.0829014033079147339
0.358969628810882568 -0.302361875772476196 0.069057270884513855
-0.38525429368019104 -0.32232549786567688 0.0061608925461769104
-0.601919710636138916 -0.295718938112258911 0.230784162878990173
0.446018815040588379 0.385490328073501587 0.230018571019172668
0.531859159469604492 -0.153824225068092346 -0.22019350528717041
-0.509245336055755615 -0.166507944464683533 0.095159485936164856
-0.457803517580032349 0.245893597602844238 0.0686047524213790894
0.179341018199920654 -0.571209073066711426 -0.101726517081260681
0.4235210120677948 0.0668063163757324219 0.211903989315032959
-0.491688072681427002 0.0668445676565170288 0.334018468856811523
-0.469113290309906006 -0.136646747589111328 0.0529326796531677246
0.509461343288421631 -0.0579935088753700256 -0.249852508306503296
0.54498368501663208 0.211429908871650696 -0.184701651334762573
0.410395383834838867 -0.111284643411636353 0.0284700766205787659
0.417770147323608398 -0.25063207745552063 -0.138056203722953796
-0.400396257638931274 0.329180598258972168 0.0660022944211959839
-0.467428356409072876 -0.0801514089107513428 0.0520157814025878906
0.430399060249328613 0.170612722635269165 -0.020815528929233551
0.43807867169380188 0.0580859482288360596 -0.0264444164931774139
-0.448156535625457764 0.302340686321258545 0.19386136531829834
0.476520419120788574 -0.0648823380470275879 -0.161142230033874512
0.40377005934715271 -0.355380445718765259 -0.254387050867080688
0.525637149810791016 -0.0800045877695083618 -0.236682608723640442
0.325899899005889893 0.443007409572601318 0.261860519647598267
-0.338551223278045654 0.402265846729278564 0.187246054410934448
0.350282132625579834 0.369086772203445435 0.257438182830810547
-0.50260007381439209 -0.117688834667205811 -0.0361636877059936523
-0.569942116737365723 0.101668059825897217 0.0635056793689727783
0.310637384653091431 0.387855201959609985 -0.0944921523332595825
-0.175155013799667358 0.380004256963729858 0.0975569933652877808
-0.272133111953735352 -0.393852949142456055 -0.0540751442313194275
-0.397342652082443237 -0.35154491662979126 0.0607972554862499237
0.445866584777832031 0.0925964713096618652 0.176494419574737549
-0.292781949043273926 -0.436963260173797607 0.00523783452808856964
0.52982032299041748 -0.183004647493362427 -0.235269635915756226
0.475802719593048096 0.226291298866271973 0.0642938092350959778
0.418707758188247681 -0.312728852033615112 0.0429593399167060852
-0.533379852771759033 -0.327534884214401245 0.235810935497283936
0.299605637788772583 0.197111338376998901 0.235488653182983398
-0.48509824275970459 -0.294353872537612915 -0.0225761532783508301
0.443732589483261108 0.469511657953262329 0.249369680881500244
0.562791943550109863 -0.0947193354368209839 -0.209724709391593933
-0.488675028085708618 0.0377756357192993164 0.311993509531021118
-0.504130125045776367 0.238748565316200256 0.350542187690734863
-0.545062363147735596 -0.110855348408222198 0.120276115834712982
-0.372720688581466675 0.358185619115829468 0.0946583002805709839
0.181312784552574158 0.483481109142303467 0.124756030738353729
0.415880441665649414 -0.210040494799613953 -0.223168060183525085
-0.441823750734329224 -0.139005064964294434 0.00753338821232318878
0.426073342561721802 -0.0990568548440933228 -0.236896678805351257
0.393905669450759888 0.332734584808349609 0.201456546783447266
-0.380773156881332397 -0.376102209091186523 -0.0963863730430603027
0.258216410875320435 -0.410155117511749268 -0.0204215198755264282
0.38438570499420166 -0.152951031923294067 0.0058849826455116272
-0.401358515024185181 0.398481488227844238 0.323292076587677002
0.379018872976303101 -0.233369126915931702 -0.124154910445213318
0.520412862300872803 -0.0168911796063184738 -0.186868712306022644
-0.42160189151763916 0.307000964879989624 0.24255940318107605
-0.515013933181762695 -0.058829478919506073 0.0774615854024887085
0.441663920879364014 0.11031649261713028 -0.0475310944020748138
-0.495560407638549805 0.30087125301361084 0.295836061239242554
0.471278250217437744 0.364643782377243042 -0.149480491876602173
0.518677234649658203 0.02068307064473629 -0.179277300834655762
-0.385228425264358521 -0.376884281635284424 0.175307184457778931
0.24535803496837616 0.477273792028427124 0.0925412997603416443
0.489711225032806396 -0.294039517641067505 -0.292902708053588867
0.456144034862518311 -0.147915288805961609 -0.243738144636154175
-0.473296076059341431 -0.238800838589668274 0.118524298071861267
0.30914771556854248 0.419868737459182739 0.234060883522033691
0.357316881418228149 0.395681649446487427 0.254555940628051758
-0.449477225542068481 -0.339113235473632812 0.0679361224174499512
-0.460676133632659912 -0.230699002742767334 0.0413756705820560455
-0.553507804870605469 -0.0310433655977249146 0.271834820508956909
0.397177249193191528 -0.070428505539894104 -0.132159247994422913
0.346618413925170898 0.394358158111572266 0.359547197818756104
0.307352900505065918 0.397462218999862671 0.182314589619636536
0.406597793102264404 0.249549657106399536 0.0513165220618247986
0.469598293304443359 0.191064596176147461 0.0911161154508590698
-0.0593380369246006012 0.524329125881195068 0.115106105804443359
-0.347322702407836914 -0.36246335506439209 -0.0574580058455467224
-0.449315071105957031 -0.350332021713256836 -0.0693892166018486023
-0.451091468334197998 -0.297308146953582764 -0.00325465574860572815
-0.399653047323226929 -0.246684253215789795 0.0459490790963172913
-0.415611863136291504 -0.29319646954536438 -0.0313425920903682709
-0.48436698317527771 0.180102631449699402 0.062901712954044342
0.436903536319732666 -0.118397235870361328 -0.232257142663002014
-0.242112487554550171 0.40221017599105835 0.140141069889068604
-0.418842732906341553 -0.15974840521812439 0.0513802170753479004
-0.57005774974822998 0.00650896504521369934 0.105461046099662781
-0.271067380905151367 0.438310146331787109 0.163270235061645508
0.456086814403533936 -0.330017387866973877 -0.278189510107040405
-0.528404176235198975 0.0144411493092775345 0.224356487393379211
-0.563065767288208008 0.0346032716333866119 0.0664690285921096802
-0.308911621570587158 0.409164130687713623 0.21957436203956604
0.505239129066467285 0.213500991463661194 -0.136220172047615051
0.396044075489044189 -0.289605766534805298 -0.291032731533050537
-0.51800304651260376 0.273683220148086548 0.313970953226089478
-0.332546383142471313 0.351276159286499023 0.0385073572397232056
0.418155789375305176 -0.358745276927947998 -0.304936796426773071
-0.532787978649139404 0.00915016606450080872 0.141241207718849182
-0.257005393505096436 0.409851312637329102 0.122657954692840576
0.5506477952003479 -0.0619882829487323761 -0.17412683367729187
0.486016750335693359 -0.0733624100685119629 -0.264579534530639648
-0.570251941680908203 0.0693913847208023071 0.243778735399246216
-0.490476936101913452 0.0599927380681037903 0.166247323155403137
0.414596199989318848 0.199591591954231262 0.0027291569858789444
-0.429479300975799561 0.0535627268254756927 0.138608291745185852
-0.329982548952102661 -0.361781775951385498 -0.0648265630006790161
0.563564896583557129 -0.159737110137939453 -0.225571632385253906
-0.486421048641204834 -0.0521000660955905914 0.0743310302495956421
0.189106851816177368 0.501958549022674561 0.074717693030834198
-0.549848079681396484 -0.110466018319129944 0.285005301237106323
-0.485250681638717651 -0.304701536893844604 -0.030002521350979805
-0.480945408344268799 0.0673992559313774109 0.326682150363922119
-0.440706938505172729 -0.114135228097438812 0.0264460630714893341
-0.40428653359413147 0.353101223707199097 0.0508533716201782227
0.514925956726074219 -0.00601535476744174957 -0.215205207467079163
-0.418293595314025879 0.3048056960105896 0.246873721480369568
0.341039896011352539 0.418336868286132812 0.120011970400810242
0.479666471481323242 0.356243044137954712 -0.151374667882919312
-0.560861408710479736 0.211414620280265808 0.221186995506286621
0.538446724414825439 0.0135128377005457878 -0.183181002736091614
0.427163779735565186 0.268378138542175293 0.168223559856414795
0.42013394832611084 0.390619039535522461 0.179476827383041382
0.391849160194396973 0.154999211430549622 0.211786478757858276
-0.501125931739807129 -0.0920433029532432556 0.174440979957580566
0.50330883264541626 0.164859816431999207 -0.136807680130004883
-0.490262210369110107 -0.10561034083366394 0.133524090051651001
-0.571189045906066895 0.045254439115524292 0.291648656129837036
0.457087486982345581 -0.0814652591943740845 0.193232357501983643
0.171716451644897461 0.476880550384521484 0.0388620756566524506
-0.447785049676895142 0.0903309732675552368 0.142130166292190552
-0.293465018272399902 0.413775503635406494 0.12333931028842926
0.487193971872329712 0.204674988985061646 -0.0788032039999961853
-0.1319408118724823 0.499725252389907837 0.134434834122657776
-0.553267121315002441 0.291508525609970093 0.236328572034835815
0.612406015396118164 0.153596356511116028 -0.190593838691711426
-0.416283935308456421 -0.0685302466154098511 0.0613962262868881226
0.446778625249862671 0.370591700077056885 -0.0447898805141448975
0.272369891405105591 0.413869202136993408 0.356857538223266602
0.498488903045654297 -0.364417612552642822 -0.30067366361618042
-0.412565022706985474 -0.272957414388656616 -0.0526815727353096008
0.392531543970108032 0.390956640243530273 0.164485782384872437
-0.345495849847793579 -0.376698493957519531 -0.101588159799575806
-0.411518067121505737 -0.382433980703353882 0.248313382267951965
0.459606945514678955 -0.217750698328018188 -0.243998825550079346
-0.432382047176361084 0.205581456422805786 0.0625608265399932861
-0.298400074243545532 -0.398323982954025269 -0.0927583277225494385
-0.446805983781814575 0.197696402668952942 0.207573816180229187
0.194107860326766968 -0.425799071788787842 0.172989517450332642
0.363489866256713867 0.396416723728179932 0.268764972686767578
0.352247238159179688 0.359224259853363037 0.0106134563684463501
0.393804103136062622 0.149439722299575806 0.181586712598800659
-0.541060268878936768 -0.125821888446807861 0.136619836091995239
-0.543400108814239502 0.0827736631035804749 0.327383339405059814
-0.408914625644683838 0.0535522960126399994 0.0972767695784568787
-0.25639653205871582 0.387313216924667358 0.132056564092636108
0.459686875343322754 -0.0577999874949455261 -0.219522386789321899
0.476049065589904785 0.179912790656089783 -0.172759592533111572
0.22294151782989502 0.509371280670166016 0.057413879781961441
-0.559620440006256104 0.0418928451836109161 0.257609307765960693
0.212387591600418091 0.489186197519302368 0.0291578769683837891
-0.477830469608306885 -0.060574069619178772 0.0500613898038864136
-0.40819019079208374 0.00123133789747953415 0.331163346767425537
0.454287737607955933 -0.29586067795753479 -0.278870671987533569
0.573827385902404785 0.104522250592708588 -0.187475010752677917
0.441228687763214111 -0.264792770147323608 -0.304867535829544067
-0.541578710079193115 -0.05994420126080513 0.268849760293960571
-0.448656588792800903 0.145261585712432861 0.101300850510597229
0.371175259351730347 -0.280761629343032837 0.0485952682793140411
-0.459763556718826294 0.305712789297103882 0.104240246117115021
-0.404037594795227051 -0.362825393676757812 -0.13277164101600647
-0.446936219930648804 0.206083029508590698 0.163773223757743835
-0.547967076301574707 -0.132141262292861938 0.0802780762314796448
0.335471808910369873 0.0783570036292076111 0.123905718326568604
0.504515230655670166 -0.0217378102242946625 -0.0285123549401760101
-0.379274636507034302 0.248351618647575378 0.0423468947410583496
0.44220203161239624 -0.141102269291877747 -0.057307705283164978
0.460797965526580811 0.190748021006584167 0.0966575443744659424
-0.413312196731567383 -0.24999721348285675 0.0193403288722038269
0.412036895751953125 -0.237707033753395081 -0.262136250734329224
-0.190252915024757385 0.436670422554016113 0.128306746482849121
0.483130097389221191 -0.26564297080039978 -0.289408594369888306
-0.430560410022735596 -0.0650643408298492432 0.111732058227062225
-0.459030389785766602 -0.161969855427742004 0.0261439569294452667
-0.59473264217376709 0.168034449219703674 0.140691280364990234
0.512692928314208984 -0.21745947003364563 -0.273892730474472046
0.510248661041259766 0.227214694023132324 -0.110532544553279877
0.443965524435043335 -0.118608497083187103 -0.224742144346237183
0.472863763570785522 0.0665418878197669983 -0.225312069058418274
0.362026214599609375 -0.381632149219512939 -0.304044574499130249
0.470427870750427246 -0.168798536062240601 -0.282425761222839355
-0.450567066669464111 0.34235498309135437 0.284606307744979858
0.464498192071914673 -0.37271428108215332 -0.306903541088104248
0.286651164293289185 -0.40818360447883606 -0.0389997251331806183
0.525514364242553711 0.0732941851019859314 -0.24303029477596283
0.337432116270065308 -0.373948186635971069 -0.343372493982315063
0.489763021469116211 -0.064877048134803772 -0.249493688344955444
-0.283623248338699341 -0.412690460681915283 -0.0980545729398727417
0.510821878910064697 -0.164544075727462769 -0.233767345547676086
0.539746999740600586 0.233013197779655457 -0.193533316254615784
0.192495480179786682 0.491317391395568848 0.0766537934541702271
-0.524683475494384766 -0.0570606999099254608 0.227744311094284058
-0.507964074611663818 -0.280961692333221436 -0.0220791883766651154
-0.454829752445220947 -0.109786875545978546 0.0131483562290668488
-0.368600010871887207 -0.271176427602767944 0.0178083479404449463
-0.528557181358337402 0.200310781598091125 0.318091869354248047
0.213880330324172974 0.468760102987289429 0.0867602378129959106
-0.512041568756103516 0.333472281694412231 0.327229350805282593
0.426560103893280029 -0.276966124773025513 -0.205824375152587891
0.16241493821144104 0.44982224702835083 0.350027382373809814
0.418052941560745239 -0.0158132538199424744 0.164872914552688599
-0.189208060503005981 0.459609925746917725 0.355109900236129761
0.390141010284423828 0.435965001583099365 0.0278286878019571304
0.485068142414093018 -0.0772168338298797607 -0.0709840506315231323
0.174994081258773804 0.542584836483001709 0.187626674771308899
-0.548273086547851562 -0.125492826104164124 0.173345386981964111
0.445513784885406494 -0.381657332181930542 -0.280812084674835205
0.522636711597442627 0.0450079925358295441 -0.255143314599990845
0.338862746953964233 0.403571456670761108 0.0461126044392585754
0.438283056020736694 0.153062403202056885 -0.102325655519962311
-0.418251365423202515 0.203988716006278992 0.0492743104696273804
0.348621577024459839 0.395493865013122559 0.0552444010972976685
0.296763628721237183 0.394231617450714111 0.00470321439206600189
0.472553789615631104 -0.160366237163543701 -0.283366918563842773
0.351164877414703369 0.307698160409927368 0.225723490118980408
0.40730208158493042 -0.315194189548492432 -0.243103444576263428
0.201003462076187134 0.483920156955718994 0.371460974216461182
-0.344478487968444824 -0.39285847544670105 0.0359587706625461578
0.383853644132614136 0.42951589822769165 0.0389585383236408234
0.268720060586929321 0.535462379455566406 0.195814698934555054
-0.558598220348358154 -0.130927920341491699 0.138761475682258606
0.457156777381896973 -0.356104373931884766 -0.280668735504150391
0.502968490123748779 0.0365545302629470825 -0.235791414976119995
0.469209104776382446 0.162510097026824951 -0.0108088497072458267
-0.33624151349067688 -0.384010106325149536 0.213498383760452271
0.473850786685943604 -0.206530764698982239 -0.299498230218887329
0.412740886211395264 -0.231488466262817383 -0.141391128301620483
-0.548710644245147705 0.293413668870925903 0.376122087240219116
0.152815863490104675 -0.481092631816864014 -0.195059999823570251
-0.572331726551055908 -0.0323490947484970093 0.264667987823486328
-0.383072823286056519 0.256738156080245972 0.0523167923092842102
-0.505707144737243652 0.0707152038812637329 0.318329751491546631
-0.495558559894561768 0.324168592691421509 0.298419833183288574
0.348108798265457153 0.398643195629119873 0.351088583469390869
-0.581497371196746826 -0.106976985931396484 0.237351194024085999
0.19852098822593689 0.473229169845581055 0.414236754179000854
-0.421248018741607666 -0.230569973587989807 0.0410371795296669006
-0.123558491468429565 -0.488510280847549438 -0.099947221577167511
0.503204107284545898 -0.267542243003845215 -0.272440940141677856
-0.490605413913726807 0.00690991245210170746 0.095224037766456604
-0.143301725387573242 0.465977877378463745 0.112999491393566132
-0.380269557237625122 -0.359225660562515259 0.0487354397773742676
0.455151170492172241 -0.216367617249488831 -0.259659677743911743
-0.587900638580322266 0.171810045838356018 0.130290389060974121
0.412038803100585938 0.335469871759414673 0.306471139192581177
0.502671718597412109 -0.211859926581382751 -0.267265677452087402
0.496648728847503662 -0.251521050930023193 -0.294083833694458008
0.454932719469070435 -0.133402451872825623 -0.205959081649780273
-0.076052643358707428 0.567934393882751465 0.335113763809204102
0.416930139064788818 0.239190101623535156 0.0430938079953193665
0.366836667060852051 -0.379407018423080444 -0.299813628196716309
-0.40030255913734436 -0.325544595718383789 -0.00507313013076782227
0.382847726345062256 -0.28923797607421875 -0.287767529487609863
0.510417819023132324 -0.170832410454750061 -0.2641792893409729
-0.593088805675506592 -0.177100881934165955 0.252013683319091797
-0.449099600315093994 0.327909708023071289 0.279947131872177124
0.428062170743942261 -0.367789655923843384 -0.300936639308929443
0.529523611068725586 -0.0493003316223621368 0.171321198344230652
0.0472575128078460693 0.445025444030761719 0.126409769058227539
0.444762617349624634 -0.190781936049461365 -0.299465835094451904
0.141345128417015076 0.303170472383499146 0.106161043047904968
0.459023058414459229 -0.237838596105575562 -0.25698399543762207
0.482029914855957031 -0.0681213513016700745 -0.25140005350112915
0.409023016691207886 -0.201108843088150024 -0.22136804461479187
-0.277966350317001343 -0.415756881237030029 -0.0944703966379165649
0.544614195823669434 -0.0921282544732093811 -0.247407823801040649
-0.540103256702423096 0.171406283974647522 0.340251624584197998
-0.361754179000854492 -0.332634419202804565 -0.0112648829817771912
-0.501883566379547119 -0.232597380876541138 0.0260398760437965393
0.525146305561065674 -0.0783965587615966797 -0.233031615614891052
-0.455331891775131226 -0.127647265791893005 0.00842068344354629517
-0.536481320858001709 0.19734567403793335 0.315355390310287476
-0.422335505485534668 -0.249211356043815613 0.011763744056224823
0.366460680961608887 0.447656571865081787 -0.0551835037767887115
0.502581357955932617 0.268658548593521118 -0.140547707676887512
0.353571981191635132 0.418592751026153564 0.0551989339292049408
0.261816859245300293 0.374108165502548218 0.387344896793365479
-0.556574046611785889 -0.208791285753250122 0.288280367851257324
0.358978331089019775 0.336846083402633667 0.262690544128417969
-0.571295738220214844 0.038300149142742157 0.130844742059707642
0.48478931188583374 -0.222533091902732849 -0.156173467636108398
-0.0187749043107032776 -0.553964734077453613 -0.112930715084075928
0.287451565265655518 0.37775382399559021 0.260628342628479004
0.355396360158920288 0.364597737789154053 0.356307178735733032
0.398011505603790283 0.323568463325500488 0.27651640772819519
-0.480078548192977905 -0.338794708251953125 0.070680662989616394
-0.117647916078567505 -0.530990004539489746 -0.107672274112701416
0.466404736042022705 -0.216280147433280945 -0.307115912437438965
0.270600557327270508 0.413406193256378174 0.225455939769744873
0.378403693437576294 0.0753223598003387451 0.271295845508575439
-0.52144700288772583 0.181000694632530212 0.271620869636535645
0.410790532827377319 -0.201880186796188354 -0.140280604362487793
0.563139081001281738 -0.0252889785915613174 -0.0148208439350128174
0.453400284051895142 -0.318837821483612061 -0.269466102123260498
-0.355294495820999146 -0.399142920970916748 0.0631873607635498047
-0.55252230167388916 0.30794525146484375 0.365709155797958374
0.367947816848754883 0.367116391658782959 -0.109686866402626038
0.423785090446472168 -0.291076362133026123 -0.225821390748023987
-0.356803834438323975 -0.428817838430404663 0.00165763497352600098
0.461873650550842285 -0.267018795013427734 -0.180324465036392212
-0.311002194881439209 -0.441933631896972656 -0.0931967422366142273
-0.505993664264678955 0.287858068943023682 0.364925801753997803
-0.555057048797607422 -0.346713900566101074 0.217208445072174072
-0.421667665243148804 -0.346585869789123535 0.0105485059320926666
0.394510328769683838 -0.297984600067138672 -0.287590324878692627
0.510102629661560059 0.0443200692534446716 0.00171248055994510651
0.498675286769866943 -0.0764887109398841858 -0.245845958590507507
0.441718965768814087 -0.204536944627761841 -0.24135097861289978
-0.553093433380126953 0.188083574175834656 0.341178417205810547
0.524846911430358887 0.12459941953420639 -0.204017221927642822
-0.52507483959197998 0.0103855505585670471 0.213420584797859192
0.452425569295883179 -0.257599622011184692 -0.257915735244750977
0.446843415498733521 0.186548709869384766 0.0184694081544876099
-0.283758968114852905 -0.460219085216522217 -0.0786817073822021484
-0.576263666152954102 -0.109797194600105286 0.271369695663452148
0.459220796823501587 -0.339589864015579224 -0.221772775053977966
0.308239102363586426 0.444471120834350586 0.128462105989456177
-0.604471325874328613 -0.245379164814949036 0.238126501441001892
0.305800408124923706 -0.393946528434753418 -0.0409769713878631592
-0.497087001800537109 -0.019269874319434166 0.13740849494934082
-0.402787744998931885 -0.40838390588760376 0.167831555008888245
0.518338859081268311 0.34228670597076416 -0.17009386420249939
-0.503290176391601562 0.0667035132646560669 0.198499292135238647
0.540263593196868896 0.133621200919151306 -0.215651080012321472
0.431623488664627075 -0.221149206161499023 -0.147570818662643433
0.410535931587219238 -0.327037304639816284 -0.272951871156692505
-0.353198051452636719 -0.404709041118621826 0.0647525712847709656
0.399713963270187378 0.327632486820220947 0.032479703426361084
0.480062127113342285 -0.0328935831785202026 -0.262182325124740601
0.413906753063201904 -0.289890527725219727 -0.231503412127494812
0.397550404071807861 -0.186884000897407532 0.0735174864530563354
0.515491366386413574 0.412239998579025269 -0.132389336824417114
-0.556360363960266113 0.109051570296287537 0.164422810077667236
0.51564478874206543 -0.261211633682250977 -0.272036641836166382
-0.326236367225646973 -0.388326525688171387 0.0677597075700759888
-0.551313340663909912 -0.208704695105552673 0.0508156009018421173
0.308333933353424072 -0.237413316965103149 -0.22433336079120636
-0.485035032033920288 0.100065767765045166 0.093944258987903595
0.476066529750823975 0.107588976621627808 -0.221472620964050293
0.419188052415847778 -0.278281718492507935 -0.172414883971214294
0.453345298767089844 -0.142535731196403503 -0.208807036280632019
-0.280476808547973633 -0.460339754819869995 -0.101927034556865692
0.369837969541549683 -0.36087268590927124 -0.245341688394546509
-0.441219806671142578 -0.333146542310714722 -0.013160116970539093
-0.596045553684234619 -0.349878638982772827 0.194890663027763367
0.209869787096977234 -0.418805867433547974 -0.230043753981590271
-0.423431992530822754 -0.354437828063964844 -0.00680255889892578125
-0.3771018385887146 -0.395784467458724976 -0.0815896019339561462
0.500179111957550049 -0.169630616903305054 -0.254257053136825562
-0.432839959859848022 0.319945693016052246 0.327175557613372803
0.45325082540512085 -0.364443570375442505 -0.29160115122795105
-0.555486977100372314 0.347408086061477661 0.266912400722503662
0.549227416515350342 0.0827063620090484619 -0.192457914352416992
-0.511501789093017578 0.112005457282066345 0.183105051517486572
-0.287675142288208008 -0.406928867101669312 -0.0944666862487792969
-0.309098362922668457 0.374591141939163208 0.169089972972869873
-0.496870487928390503 -0.247365623712539673 0.0294699147343635559
-0.458980441093444824 0.141620799899101257 0.0577845722436904907
0.408117294311523438 -0.172434031963348389 -0.0190332029014825821
0.2621193528175354 0.490032732486724854 0.356584727764129639
0.262456625699996948 -0.487427115440368652 -0.196759283542633057
-0.396133750677108765 -0.343123376369476318 0.129519656300544739
0.412570655345916748 -0.320663750171661377 2.02283263206481934e-05
0.446186304092407227 -0.0695869475603103638 0.0865571126341819763
0.451909959316253662 0.358629107475280762 0.0586180537939071655
0.28172379732131958 0.39788132905960083 0.310384899377822876
-0.389074921607971191 0.353828608989715576 0.258730530738830566
0.432009994983673096 -0.378995239734649658 -0.327760934829711914
0.432711273431777954 -0.287729591131210327 -0.082915864884853363
0.300999045372009277 0.42318427562713623 0.34158557653427124
0.320644795894622803 0.377884328365325928 0.329085826873779297
-0.394335925579071045 -0.324831277132034302 0.15514490008354187
0.382514387369155884 -0.182313784956932068 -0.030370788648724556
0.281537115573883057 0.436506032943725586 0.323871791362762451
-0.44921034574508667 0.337913215160369873 0.133582711219787598
0.427083343267440796 -0.364961385726928711 -0.30165746808052063
-0.446546703577041626 0.152462288737297058 0.020146392285823822
-0.576685309410095215 -0.126037895679473877 0.0695503950119018555
0.424058079719543457 -0.325330078601837158 -0.266614735126495361
-0.55426025390625 0.303636372089385986 0.363736510276794434
0.159827470779418945 -0.492492198944091797 -0.196262270212173462
0.36660882830619812 0.392875403165817261 -0.114001013338565826
-0.581409811973571777 -0.0346405357122421265 0.256119251251220703
0.419267326593399048 -0.108742415904998779 -0.176863878965377808
-0.505942702293395996 0.0857332423329353333 0.314379304647445679
-0.557588100433349609 0.200984388589859009 0.337933957576751709
0.424267053604125977 -0.289398878812789917 -0.22735479474067688
-0.487739771604537964 -0.014896211214363575 0.140668392181396484
-0.569918453693389893 0.110218435525894165 0.171885013580322266
0.458317458629608154 -0.317883163690567017 -0.286901652812957764
0.515513181686401367 -0.265964984893798828 -0.267904609441757202
0.45586279034614563 -0.267938882112503052 -0.261217713356018066
0.352441757917404175 -0.352023452520370483 -0.0845411121845245361
-0.43629908561706543 -0.404379129409790039 -0.0740871578454971313
0.404374390840530396 0.404236912727355957 -0.138379573822021484
-0.473684728145599365 0.102492041885852814 0.0998631566762924194
0.519794046878814697 -0.221589773893356323 -0.27212640643119812
0.44273674488067627 -0.284780979156494141 -0.174879088997840881
0.431036680936813354 -0.150543197989463806 -0.208068832755088806
-0.286914825439453125 -0.462698072195053101 -0.0925097540020942688
-0.289400219917297363 0.363478481769561768 0.221643179655075073
0.371350526809692383 -0.285993784666061401 -0.291232794523239136
-0.356468081474304199 -0.418012738227844238 -0.121191598474979401
0.487338840961456299 -0.178414061665534973 -0.280600309371948242
0.416214644908905029 -0.276137501001358032 -0.312859505414962769
0.473704695701599121 -0.369417816400527954 -0.293541848659515381
-0.559022784233093262 0.32731512188911438 0.276790916919708252
0.449638187885284424 -0.191877752542495728 -0.296835154294967651
0.347578316926956177 0.409461051225662231 0.133324518799781799
0.462770462036132812 -0.18530939519405365 -0.196624338626861572
-0.514315545558929443 0.0863712579011917114 0.251373946666717529
0.529229283332824707 -0.156924739480018616 -0.277784109115600586
-0.48099854588508606 -0.391020506620407104 0.0541419871151447296
-0.334613561630249023 -0.315085679292678833 -0.0925413221120834351
-0.509636282920837402 0.202372252941131592 0.31209951639175415
0.43607369065284729 -0.138717606663703918 -0.15017971396446228
0.519879579544067383 -0.255122661590576172 -0.291326940059661865
0.555378258228302002 -0.083223193883895874 -0.225384354591369629
0.431004047393798828 -0.297132730484008789 -0.231787979602813721
0.50602567195892334 -0.273547619581222534 -0.287392318248748779
0.399886935949325562 -0.33446657657623291 -0.185165822505950928
0.256781190633773804 0.483413457870483398 0.0115712564438581467
0.341290116310119629 -0.360350489616394043 -0.0731923505663871765
0.375037729740142822 0.42793583869934082 -0.118966050446033478
0.525557637214660645 -0.218296661972999573 -0.263593345880508423
-0.295668214559555054 -0.455230981111526489 -0.0901670381426811218
-0.501597285270690918 0.285531759262084961 0.346775591373443604
0.396479904651641846 -0.257671445608139038 -0.277873963117599487
0.428107380867004395 -0.276713669300079346 -0.313163876533508301
-0.435192346572875977 0.310196578502655029 0.317511588335037231
0.457750201225280762 -0.366248250007629395 -0.301609307527542114
0.431114614009857178 -0.190911054611206055 -0.288003444671630859
-0.279128968715667725 -0.423638612031936646 -0.121626347303390503
0.301546543836593628 -0.272141546010971069 -0.220313146710395813
-0.512890398502349854 -0.217530667781829834 0.0106728225946426392
-0.342534124851226807 -0.377946257591247559 0.136754274368286133
-0.371501803398132324 -0.422812998294830322 0.187074422836303711
0.167059585452079773 0.500696063041687012 0.375132948160171509
-0.518693923950195312 0.213270887732505798 0.199799671769142151
-0.284530550241470337 0.387625426054000854 0.0952997952699661255
-0.351105839014053345 -0.407606571912765503 0.185025349259376526
-0.58148658275604248 -0.122645623981952667 0.0759019553661346436
0.404083102941513062 -0.197168126702308655 0.0692751854658126831
-0.14944380521774292 0.544911980628967285 0.331346571445465088
-0.500007987022399902 -0.356027990579605103 -0.035146564245223999
-0.425521671772003174 -0.410182923078536987 -0.0747124478220939636
0.306425929069519043 -0.238024264574050903 -0.22419150173664093
-0.271262198686599731 -0.462587982416152954 -0.104537650942802429
-0.0794187113642692566 -0.54956132173538208 -0.109476737678050995
0.382565796375274658 -0.35909697413444519 -0.260798394680023193
-0.512158870697021484 0.26633945107460022 0.353292912244796753
-0.482896089553833008 -0.340150505304336548 -0.0235424600541591644
-0.551410138607025146 0.341473549604415894 0.246207237243652344
0.285120010375976562 -0.273441344499588013 -0.217007309198379517
-0.521611928939819336 -0.221236497163772583 0.0117932483553886414
-0.509322583675384521 0.0800843164324760437 0.266432762145996094
-0.135185211896896362 0.488274931907653809 0.111211791634559631
0.130298703908920288 0.521127760410308838 0.359258532524108887
0.278124392032623291 -0.467569798231124878 0.0381077602505683899
0.101597167551517487 0.502746462821960449 0.183829963207244873
0.259482443332672119 -0.41147497296333313 0.093972325325012207
-0.315502166748046875 0.396145075559616089 0.177937716245651245
-0.42471158504486084 -0.333302289247512817 -0.0868096128106117249
-0.217903509736061096 -0.49291384220123291 -0.11212603747844696
0.513122379779815674 -0.0343799516558647156 -0.258609473705291748
-0.236335828900337219 0.387167245149612427 0.134128034114837646
-0.136151537299156189 0.574102878570556641 0.33280906081199646
0.308013021945953369 0.547279834747314453 0.0294410698115825653
0.332314729690551758 -0.39604640007019043 -0.258301854133605957
-0.171755343675613403 0.496040195226669312 0.343292772769927979
0.477807462215423584 0.197732597589492798 -0.126532196998596191
0.449689298868179321 -0.136932894587516785 -0.219810172915458679
0.409324169158935547 -0.358822226524353027 -0.264298826456069946
0.384379982948303223 -0.358495950698852539 -0.254236131906509399
-0.406049728393554688 -0.346327513456344604 -0.0360616967082023621
0.440103828907012939 -0.36313861608505249 -0.286168932914733887
0.134986191987991333 0.628878116607666016 0.144843354821205139
-0.329031020402908325 -0.355344831943511963 -0.0936460942029953003
0.0251407772302627563 0.58266139030456543 0.147584438323974609
-0.289656281471252441 -0.407707303762435913 -0.0967579558491706848
-0.513388335704803467 0.087117314338684082 0.266520708799362183
0.276430130004882812 0.43101230263710022 0.298145860433578491
0.230853065848350525 0.455151796340942383 0.399788558483123779
0.365824103355407715 0.141293585300445557 0.272088766098022461
0.0963453501462936401 0.482938826084136963 0.160203814506530762
0.415088921785354614 0.352471143007278442 0.281205207109451294
0.217280030250549316 0.478614836931228638 0.0294222384691238403
0.172639533877372742 0.479757130146026611 0.390116304159164429
0.275933891534805298 0.363700687885284424 0.362062245607376099
0.102770857512950897 0.487183421850204468 0.131967142224311829
0.403890013694763184 0.341622799634933472 0.299862265586853027
0.320248305797576904 0.454687803983688354 0.0426520854234695435
-0.57376408576965332 -0.13590511679649353 0.0747544765472412109
-0.569746851921081543 0.113072574138641357 0.160255298018455505
0.484585046768188477 -0.268720626831054688 -0.283423870801925659
0.406635880470275879 -0.26804351806640625 -0.15092785656452179
0.433005988597869873 -0.151144310832023621 -0.206921830773353577
0.443547070026397705 -0.201104789972305298 -0.290876805782318115
0.221138954162597656 0.558397114276885986 0.07531718909740448
0.407757818698883057 -0.301637768745422363 -0.223660364747047424
0.332453936338424683 -0.395083338022232056 -0.257447987794876099
0.400508761405944824 -0.3654918372631073 -0.25902104377746582
-0.240236386656761169 0.392804592847824097 0.349031686782836914
0.435055553913116455 0.350608974695205688 0.213418185710906982
0.160899445414543152 -0.485100299119949341 -0.197116047143936157
0.410716533660888672 -0.39159885048866272 -0.305453896522521973
0.419347018003463745 -0.238680824637413025 -0.288106322288513184
0.410979717969894409 0.0896011888980865479 0.180435344576835632
0.429701328277587891 -0.39281800389289856 -0.301291733980178833
0.464602023363113403 -0.193075701594352722 -0.305035769939422607
-0.45374065637588501 0.182166144251823425 0.198275715112686157
-0.429345458745956421 -0.335514068603515625 -0.0693319663405418396
-0.449182122945785522 -0.366763412952423096 -0.0713974609971046448
-0.360056519508361816 -0.420672982931137085 -0.0878424495458602905
-0.536243081092834473 -0.104327365756034851 0.126990199089050293
0.469148457050323486 0.382089227437973022 -0.1232575923204422
-0.447911232709884644 0.114337801933288574 0.074153214693069458
0.484183907508850098 -0.272900223731994629 -0.291309565305709839
-0.444423913955688477 -0.0871605426073074341 0.0498125217854976654
0.316976547241210938 -0.251459866762161255 -0.224170923233032227
0.289840817451477051 -0.4051380455493927 0.0700898244976997375
-0.443359583616256714 -0.287790954113006592 0.151887744665145874
0.408465296030044556 -0.268036097288131714 -0.154568925499916077
0.386446535587310791 -0.375858426094055176 -0.260759472846984863
-0.520514845848083496 -0.0880931392312049866 0.167739972472190857
0.361321479082107544 0.422910302877426147 -0.0980270951986312866
-0.402720451354980469 0.327326059341430664 0.203945904970169067
-0.454472959041595459 -0.283195972442626953 -0.0340065620839595795
0.522579073905944824 0.182326585054397583 -0.215477943420410156
0.393639236688613892 0.447171002626419067 -0.120316043496131897
-0.501163780689239502 -0.130895271897315979 0.0563983730971813202
0.49659430980682373 -0.278511285781860352 -0.296257942914962769
0.259881287813186646 0.500595450401306152 0.00120802409946918488
0.470633924007415771 -0.202202528715133667 -0.301449179649353027
-0.370789974927902222 -0.314563155174255371 0.265896618366241455
0.468015909194946289 -0.0860513895750045776 -0.203049629926681519
-0.412694096565246582 -0.38453790545463562 0.224470138549804688
-0.581125140190124512 -0.125328153371810913 0.120708614587783813
0.414442956447601318 -0.213771924376487732 -0.233963683247566223
-0.368922144174575806 -0.411799848079681396 0.0126806572079658508
0.479402095079421997 0.180885002017021179 -0.122771024703979492
0.446335822343826294 0.187587082386016846 -0.0839468538761138916
0.547616243362426758 0.2219952791929245 -0.178137227892875671
0.266097366809844971 0.399882137775421143 0.380404919385910034
0.471513330936431885 -0.287341684103012085 -0.252342313528060913
-0.551045656204223633 0.110189363360404968 0.303662866353988647
0.45693013072013855 -0.101028725504875183 0.217629760503768921
0.258949726819992065 -0.397751450538635254 0.0537640862166881561
0.521394848823547363 -0.0214133467525243759 -0.252213954925537109
-0.505258083343505859 -0.0131653798744082451 0.227762281894683838
-0.524030327796936035 -0.0489915125072002411 0.290998995304107666
-0.527900218963623047 0.217135921120643616 0.169824197888374329
-0.529012382030487061 0.133467867970466614 0.273799419403076172
0.496516406536102295 -0.148524463176727295 -0.252802729606628418
0.552095293998718262 -0.05836496502161026 -0.14899832010269165
-0.482942432165145874 0.0658738687634468079 0.0661945044994354248
-0.39574354887008667 -0.400814145803451538 0.0412317141890525818
-0.490699052810668945 0.181442558765411377 0.277895808219909668
0.458106905221939087 0.125432580709457397 -0.0671237558126449585
0.469006955623626709 -0.165459111332893372 -0.168623402714729309
0.409664809703826904 -0.123785629868507385 -0.088854469358921051
-0.537557721138000488 0.191935941576957703 0.350963622331619263
-0.59690403938293457 -0.178311213850975037 0.266836047172546387
0.449484169483184814 -0.0271449163556098938 0.229498386383056641
0.274856716394424438 0.350723475217819214 0.262442588806152344
-0.541590690612792969 0.217649549245834351 0.300003856420516968
-0.494272619485855103 0.327403157949447632 0.326464086771011353
0.426270842552185059 -0.291368067264556885 -0.133475035429000854
-0.552783727645874023 -0.0563787743449211121 0.221418559551239014
0.5437355637550354 0.391863822937011719 -0.0917503237724304199
-0.558151721954345703 0.30930095911026001 0.357405930757522583
-0.430859178304672241 -0.330945193767547607 -0.0711457133293151855
0.568010330200195312 -0.0927964150905609131 -0.230944663286209106
-0.424581706523895264 -0.224583745002746582 -0.0137271322309970856
0.439390361309051514 0.389899015426635742 -0.0732585042715072632
-0.447503924369812012 -0.366179794073104858 -0.0778149217367172241
0.471278011798858643 -0.270451366901397705 -0.30288398265838623
0.547443151473999023 0.104896500706672668 -0.1859549880027771
0.480532914400100708 -0.268985122442245483 -0.286971241235733032
-0.566254615783691406 0.14678560197353363 0.322514235973358154
0.459567844867706299 -0.219661593437194824 -0.26694333553314209
-0.277921557426452637 -0.454362332820892334 -0.100054383277893066
-0.498452663421630859 -0.0783947557210922241 0.153982281684875488
-0.487249970436096191 -0.0110998470336198807 0.0515840500593185425
0.375507205724716187 -0.332016855478286743 -0.223311722278594971
0.42967534065246582 -0.33947676420211792 -0.313948184251785278
0.512530148029327393 0.31689000129699707 -0.163764774799346924
-0.574055492877960205 -0.292246580123901367 0.244447052478790283
-0.380397170782089233 0.310686796903610229 0.198278546333312988
-0.440078467130661011 -0.276686787605285645 -0.0363901704549789429
-0.498168885707855225 0.0930364876985549927 0.319536834955215454
-0.446711152791976929 -0.246236681938171387 0.00464280694723129272
-0.502892792224884033 0.0616369247436523438 0.318776428699493408
-0.192911013960838318 0.438032388687133789 0.11308414489030838
0.355389982461929321 0.404977560043334961 0.0610846318304538727
-0.498580485582351685 -0.16772538423538208 0.0450332239270210266
0.391936123371124268 -0.376925647258758545 -0.264586359262466431
0.522939145565032959 0.187504306435585022 -0.210689663887023926
-0.527144551277160645 -0.0542553700506687164 0.277214765548706055
-0.50067669153213501 0.0775818005204200745 0.0612283051013946533
-0.597222089767456055 -0.172358959913253784 0.267971605062484741
0.42963707447052002 -0.221392959356307983 -0.0222561396658420563
-0.495034784078598022 0.310417890548706055 0.3485737144947052
0.486761808395385742 -0.054403156042098999 -0.255403101444244385
0.465676844120025635 -0.249724537134170532 -0.201116114854812622
0.400835335254669189 -0.0964725613594055176 0.111168116331100464
0.562842309474945068 0.12958739697933197 -0.097718559205532074
-0.334788858890533447 -0.420048683881759644 -0.0852351933717727661
0.449001669883728027 -0.210866630077362061 -0.262243092060089111
-0.550224721431732178 -0.0567779205739498138 0.317099064588546753
-0.507338285446166992 0.283744931221008301 0.305852949619293213
0.450083792209625244 -0.255124032497406006 -0.179995179176330566
0.427734673023223877 -0.272843718528747559 -0.220913931727409363
0.351872742176055908 0.347106277942657471 0.261824995279312134
0.340702205896377563 0.418983042240142822 0.0431882962584495544
-0.144688963890075684 0.448078721761703491 0.12810961902141571
-0.557716667652130127 0.21167832612991333 0.319540321826934814
0.470457196235656738 -0.356428205966949463 -0.302849471569061279
-0.239161461591720581 0.376385331153869629 0.17955334484577179
0.102519519627094269 0.454752683639526367 0.078001849353313446
-0.552293658256530762 0.223305478692054749 0.338280469179153442
0.471184432506561279 -0.186516299843788147 -0.262824416160583496
-0.192916736006736755 0.400908559560775757 0.106717981398105621
-0.453687995672225952 0.216091588139533997 0.0355381742119789124
0.374980807304382324 0.0118059366941452026 0.228506982326507568
-0.194328621029853821 0.458511292934417725 0.342676043510437012
0.175697773694992065 -0.448851823806762695 -0.177573561668395996
0.54710012674331665 0.0284356977790594101 -0.0980061739683151245
0.468730270862579346 -0.207114577293395996 -0.301177322864532471
-0.502236545085906982 0.367819666862487793 0.355612367391586304
-0.342185467481613159 -0.432948917150497437 -0.0716084092855453491
-0.573389708995819092 -0.143106758594512939 0.299783229827880859
-0.545971810817718506 0.284506350755691528 0.343094676733016968
0.439411699771881104 -0.240943044424057007 -0.201868295669555664
0.339958727359771729 0.420434743165969849 0.0316462665796279907
0.411422908306121826 -0.158726796507835388 -0.0996988490223884583
0.434806078672409058 -0.113819465041160583 -0.177059724926948547
0.369895339012145996 0.338742375373840332 0.0502529889345169067
0.453617602586746216 0.394454836845397949 -0.13684961199760437
0.276726812124252319 -0.36122894287109375 -0.0126584824174642563
-0.534476637840270996 0.0647368356585502625 0.283569633960723877
0.483436107635498047 -0.365310549736022949 -0.304482907056808472
0.530687034130096436 0.402272164821624756 -0.0946157351136207581
-0.580398380756378174 -0.0205535218119621277 0.252060264348983765
-0.426983445882797241 -0.328142642974853516 -0.0752802863717079163
0.580350100994110107 -0.0806840136647224426 -0.250458866357803345
-0.423562705516815186 -0.202269181609153748 -0.0124552808701992035
-0.238805085420608521 0.380306452512741089 0.154091864824295044
-0.395376443862915039 0.321190804243087769 0.0479384958744049072
0.468791425228118896 0.0382502228021621704 0.23781055212020874
0.485183775424957275 -0.260018855333328247 -0.285351037979125977
0.537466645240783691 -0.116373039782047272 -0.258657127618789673
0.501523971557617188 0.316900014877319336 -0.16408480703830719
-0.511556863784790039 0.0547945462167263031 0.0956100374460220337
0.401837319135665894 0.449807554483413696 -0.128473833203315735
-0.491376608610153198 -0.0223138444125652313 0.0511186197400093079
-0.509675681591033936 0.321255505084991455 0.366151362657546997
-0.387868374586105347 -0.40615805983543396 0.164483636617660522
0.567359566688537598 0.229966282844543457 -0.190712839365005493
0.416708320379257202 -0.273275017738342285 -0.251556545495986938
0.433430016040802002 -0.180269911885261536 -0.296415507793426514
-0.449028164148330688 -0.284407854080200195 -0.0390975251793861389
-0.509321451187133789 0.0712526589632034302 0.270653426647186279
-0.557701349258422852 0.0515699833631515503 0.191097080707550049
0.526682078838348389 0.176399514079093933 -0.213531047105789185
-0.470211148262023926 0.330492109060287476 0.0333551988005638123
0.555690884590148926 0.0465857870876789093 -0.0954546928405761719
0.378326535224914551 -0.365499287843704224 -0.203340113162994385
0.552189648151397705 -0.156929224729537964 -0.226881593465805054
-0.364100486040115356 0.356016308069229126 0.107926651835441589
-0.363655805587768555 -0.353837937116622925 -0.0518694818019866943
-0.485009491443634033 -0.281316965818405151 -0.0362418629229068756
0.526514708995819092 0.0766954720020294189 -0.237710058689117432
0.398823857307434082 -0.0263250470161437988 0.220953226089477539
0.527311384677886963 0.175186127424240112 -0.216265499591827393
-0.496126919984817505 -0.150116115808486938 0.0555364377796649933
