ply
format ascii 1.0
element vertex 741
property float x
property float y
property float z
end_header
0.411397397518157959 0.0225720126181840897 -0.203014135360717773
-0.497963964939117432 -0.0956572145223617554 0.324600517749786377
-0.453673303127288818 0.114147715270519257 0.175605475902557373
-0.440148055553436279 0.0577176213264465332 0.153371065855026245
-0.239054396748542786 0.422271877527236938 0.247188329696655273
-0.142236590385437012 0.438496053218841553 0.174552202224731445
-0.403930187225341797 -0.145449861884117126 0.164929449558258057
0.233286663889884949 -0.367416232824325562 -0.241000384092330933
0.410955727100372314 -0.0532479174435138702 -0.261382073163986206
0.432090103626251221 0.0778046101331710815 -0.257786035537719727
0.432361245155334473 -0.00630103982985019684 -0.210191980004310608
-0.383727520704269409 -0.149868786334991455 0.116165384650230408
0.318914026021957397 -0.188644751906394958 0.0517440997064113617
0.330165505409240723 -0.264801174402236938 -0.307986468076705933
0.277946203947067261 0.285871624946594238 -0.0398217663168907166
0.361200690269470215 -0.306650698184967041 -0.297250181436538696
-0.417649269104003906 0.159826815128326416 0.125006899237632751
-0.384060442447662354 -0.0343933925032615662 0.0915927886962890625
-0.451893478631973267 0.00887359306216239929 0.20038112998008728
-0.46668553352355957 0.170441165566444397 0.383908331394195557
-0.456404298543930054 -0.032451234757900238 0.166591495275497437
-0.330175846815109253 -0.359680235385894775 0.0739436596632003784
0.349923789501190186 0.40037006139755249 -0.140375435352325439
0.386797636747360229 -0.309269249439239502 -0.301115512847900391
-0.361314266920089722 -0.200542569160461426 0.0658563971519470215
-0.444719910621643066 0.00480034947395324707 0.210520431399345398
-0.484582304954528809 0.219490081071853638 0.405752807855606079
0.322868585586547852 -0.14296741783618927 -0.217655226588249207
0.291158378124237061 -0.259450078010559082 -0.0363069772720336914
0.312607824802398682 -0.223324090242385864 0.00552308186888694763
0.393948793411254883 0.00855702906847000122 0.0787683725357055664
0.15809515118598938 -0.434179753065109253 -0.0318386703729629517
-0.340637743473052979 -0.354696094989776611 0.0621081516146659851
0.403862982988357544 0.151131957769393921 0.0614019110798835754
-0.424964010715484619 -0.0849020406603813171 0.178672075271606445
0.368813872337341309 0.210857897996902466 0.0438271090388298035
-0.164453759789466858 0.357365190982818604 0.151727855205535889
0.389692038297653198 0.19720776379108429 -0.0409550406038761139
0.387107729911804199 -0.0519507043063640594 0.161391690373420715
0.296039283275604248 -0.337674051523208618 -0.118796117603778839
0.36887437105178833 0.309182316064834595 0.325139850378036499
0.439864486455917358 0.0240937937051057816 -0.0362116172909736633
0.512713134288787842 0.284661144018173218 -0.0870274752378463745
0.409719228744506836 0.219075828790664673 -0.0625808835029602051
0.274137407541275024 0.319215297698974609 0.297448158264160156
0.385240823030471802 -0.223689049482345581 -0.2974129319190979
0.371952205896377563 0.270321160554885864 0.25883910059928894
0.306599140167236328 0.346447765827178955 0.330903559923171997
-0.392150998115539551 0.142937332391738892 0.141993254423141479
-0.361406803131103516 0.21304728090763092 0.0997014641761779785
0.338511228561401367 0.00545352697372436523 0.153965532779693604
0.284200400114059448 0.325687825679779053 0.0717524513602256775
0.382153958082199097 -0.231471613049507141 -0.270760685205459595
-0.411347717046737671 -0.0828169137239456177 0.170618146657943726
0.419362634420394897 0.253167778253555298 -0.195350930094718933
-0.354111462831497192 -0.332201480865478516 -0.030062701553106308
0.206571638584136963 0.379202932119369507 0.336146235466003418
0.312742501497268677 0.225839540362358093 0.225265905261039734
-0.1496848464012146 0.420880615711212158 0.179641947150230408
-0.354127168655395508 0.27319258451461792 0.122701749205589294
0.445306092500686646 0.110574707388877869 -0.21280023455619812
-0.273497492074966431 -0.423078864812850952 -0.00672122836112976074
0.386806398630142212 -0.0912561491131782532 0.180786281824111938
-0.45616874098777771 0.131210744380950928 0.26546180248260498
-0.449004560708999634 -0.121149368584156036 0.355692088603973389
0.362815260887145996 -0.0123505145311355591 0.121073365211486816
0.0641867220401763916 0.0809479355812072754 0.0664491131901741028
0.359879195690155029 0.0234904363751411438 0.0215324871242046356
0.398587167263031006 0.0286944322288036346 -0.191373661160469055
0.322271168231964111 0.0388775914907455444 0.0974567309021949768
0.317483127117156982 0.125839769840240479 0.238697558641433716
0.374399960041046143 -0.0751176699995994568 0.0384840890765190125
0.36487385630607605 0.204835221171379089 0.0418327711522579193
0.376328319311141968 -0.196042865514755249 -0.227800473570823669
0.394194930791854858 -0.0255085323005914688 0.158930227160453796
0.39965704083442688 -0.00115224160254001617 -0.0639815330505371094
0.385416746139526367 0.368652462959289551 -0.0526768863201141357
0.324421674013137817 0.236024215817451477 -0.088935457170009613
0.36883273720741272 0.268408685922622681 0.256066054105758667
0.38528028130531311 -0.189003229141235352 -0.251194685697555542
-0.388421922922134399 0.211018040776252747 0.186968237161636353
0.440585494041442871 -0.118678435683250427 -0.208227336406707764
-0.382380098104476929 0.0330130904912948608 0.160601437091827393
0.415288805961608887 0.19018283486366272 -0.156429260969161987
-0.421502470970153809 0.145534530282020569 0.150621592998504639
-0.491527855396270752 0.0858116894960403442 0.31404489278793335
-0.0746432766318321228 0.511294901371002197 0.166001498699188232
0.339195847511291504 0.0473940521478652954 0.20516832172870636
-0.337225943803787231 0.307848095893859863 0.279405295848846436
-0.505750894546508789 -0.0839500501751899719 0.334246963262557983
-0.498662173748016357 -0.172576218843460083 0.330872237682342529
-0.381008148193359375 -0.259789377450942993 0.101983249187469482
-0.43264317512512207 -0.304642915725708008 0.0990283787250518799
0.260465353727340698 0.494040906429290771 0.0567670464515686035
-0.430134892463684082 0.0285046454519033432 0.127828195691108704
-0.355465918779373169 -0.378500223159790039 -0.0239010080695152283
-0.457894176244735718 -0.206156164407730103 0.104348853230476379
0.270549952983856201 -0.22604861855506897 -0.238618209958076477
-0.370875567197799683 -0.327049046754837036 -0.0632157847285270691
0.440193772315979004 -0.00255021452903747559 -0.189896374940872192
-0.448507547378540039 0.111268520355224609 0.173016011714935303
0.424070358276367188 -0.0900159329175949097 -0.281913131475448608
0.399232178926467896 -0.230760261416435242 -0.255295366048812866
-0.243058234453201294 -0.410787284374237061 -0.0195021219551563263
-0.389977693557739258 -0.168463274836540222 0.179469496011734009
0.404901027679443359 -0.0247958637773990631 -0.171401098370552063
0.41145557165145874 -0.0510980673134326935 -0.256611853837966919
-0.459108620882034302 0.0465400591492652893 0.305487394332885742
0.478785336017608643 0.0864823460578918457 -0.202980294823646545
0.349084973335266113 0.396252661943435669 -0.136199086904525757
0.242759585380554199 -0.3898162841796875 -0.0889342799782752991
0.412292957305908203 0.00274416245520114899 -0.198539137840270996
-0.384617239236831665 -0.14589296281337738 0.117448396980762482
-0.315357357263565063 -0.398173868656158447 -0.0514433272182941437
-0.46781456470489502 -0.251756399869918823 0.105250641703605652
0.255754619836807251 0.529251933097839355 0.0547813102602958679
0.349489182233810425 0.37782210111618042 -0.127063900232315063
0.375292479991912842 -0.336110055446624756 -0.339021563529968262
0.243990704417228699 0.498326301574707031 0.0955551415681838989
-0.128452524542808533 0.436669707298278809 0.175265207886695862
-0.466737478971481323 0.16836237907409668 0.383998125791549683
-0.420684605836868286 -0.323725908994674683 0.0143992267549037933
-0.324780106544494629 -0.325370311737060547 0.0309298783540725708
-0.455922394990921021 -0.212670996785163879 0.132589533925056458
-0.373109668493270874 -0.229372143745422363 0.101434648036956787
0.435113072395324707 -0.270545631647109985 -0.304517686367034912
0.315975487232208252 -0.257147401571273804 -0.303445339202880859
0.398565769195556641 -0.22471386194229126 -0.304448962211608887
0.329880267381668091 0.238638386130332947 0.231101185083389282
-0.360719621181488037 0.105892777442932129 0.131013572216033936
0.347028553485870361 0.221361920237541199 -0.0668170228600502014
-0.449526458978652954 -0.105686597526073456 0.171976327896118164
0.373854726552963257 0.193667083978652954 0.0513457953929901123
-0.474943786859512329 -0.16972862184047699 0.144022524356842041
-0.463477015495300293 -0.205771893262863159 0.156106501817703247
-0.486184239387512207 -0.0565215125679969788 0.278184115886688232
-0.451803684234619141 0.0868184790015220642 0.234692797064781189
0.411576390266418457 -0.163723871111869812 -0.275752037763595581
0.428395986557006836 0.0624264031648635864 -0.247228935360908508
-0.321740448474884033 0.33237612247467041 0.227362245321273804
-0.504102766513824463 -0.239398613572120667 0.28187897801399231
-0.462977379560470581 -0.0434819832444190979 0.261579364538192749
0.267480432987213135 0.392885416746139526 0.013277050107717514
0.372692704200744629 -0.272675901651382446 -0.328718483448028564
0.323761433362960815 -0.341612935066223145 -0.308141231536865234
-0.505788147449493408 0.207391113042831421 0.336603432893753052
-0.324215203523635864 -0.361326247453689575 0.0318457037210464478
0.214242696762084961 -0.376248180866241455 -0.193603739142417908
0.331382572650909424 -0.165766119956970215 0.0055287536233663559
0.190166622400283813 0.363112688064575195 0.288928180932998657
-0.478706330060958862 -0.0488355159759521484 0.209398224949836731
0.362891167402267456 0.109924480319023132 -0.121924668550491333
-0.239761829376220703 -0.447189897298812866 -0.0477835685014724731
0.328762263059616089 0.421468019485473633 -0.115531496703624725
-0.319191157817840576 -0.352508753538131714 -0.00452064722776412964
-0.444720149040222168 -0.341390490531921387 0.00372518599033355713
-0.21533694863319397 0.4273681640625 0.250388085842132568
0.303238958120346069 -0.326309293508529663 -0.116045743227005005
-0.445373088121414185 0.111920058727264404 0.362485736608505249
-0.438176989555358887 0.24292224645614624 0.371563822031021118
0.301783144474029541 0.15194585919380188 0.279912561178207397
0.108125537633895874 0.480007857084274292 0.31989055871963501
0.280593305826187134 0.223901420831680298 0.346186131238937378
0.378226816654205322 0.243426933884620667 -0.0863534808158874512
0.342589318752288818 -0.0734701305627822876 0.0816965401172637939
-0.50125885009765625 -0.068114742636680603 0.186816945672035217
-0.446008443832397461 -0.215300813317298889 0.130782216787338257
-0.450129032135009766 -0.0625377744436264038 0.198814332485198975
-0.412010252475738525 0.32405775785446167 0.393786489963531494
-0.449512302875518799 0.00872767344117164612 0.360760122537612915
0.473669052124023438 -0.153403177857398987 -0.249833032488822937
-0.392944186925888062 0.153511360287666321 0.28494107723236084
-0.388340264558792114 0.132208272814750671 0.226709753274917603
0.350064188241958618 -0.270069509744644165 -0.313741028308868408
0.371693402528762817 -0.316990315914154053 -0.335128366947174072
-0.374699205160140991 -0.182951495051383972 0.10733448714017868
-0.193784072995185852 0.370089530944824219 0.206659302115440369
-0.310197234153747559 -0.366236239671707153 0.0569673515856266022
0.300181686878204346 -0.317039847373962402 -0.0971249192953109741
0.416848361492156982 0.0437800250947475433 -0.0283891670405864716
0.103561162948608398 0.37904590368270874 0.14260689914226532
-0.128445431590080261 0.535251855850219727 0.355210959911346436
0.368688285350799561 0.0935278534889221191 0.0417604371905326843
-0.259460806846618652 -0.418463021516799927 -0.0210475325584411621
0.366963684558868408 0.336799949407577515 -0.150517120957374573
-0.405283093452453613 -0.340160369873046875 -0.0134056061506271362
-0.214574486017227173 0.409684360027313232 0.221604108810424805
0.313681662082672119 -0.292909383773803711 -0.0599589981138706207
0.248285874724388123 -0.180610164999961853 0.222968429327011108
-0.470862090587615967 0.0238934122025966644 0.345852822065353394
0.359220147132873535 0.245354607701301575 0.285394996404647827
-0.485775977373123169 -0.0242151468992233276 0.1557110995054245
-0.158538579940795898 0.423557072877883911 0.172799646854400635
0.414979457855224609 0.373277902603149414 -0.135764628648757935
-0.323191851377487183 -0.0860669165849685669 0.094959452748298645
-0.374540627002716064 -0.246511474251747131 0.0961961895227432251
-0.201780140399932861 0.409523487091064453 0.184190958738327026
-0.415448665618896484 -0.0815352126955986023 0.114552125334739685
0.285228461027145386 0.0927765071392059326 0.265225589275360107
-0.453985124826431274 -0.146129637956619263 0.114028289914131165
-0.457716703414916992 -0.0791788697242736816 0.272705733776092529
-0.473647058010101318 0.029248090460896492 0.16112789511680603
0.294583797454833984 -0.256649047136306763 -0.0481680743396282196
0.32644200325012207 -0.287617534399032593 -0.174531936645507812
-0.44846072793006897 0.0371975675225257874 0.133309394121170044
-0.376863747835159302 -0.322510808706283569 0.0417238697409629822
-0.214254409074783325 0.432735651731491089 0.242048770189285278
-0.444910913705825806 -0.276513457298278809 0.0596008896827697754
-0.463212430477142334 -0.19500887393951416 0.106577098369598389
-0.407176047563552856 0.196209266781806946 0.314828038215637207
-0.378871411085128784 0.354110538959503174 0.132798224687576294
0.421978175640106201 0.0273520816117525101 -0.264841973781585693
-0.419346362352371216 0.083444744348526001 0.12735825777053833
0.320148766040802002 0.116810441017150879 -0.133432447910308838
-0.327104955911636353 0.311669737100601196 0.300500005483627319
0.387536674737930298 0.141503512859344482 -0.259472578763961792
0.346750080585479736 -0.256797641515731812 -0.265850871801376343
-0.486694097518920898 -0.097766190767288208 0.324455320835113525
-0.260825812816619873 0.342527508735656738 0.26909339427947998
-0.349970996379852295 0.322047442197799683 0.160769149661064148
-0.448956578969955444 0.110536187887191772 0.173841491341590881
-0.418165653944015503 -0.316665679216384888 0.0535441786050796509
0.347933948040008545 -0.366923123598098755 -0.298564404249191284
-0.368333101272583008 -0.280076354742050171 0.00407957099378108978
-0.470888525247573853 0.277587175369262695 0.39896690845489502
0.332346260547637939 0.373060524463653564 -0.148142293095588684
0.443226754665374756 0.337807059288024902 -0.184022426605224609
0.432476341724395752 -0.269613951444625854 -0.308518081903457642
0.387377172708511353 -0.00667755305767059326 -0.166403770446777344
0.3470497727394104 0.410452544689178467 -0.13955041766166687
-0.267324388027191162 0.346586734056472778 0.201321899890899658
0.235581666231155396 0.517921805381774902 0.120669864118099213
0.376104235649108887 -0.114120267331600189 -0.0616632625460624695
-0.359631180763244629 -0.343714505434036255 -0.0131399445235729218
0.432292759418487549 0.0309826266020536423 -0.199474409222602844
0.401912957429885864 -0.120976492762565613 -0.250435799360275269
0.275968432426452637 -0.340863466262817383 -0.323384672403335571
-0.459484666585922241 -0.108155213296413422 0.190935730934143066
-0.357177853584289551 -0.363450884819030762 0.230434983968734741
0.254892081022262573 0.525593757629394531 0.0527142100036144257
0.43059113621711731 -0.16824398934841156 -0.235055983066558838
0.278690248727798462 0.281060189008712769 -0.0405602753162384033
0.402042180299758911 -0.201826497912406921 -0.270096123218536377
-0.456756830215454102 0.00152442604303359985 0.303019016981124878
0.249510318040847778 0.503586649894714355 0.0944720804691314697
0.261333227157592773 0.339103519916534424 0.229279354214668274
-0.470096051692962646 0.159540325403213501 0.379838407039642334
-0.0603760629892349243 0.47024109959602356 0.36648210883140564
-0.450014799833297729 0.0951126515865325928 0.163771957159042358
0.360324740409851074 -0.19328954815864563 -0.175495818257331848
-0.104633770883083344 0.407512426376342773 0.146942302584648132
0.383910596370697021 -0.19835209846496582 -0.217723727226257324
-0.320138812065124512 -0.383028090000152588 0.0739438682794570923
-0.464150041341781616 0.0653277263045310974 0.309237807989120483
0.386166095733642578 -0.344510167837142944 -0.332102596759796143
-0.487526297569274902 0.332709550857543945 0.384999275207519531
-0.323332220315933228 -0.364617526531219482 0.0344109013676643372
-0.445693671703338623 0.237234234809875488 0.362751901149749756
-0.444644898176193237 -0.213360995054244995 0.148909121751785278
-0.407803863286972046 0.218132704496383667 0.298093080520629883
-0.310016334056854248 -0.365777283906936646 0.0553630292415618896
-0.128075987100601196 0.539638936519622803 0.343632727861404419
0.308799088001251221 -0.286863535642623901 -0.0568615198135375977
0.343837827444076538 0.363724768161773682 0.0281456485390663147
-0.441246569156646729 -0.21514543890953064 0.0446181818842887878
-0.365530401468276978 0.157491162419319153 0.252481669187545776
0.370021641254425049 -0.191087886691093445 -0.2377033531665802
0.203702092170715332 0.454603105783462524 0.243153616786003113
-0.432549059391021729 -0.0515796206891536713 0.376415491104125977
0.313126176595687866 -0.231617048382759094 0.124319761991500854
-0.459950745105743408 -0.011872587725520134 0.17479407787322998
-0.322058320045471191 0.278442293405532837 0.145402953028678894
0.41921687126159668 0.0563727617263793945 -0.038198322057723999
-0.349391788244247437 -0.343525201082229614 0.12310374528169632
0.37630850076675415 0.0393863357603549957 0.018110521137714386
-0.481949150562286377 -0.134814217686653137 0.0440845228731632233
-0.166373923420906067 0.383168309926986694 0.146209880709648132
-0.498439788818359375 0.0422306358814239502 0.363461524248123169
0.383841395378112793 0.122251182794570923 0.254584193229675293
0.353680551052093506 0.00751529820263385773 0.133637577295303345
0.319885164499282837 -0.275716692209243774 -0.1872386634349823
-0.293008029460906982 0.316554427146911621 0.300017833709716797
-0.435240030288696289 -0.237618625164031982 0.126160204410552979
-0.416264444589614868 -0.175727277994155884 0.147136837244033813
0.147431731224060059 -0.390601694583892822 0.195300742983818054
0.312207847833633423 -0.243679791688919067 -0.0522151589393615723
-0.472879558801651001 0.158281624317169189 0.388022959232330322
-0.440856575965881348 0.00568416528403759003 0.224787205457687378
-0.439118385314941406 -0.0124611416831612587 0.36200636625289917
-0.456475824117660522 0.099170684814453125 0.267256736755371094
-0.450098782777786255 -0.191482409834861755 0.0555974990129470825
-0.485516220331192017 -0.0210432223975658417 0.218005210161209106
0.318828403949737549 -0.225708946585655212 0.176671057939529419
-0.163744017481803894 0.441123843193054199 0.175089806318283081
0.331631094217300415 -0.245551630854606628 -0.302189499139785767
0.389960527420043945 0.126032173633575439 0.0551165938377380371
-0.418385982513427734 0.0467481762170791626 0.201807320117950439
-0.356995910406112671 -0.097810208797454834 0.0854431614279747009
-0.121571414172649384 0.43243640661239624 0.165668651461601257
-0.466508984565734863 0.186413750052452087 0.385246872901916504
0.411160647869110107 0.0956801921129226685 0.14673730731010437
0.365551590919494629 0.117767058312892914 -0.000587509945034980774
0.283458083868026733 0.368805140256881714 0.101216606795787811
-0.431672841310501099 -0.213421925902366638 0.0520925074815750122
-0.359314471483230591 0.161160781979560852 0.24067351222038269
0.280903488397598267 0.315352082252502441 0.190811246633529663
-0.419048935174942017 0.0324738025665283203 0.172069758176803589
0.460234552621841431 0.14820939302444458 0.0208148322999477386
0.36035621166229248 0.0885693281888961792 -0.203344851732254028
0.358861714601516724 0.0659705996513366699 0.013026457279920578
-0.406089574098587036 -0.0747985541820526123 0.0708861649036407471
0.341700285673141479 0.371257752180099487 0.0134660471230745316
0.173907876014709473 -0.388901174068450928 -0.234513923525810242
0.36571735143661499 -0.235495090484619141 -0.1300477534532547
-0.0801089704036712646 0.464776366949081421 0.173672765493392944
-0.48163527250289917 0.118163354694843292 0.370577484369277954
-0.28826373815536499 0.293911784887313843 0.148392036557197571
-0.399082541465759277 -0.060328260064125061 0.401813268661499023
0.365379482507705688 0.20580233633518219 0.26083749532699585
-0.42832106351852417 0.297285735607147217 0.295237034559249878
0.321823000907897949 -0.299472063779830933 -0.257736921310424805
-0.332750290632247925 0.356840372085571289 0.271880447864532471
-0.43625330924987793 0.191022530198097229 0.3611031174659729
-0.444934695959091187 -0.21994762122631073 0.154018759727478027
0.383988052606582642 0.351352453231811523 -0.173210293054580688
-0.425522595643997192 -0.161684557795524597 0.128304481506347656
0.231124311685562134 -0.32905811071395874 0.0183573905378580093
-0.250975251197814941 -0.386702597141265869 0.00240854546427726746
0.30066150426864624 -0.287104129791259766 -0.0997610911726951599
-0.326407104730606079 -0.142879292368888855 0.0703911334276199341
-0.0787748768925666809 0.442552149295806885 0.159468218684196472
-0.490488499402999878 0.157632380723953247 0.396920144557952881
-0.435264855623245239 -0.260822832584381104 0.0141835939139127731
-0.315019547939300537 -0.144595757126808167 0.0907007753849029541
0.0493472591042518616 0.495737016201019287 0.163911879062652588
-0.128934726119041443 0.444858133792877197 0.156201869249343872
0.300157606601715088 -0.358582824468612671 -0.305601894855499268
0.371902436017990112 0.102194197475910187 0.048170384019613266
-0.428112208843231201 0.0423578172922134399 0.136694282293319702
-0.132020801305770874 0.438848644495010376 0.169163689017295837
-0.470794975757598877 0.209806472063064575 0.386328160762786865
-0.469151556491851807 0.241082608699798584 0.387877225875854492
0.38172641396522522 0.117351353168487549 0.0680923312902450562
-0.168491601943969727 0.428389638662338257 0.173841342329978943
-0.195574581623077393 0.402079313993453979 0.181998908519744873
-0.4586142897605896 0.0170447137206792831 0.136339873075485229
0.425062239170074463 0.0297517888247966766 -0.267766892910003662
-0.320924520492553711 0.319441705942153931 0.308991909027099609
-0.449338018894195557 0.11556476354598999 0.175355494022369385
-0.148363590240478516 0.431529790163040161 0.162648394703865051
0.340730160474777222 -0.325106054544448853 -0.323870390653610229
0.44504392147064209 -0.262127161026000977 -0.294763505458831787
0.418264687061309814 -0.142691239714622498 -0.287286967039108276
-0.48155251145362854 0.0581696219742298126 0.312545031309127808
0.0444442033767700195 0.462856173515319824 0.171445995569229126
0.130365520715713501 -0.540354073047637939 -0.0661319494247436523
0.408469438552856445 0.0361712872982025146 -0.197310090065002441
0.436093598604202271 -0.15499231219291687 -0.289526492357254028
0.273464679718017578 0.434178799390792847 0.0460521280765533447
-0.461842328310012817 -0.270606637001037598 0.111527226865291595
0.356817156076431274 -0.224303662776947021 -0.228581488132476807
-0.3767414391040802 0.327958732843399048 0.387453198432922363
0.399705886840820312 -0.208216995000839233 -0.273687243461608887
0.411726772785186768 -0.194278120994567871 -0.278129428625106812
-0.445362746715545654 -0.21577666699886322 0.144993424415588379
0.39295235276222229 0.272273361682891846 0.0779860317707061768
-0.460336148738861084 0.247269615530967712 0.385170280933380127
0.356288373470306396 0.365390509366989136 0.020450398325920105
0.0938789695501327515 0.551101624965667725 0.183985710144042969
0.122124984860420227 -0.466335266828536987 -0.0196829624474048615
-0.505871951580047607 0.287777036428451538 0.403625726699829102
0.231112569570541382 -0.00832787156105041504 0.0949801057577133179
-0.414632678031921387 0.295394182205200195 0.376396715641021729
0.378771603107452393 0.300253391265869141 0.0442521721124649048
0.147481679916381836 0.492428332567214966 0.269983679056167603
0.236824691295623779 0.438022643327713013 0.179110229015350342
0.234304279088973999 0.172755196690559387 0.112159304320812225
-0.48087608814239502 0.260183334350585938 0.40603300929069519
0.356595784425735474 -0.212240949273109436 0.0215583257377147675
-0.41353181004524231 0.311805874109268188 0.357696473598480225
-0.434304893016815186 0.31454959511756897 0.375188946723937988
0.446221828460693359 0.0299280956387519836 -0.265033990144729614
-0.342334926128387451 -0.351553380489349365 0.10535624623298645
0.444178223609924316 0.273654848337173462 -0.203811481595039368
-0.464098900556564331 -0.0795786008238792419 0.279058605432510376
0.402349501848220825 0.0271024145185947418 -0.276449114084243774
-0.434253871440887451 0.126345962285995483 0.227949768304824829
0.327954769134521484 0.13877338171005249 -0.129435718059539795
0.355385243892669678 -0.267207831144332886 -0.268361598253250122
0.348450243473052979 0.278537511825561523 0.308883309364318848
0.427310436964035034 -0.090868726372718811 -0.284509003162384033
0.38830876350402832 -0.245880827307701111 -0.273095965385437012
-0.463418751955032349 0.187631338834762573 0.366265177726745605
0.513191759586334229 0.166619986295700073 -0.191179484128952026
0.440644502639770508 0.344515174627304077 -0.179908424615859985
0.433919161558151245 0.0943892598152160645 -0.249248415231704712
-0.462415039539337158 0.0527281016111373901 0.305603086948394775
0.468010425567626953 -0.0189636237919330597 -0.252446800470352173
0.36079704761505127 0.037881951779127121 0.209586799144744873
-0.495047956705093384 -0.110039092600345612 -0.0032914578914642334
0.424087405204772949 0.00158109702169895172 -0.206092894077301025
0.376066327095031738 -0.30140841007232666 -0.29166179895401001
-0.382228851318359375 0.326143801212310791 0.384793490171432495
-0.471278250217437744 0.1306028813123703 0.386688709259033203
0.391507983207702637 -0.251126497983932495 -0.32627338171005249
0.393426299095153809 -0.335709571838378906 -0.323234140872955322
0.440085887908935547 -0.076254330575466156 -0.276716619729995728
0.386207520961761475 -0.344313174486160278 -0.332240581512451172
0.434046536684036255 -0.156327247619628906 -0.292509257793426514
-0.560207188129425049 -0.00707546621561050415 0.180995255708694458
0.481850534677505493 0.321482717990875244 -0.169119358062744141
0.396510124206542969 -0.262470483779907227 -0.300089418888092041
0.404702365398406982 0.0377641394734382629 -0.266722649335861206
-0.379330933094024658 0.282793641090393066 0.36819535493850708
0.417476296424865723 -0.0889490842819213867 -0.277423828840255737
0.402381479740142822 -0.18333791196346283 -0.269546270370483398
0.368637025356292725 0.18774646520614624 0.00797576643526554108
0.393876582384109497 -0.0765915364027023315 -0.257374942302703857
0.30386468768119812 -0.068963170051574707 0.253230631351470947
0.393500387668609619 0.309531450271606445 -0.170920193195343018
0.430483460426330566 -0.263931185007095337 -0.313121616840362549
0.411425977945327759 0.0241044461727142334 -0.251972824335098267
0.367344319820404053 -0.26814153790473938 -0.28474155068397522
0.317368239164352417 0.282024025917053223 0.0202619768679141998
-0.461522370576858521 -0.0836236178874969482 0.280006170272827148
-0.333144485950469971 0.318295001983642578 0.229566991329193115
0.323841631412506104 -0.325897455215454102 -0.321632415056228638
-0.469053328037261963 -1.95614993572235107e-05 0.303603649139404297
0.399846285581588745 -0.258260756731033325 -0.326138615608215332
0.387056231498718262 -0.339009374380111694 -0.33236229419708252
0.362617135047912598 0.163596361875534058 0.0777548253536224365
0.321527957916259766 0.338867664337158203 0.0796960368752479553
0.235821977257728577 0.4067116379737854 0.155175641179084778
-0.313786029815673828 -0.393510311841964722 0.0917038768529891968
0.298887312412261963 0.324932098388671875 0.171665608882904053
0.370606124401092529 0.124360203742980957 0.0585080794990062714
-0.432749837636947632 0.297431796789169312 0.157244905829429626
0.314031213521957397 -0.294952601194381714 -0.255741119384765625
0.398799538612365723 0.183303087949752808 0.0718316882848739624
0.382308065891265869 0.132100969552993774 0.0505842305719852448
0.162900865077972412 0.377305418252944946 0.117386505007743835
-0.390197306871414185 -0.367481797933578491 0.105041511356830597
0.326805651187896729 0.389861583709716797 0.0501441769301891327
-0.447868198156356812 -0.0702829882502555847 0.0251899659633636475
-0.386935323476791382 0.313992768526077271 0.0939225256443023682
0.354584842920303345 -0.264585375785827637 -0.248429670929908752
-0.491255134344100952 -0.21699969470500946 0.346379220485687256
-0.282343924045562744 -0.370494037866592407 -0.0105074383318424225
-0.40660858154296875 0.20114414393901825 0.113170534372329712
-0.453994095325469971 0.14401167631149292 0.104810193181037903
-0.42546546459197998 -0.314029335975646973 -0.126297667622566223
-0.488780498504638672 -0.205678731203079224 0.162358611822128296
0.323570311069488525 0.448343932628631592 -0.0669790282845497131
-0.484854727983474731 -0.0252387151122093201 0.337569892406463623
-0.412670493125915527 -0.232801690697669983 0.0540234223008155823
-0.46821671724319458 -0.0197966285049915314 0.191608995199203491
0.31939166784286499 0.121459931135177612 -0.131578356027603149
0.322730451822280884 -0.211512625217437744 -0.253322958946228027
-0.405597209930419922 0.100167140364646912 0.0499482005834579468
0.407780438661575317 -0.0592341721057891846 -0.233747482299804688
-0.407944202423095703 -0.327797412872314453 0.0385965257883071899
0.326032519340515137 -0.272246956825256348 -0.314480066299438477
-0.305433094501495361 -0.402700424194335938 -0.0405860245227813721
-0.451965451240539551 0.184149324893951416 0.354677498340606689
0.0583887919783592224 0.410710752010345459 0.11530032753944397
0.349822640419006348 0.372727721929550171 0.0725923329591751099
0.128096625208854675 -0.38161158561706543 -0.214463546872138977
0.437912046909332275 0.364866644144058228 -0.171828866004943848
0.247734129428863525 0.320473432540893555 -0.0625560805201530457
-0.375677525997161865 0.28453478217124939 0.128097936511039734
-0.470120787620544434 -0.0868218094110488892 0.204174414277076721
0.311557084321975708 -0.336964547634124756 -0.257596909999847412
-0.468315273523330688 -0.121838606894016266 0.114929318428039551
0.38564532995223999 -0.304512143135070801 -0.292267978191375732
-0.46572384238243103 -0.0534612536430358887 0.231682330369949341
-0.300631135702133179 -0.385494798421859741 0.0860867872834205627
-0.524592757225036621 -0.219817847013473511 0.307669401168823242
0.448174655437469482 -0.19622454047203064 -0.278625756502151489
0.331051558256149292 -0.293321371078491211 -0.184090197086334229
0.391735672950744629 -0.245740756392478943 -0.274360418319702148
-0.444264471530914307 0.184774935245513916 0.353912591934204102
0.331549465656280518 0.294065415859222412 0.0134192854166030884
0.435606539249420166 0.199131116271018982 -0.196987420320510864
-0.412022650241851807 -0.213437095284461975 0.348683178424835205
-0.516164302825927734 -0.217906251549720764 0.292772889137268066
-0.437158316373825073 -0.313802182674407959 0.153104618191719055
-0.468208819627761841 0.133927151560783386 0.368839532136917114
0.316084384918212891 0.398732483386993408 0.0253534652292728424
-0.264853119850158691 -0.396298408508300781 -0.0159408971667289734
0.351845622062683105 -0.23356492817401886 -0.25204843282699585
0.404217630624771118 -0.0060365237295627594 0.0430774316191673279
0.334554851055145264 0.0824446380138397217 0.0925273075699806213
-0.450982958078384399 0.00998147763311862946 0.161724880337715149
0.269931197166442871 0.36709710955619812 0.190087348222732544
0.331197023391723633 -0.32687714695930481 -0.20450901985168457
0.322311937808990479 0.408168703317642212 -0.0834894925355911255
-0.385150551795959473 -0.333834946155548096 0.290780365467071533
-0.391913235187530518 -0.267202854156494141 0.118037596344947815
-0.404423147439956665 -0.362152546644210815 0.0468693375587463379
-0.382334381341934204 0.193603619933128357 0.182004064321517944
-0.281254410743713379 0.350655943155288696 0.311056137084960938
0.323967725038528442 -0.246060490608215332 -0.132642120122909546
0.393945246934890747 -0.127950578927993774 -0.205603897571563721
0.269207477569580078 0.300624281167984009 0.10892176628112793
-0.455519974231719971 0.179744213819503784 0.396766513586044312
0.253385603427886963 0.406174302101135254 0.133835345506668091
0.446740657091140747 -0.249368920922279358 -0.286334514617919922
0.362849593162536621 0.0128012457862496376 0.1736258864402771
-0.397321552038192749 0.00983036961406469345 0.19434058666229248
0.305313467979431152 -0.29097864031791687 -0.0587812997400760651
0.188164651393890381 0.200272813439369202 0.330333858728408813
-0.462525129318237305 -0.101084426045417786 0.184454649686813354
0.0623197443783283234 0.490203380584716797 0.124716863036155701
0.345288693904876709 -0.164606750011444092 0.150873169302940369
0.368866205215454102 -0.100011080503463745 0.0889792367815971375
0.196181267499923706 -0.394949734210968018 0.175701767206192017
-0.339092880487442017 0.306667983531951904 0.175446569919586182
-0.332240819931030273 -0.347872138023376465 0.0892675071954727173
-0.402608513832092285 -0.262872010469436646 0.00128490850329399109
0.248698949813842773 0.190190494060516357 0.107556745409965515
0.341602593660354614 -0.202313736081123352 0.227901861071586609
-0.284548640251159668 -0.393733441829681396 0.0232220329344272614
0.395372182130813599 -0.219647154211997986 -0.250736773014068604
-0.391265600919723511 0.293558776378631592 0.128927379846572876
-0.400041520595550537 0.0720534995198249817 0.159196034073829651
0.355829089879989624 -0.271079450845718384 -0.308112591505050659
0.299365520477294922 0.377525031566619873 0.195427983999252319
0.197170138359069824 0.364344477653503418 0.40538439154624939
0.438347935676574707 0.33764299750328064 -0.184159398078918457
-0.145431250333786011 0.439017504453659058 0.195085912942886353
-0.365783333778381348 -0.275872707366943359 0.0771922767162322998
-0.447214692831039429 -0.318826645612716675 0.0477093011140823364
0.327094078063964844 -0.0606872811913490295 0.0647818595170974731
-0.366521239280700684 0.276015520095825195 0.193457871675491333
-0.2812347412109375 0.337921082973480225 0.273336887359619141
0.199617445468902588 0.00772380828857421875 0.143856212496757507
-0.367308348417282104 0.286301940679550171 0.357930958271026611
0.343404710292816162 -0.101080447435379028 -0.116727292537689209
0.312452346086502075 -0.217621907591819763 -0.0808581262826919556
0.10072847455739975 0.380032598972320557 0.10734868049621582
-0.432105123996734619 0.17977277934551239 0.38919520378112793
-0.182655870914459229 0.423650383949279785 0.16292881965637207
0.358589649200439453 -0.195099472999572754 -0.200136110186576843
0.339931011199951172 -0.0721088200807571411 0.145618900656700134
0.180802479386329651 0.38787543773651123 0.0948166847229003906
0.340772747993469238 -0.255373924970626831 -0.116592898964881897
0.279846876859664917 0.394656598567962646 0.313054591417312622
0.368458330631256104 0.0728703141212463379 0.0964147001504898071
0.273355305194854736 0.306570768356323242 0.341506659984588623
-0.467908471822738647 -0.219624787569046021 0.0376104861497879028
-0.362616449594497681 0.302143394947052002 0.32066953182220459
-0.399675667285919189 -0.302215814590454102 -0.0943793356418609619
-0.465936332941055298 -0.157654821872711182 0.112239450216293335
0.325108915567398071 -0.220356911420822144 -0.00462233833968639374
-0.414183527231216431 -0.224202990531921387 0.0791306868195533752
-0.42458757758140564 -0.252822399139404297 0.0987664535641670227
-0.301594763994216919 -0.344881325960159302 0.0293088965117931366
0.433236092329025269 -0.202823147177696228 -0.288509190082550049
-0.495264410972595215 -0.102752029895782471 0.32831767201423645
-0.434567123651504517 -0.0304506104439496994 0.128336429595947266
-0.439686894416809082 0.0794539004564285278 0.156192660331726074
-0.305848658084869385 -0.406257748603820801 -0.0336265116930007935
0.400248408317565918 -0.240116924047470093 -0.267003655433654785
0.181869089603424072 -0.393854111433029175 -0.223089829087257385
0.344386637210845947 -0.324775010347366333 -0.318890392780303955
-0.485488831996917725 -0.233376592397689819 0.347918868064880371
-0.385305494070053101 -0.237407922744750977 0.0368781574070453644
0.389001280069351196 -0.00869349576532840729 0.195020213723182678
-0.420833557844161987 -0.309258431196212769 0.119992531836032867
-0.440963834524154663 -0.074145190417766571 0.126268237829208374
0.499784499406814575 0.0170188229531049728 -0.234755992889404297
0.363924264907836914 -0.237868592143058777 -0.171623572707176208
0.405610948801040649 -0.262894392013549805 -0.336464524269104004
-0.432907164096832275 0.0217474028468132019 0.119865596294403076
0.449792236089706421 -0.195781320333480835 -0.27930566668510437
-0.461284369230270386 -0.0242446288466453552 0.194643318653106689
0.325333654880523682 -0.267975777387619019 -0.099058195948600769
0.385301500558853149 -0.305288851261138916 -0.291599690914154053
0.344073593616485596 -0.27544286847114563 -0.244037091732025146
0.442604660987854004 -0.242292582988739014 -0.281906574964523315
0.369660735130310059 0.0711255446076393127 0.0957096889615058899
0.205052986741065979 0.330434620380401611 0.326060026884078979
-0.156584396958351135 0.305133014917373657 0.388893693685531616
0.381868928670883179 -0.107244499027729034 -0.00585183873772621155
-0.476145803928375244 0.144266188144683838 0.314248830080032349
0.134920269250869751 0.269617140293121338 0.222741872072219849
0.340105414390563965 0.308738976716995239 0.0466965176165103912
0.287455201148986816 0.0758056715130805969 0.226510584354400635
-0.276708453893661499 -0.325290471315383911 0.0375206097960472107
-0.0383626148104667664 0.378857463598251343 0.357164591550827026
0.44771614670753479 0.0895834863185882568 -0.0915603563189506531
0.186722338199615479 0.362139433622360229 0.112316727638244629
-0.464418679475784302 -0.132116630673408508 0.147681623697280884
0.330599039793014526 -0.33532637357711792 -0.31919512152671814
-0.298359811305999756 -0.016301596537232399 0.359513193368911743
-0.308989971876144409 -0.254371583461761475 -0.0389098711311817169
0.263327836990356445 0.399237096309661865 0.214020505547523499
-0.472208201885223389 0.0446833521127700806 0.307458758354187012
0.39054948091506958 0.219924613833427429 -0.151382684707641602
0.291257411241531372 -0.27503812313079834 0.102788344025611877
-0.198848232626914978 0.238390803337097168 0.385019928216934204
-0.296303391456604004 -0.383847624063491821 -0.0380963794887065887
-0.487105727195739746 0.149213343858718872 0.28102228045463562
0.164336472749710083 0.295555055141448975 0.139533385634422302
0.17389310896396637 0.333461791276931763 0.0228187963366508484
0.303342223167419434 0.384409427642822266 -0.0744095295667648315
-0.496797502040863037 -0.28792273998260498 0.144941717386245728
0.417907834053039551 -0.0860927104949951172 -0.268985450267791748
-0.463421761989593506 0.012457042932510376 0.327196508646011353
0.302088677883148193 -0.318982630968093872 -0.311336338520050049
0.160816431045532227 0.224890381097793579 0.0978137403726577759
-0.478734612464904785 -0.147004306316375732 0.198150798678398132
0.321588695049285889 0.16468396782875061 0.271054714918136597
-0.375634044408798218 -0.0311108771711587906 0.0905299335718154907
-0.421966671943664551 0.242474421858787537 0.349785596132278442
-0.462486624717712402 0.218734830617904663 0.358134835958480835
0.482639968395233154 0.20864260196685791 -0.199198931455612183
-0.232739344239234924 0.356507658958435059 0.182769924402236938
0.409052610397338867 0.045944705605506897 -0.180159837007522583
0.258507072925567627 0.504754900932312012 0.0774567648768424988
0.398336559534072876 0.233963817358016968 -0.114055328071117401
-0.109864436089992523 0.517329156398773193 0.351219356060028076
0.415788888931274414 0.101453319191932678 -0.0924990177154541016
-0.33705487847328186 0.351869374513626099 0.265124320983886719
0.31703561544418335 -0.214076101779937744 -2.03028321266174316e-06
-0.179954603314399719 0.356226295232772827 0.166283726692199707
-0.43581157922744751 -0.301740527153015137 0.052263457328081131
0.437246769666671753 -0.178256064653396606 -0.276252597570419312
0.440756857395172119 -0.084723547101020813 -0.282673805952072144
0.36983191967010498 -0.322459667921066284 -0.334218889474868774
-0.138641759753227234 0.427600473165512085 0.162945330142974854
0.248385503888130188 -0.361348360776901245 -0.278172731399536133
0.325937211513519287 -0.333013474941253662 -0.323482513427734375
0.453202277421951294 0.0688389837741851807 -0.210370540618896484
-0.466025799512863159 -0.0804412290453910828 0.222866982221603394
0.417050629854202271 -0.0525054670870304108 -0.257184743881225586
-0.44499322772026062 0.0487843118607997894 0.207606971263885498
0.446739882230758667 0.0157809481024742126 -0.264266073703765869
0.385119378566741943 -0.0116907218471169472 0.220800980925559998
0.356055319309234619 -0.348844259977340698 -0.339159250259399414
0.42496916651725769 0.0393814779818058014 -0.187514945864677429
0.405682861804962158 0.261323839426040649 -0.168330401182174683
-0.288715869188308716 -0.390542179346084595 0.00744148530066013336
-0.441243290901184082 0.242887526750564575 0.389231950044631958
0.404603779315948486 -0.337507516145706177 -0.307746648788452148
-0.445906341075897217 0.00720627233386039734 0.209834665060043335
-0.0630360543727874756 0.474691927433013916 0.365568429231643677
0.459549009799957275 -0.186449959874153137 -0.285506695508956909
-0.3071155846118927 -0.385943442583084106 0.0775004476308822632
0.439249634742736816 -0.263798266649246216 -0.297749310731887817
0.32851177453994751 0.35698390007019043 -0.151424229145050049
0.383099257946014404 -0.304989606142044067 -0.289083361625671387
-0.466743946075439453 -0.145005747675895691 0.114485606551170349
-0.446479320526123047 0.0960401743650436401 0.164366334676742554
0.367860257625579834 -0.317493051290512085 -0.326867729425430298
-0.471595019102096558 0.0965633690357208252 0.32216566801071167
0.444747209548950195 -0.141727596521377563 -0.271449685096740723
-0.445215702056884766 0.256749749183654785 0.38130420446395874
0.400652647018432617 -0.253001123666763306 -0.334906607866287231
-0.430015325546264648 0.0301842093467712402 0.124249070882797241
0.430519551038742065 -0.199785187840461731 -0.280968844890594482
0.438254594802856445 -0.160928577184677124 -0.280910909175872803
0.385914444923400879 -0.113718591630458832 -0.00786619167774915695
0.393760919570922852 0.207785800099372864 -0.147425323724746704
-0.480803161859512329 -0.14392988383769989 0.200716391205787659
-0.467154771089553833 0.219666630029678345 0.359899014234542847
0.377274930477142334 -0.00377412093803286552 -0.114665612578392029
0.351627528667449951 0.193515822291374207 -0.0232113655656576157
0.395866930484771729 -0.157980248332023621 -0.192036747932434082
0.333572238683700562 -0.336107850074768066 -0.222225040197372437
0.212032467126846313 0.383634328842163086 0.0554108917713165283
0.33974611759185791 -0.204614758491516113 -0.263408899307250977
-0.407761514186859131 0.0122614884749054909 0.133738666772842407
0.43456190824508667 0.00866657309234142303 -0.264336705207824707
0.429159164428710938 -0.0429784469306468964 -0.272895872592926025
0.421995878219604492 -0.0502059198915958405 -0.0395657308399677277
0.338953375816345215 -0.111445069313049316 0.0798591822385787964
-0.322887063026428223 -0.391064226627349854 -0.000957271317020058632
-0.386602133512496948 0.104687102138996124 0.112020120024681091
-0.391680061817169189 -0.180999934673309326 0.0561458542943000793
0.254345715045928955 0.451883494853973389 0.0548727437853813171
-0.397887349128723145 0.221339061856269836 0.168955892324447632
-0.397105693817138672 0.178178638219833374 0.303222596645355225
0.362932801246643066 -0.00202108360826969147 0.139624565839767456
-0.404077678918838501 -0.316293418407440186 0.117766901850700378
0.26527288556098938 0.391609907150268555 0.327660232782363892
0.0846964642405509949 0.556498527526855469 0.344573557376861572
0.371289074420928955 0.0378652811050415039 -0.113796532154083252
-0.49823153018951416 0.0526835881173610687 0.254261910915374756
0.335558027029037476 -0.259034723043441772 -0.15197482705116272
-0.493848651647567749 0.107423171401023865 0.36726534366607666
0.363026022911071777 -0.181842207908630371 0.131282567977905273
-0.518999636173248291 -0.137417227029800415 -0.019814690575003624
0.393818497657775879 -0.110846981406211853 -0.0605658255517482758
-0.298027127981185913 0.350296825170516968 0.309176981449127197
-0.471338063478469849 0.270297378301620483 0.175107911229133606
-0.374518871307373047 0.16319546103477478 0.0978270694613456726
-0.428474545478820801 -0.22459682822227478 0.153882965445518494
0.204064473509788513 0.268450021743774414 0.381879359483718872
-0.439126372337341309 -0.0654648393392562866 0.124105155467987061
0.376126348972320557 -0.147473722696304321 -0.179692387580871582
0.393607914447784424 0.0795020759105682373 -0.112286850810050964
0.311974108219146729 -0.25635838508605957 -0.0901900455355644226
0.31534278392791748 0.348136395215988159 0.332337796688079834
0.398567140102386475 -0.107576087117195129 -0.190804585814476013
0.443835705518722534 0.00447948463261127472 -0.216226086020469666
-0.391592174768447876 -0.308233112096786499 -0.0264246612787246704
0.363111793994903564 -0.146331146359443665 -0.209819063544273376
0.400930970907211304 -0.224797174334526062 -0.25153157114982605
0.340321928262710571 -0.188018694519996643 -0.246987953782081604
-0.470670223236083984 0.293866395950317383 0.185259312391281128
-0.398975223302841187 -0.267514228820800781 0.0250025764107704163
-0.405767947435379028 -0.0116076124832034111 0.124843604862689972
-0.183968782424926758 0.393950045108795166 0.194897383451461792
0.407274603843688965 0.00920822285115718842 -0.26096951961517334
-0.442129641771316528 0.104486577212810516 0.253552794456481934
0.37242618203163147 -0.10814870148897171 -0.0941694825887680054
-0.423109740018844604 0.232964351773262024 0.365116775035858154
0.393783032894134521 0.0986074432730674744 0.157631054520606995
-0.311525166034698486 -0.404597878456115723 -0.0484951213002204895
0.325991570949554443 -0.0040087774395942688 0.192732840776443481
-0.402300715446472168 0.102165356278419495 0.106137081980705261
-0.38438713550567627 -0.300790697336196899 -0.00774744153022766113
-0.171136349439620972 0.382069826126098633 0.169950440526008606
0.279599547386169434 0.440544724464416504 0.052265465259552002
-0.367521107196807861 0.221990182995796204 0.143677219748497009
0.383731484413146973 0.0646750032901763916 0.110932417213916779
-0.408014625310897827 -0.255746841430664062 0.131151169538497925
0.207846790552139282 0.463124126195907593 0.372127175331115723
0.517024040222167969 -0.0282282978296279907 -0.212564438581466675
0.292128771543502808 -0.341883003711700439 -0.116927579045295715
-0.471497654914855957 0.096883043646812439 0.227148547768592834
0.373987317085266113 -0.225879713892936707 -0.105777844786643982
0.34964752197265625 -0.176698178052902222 -0.0565864220261573792
-0.451683342456817627 -0.0182332620024681091 0.336342334747314453
0.374858736991882324 -0.177426472306251526 0.114627383649349213
-0.447297126054763794 -0.149202480912208557 0.0843704938888549805
0.371881484985351562 -0.105520188808441162 -0.0579506456851959229
-0.445904701948165894 0.205054044723510742 0.16399848461151123
-0.353713154792785645 0.146122783422470093 0.0985535532236099243
-0.387884259223937988 0.0933809801936149597 0.0863104462623596191
