ply
format ascii 1.0
element vertex 741
property float x
property float y
property float z
end_header
-0.257399290800094604 0.333373159170150757 0.274386465549468994
-0.0244585573673248291 -0.447316795587539673 0.226895585656166077
-0.400335103273391724 -0.104229062795639038 0.0690933540463447571
-0.438609600067138672 0.0985921695828437805 0.1927814781665802
0.201036706566810608 0.138139396905899048 -0.114455178380012512
-0.14699670672416687 0.300956785678863525 0.158550560474395752
-0.218855828046798706 -0.334465205669403076 0.0712201818823814392
-0.355533868074417114 -0.298557072877883911 0.162669718265533447
0.385556489229202271 0.0384984388947486877 0.174443379044532776
-0.251035690307617188 -0.396062731742858887 0.078777015209197998
0.397734165191650391 -0.139231890439987183 -0.271162480115890503
0.337404727935791016 0.243400394916534424 0.0938093140721321106
0.334989011287689209 -0.268429577350616455 0.0948752835392951965
-0.448905140161514282 -0.283374011516571045 0.338572382926940918
0.201665282249450684 -0.0157831758260726929 0.215257257223129272
-0.40680965781211853 -0.270621001720428467 0.0819152146577835083
0.274165689945220947 0.110207438468933105 0.216057151556015015
0.368610858917236328 -0.0646865442395210266 -0.233298778533935547
-0.347090601921081543 -0.00821276381611824036 0.374520272016525269
-0.420106500387191772 0.198889613151550293 0.412912577390670776
-0.438112199306488037 -0.113485962152481079 0.208481147885322571
-0.308365553617477417 0.315776824951171875 0.178793787956237793
0.0963536649942398071 0.187670290470123291 0.0983053296804428101
0.290641039609909058 -0.192774504423141479 -0.249259516596794128
-0.377369999885559082 -0.128562763333320618 0.0941863954067230225
0.346892863512039185 -0.163312643766403198 -0.262382447719573975
0.212297320365905762 0.0509485602378845215 0.150384038686752319
-0.302525162696838379 -0.291034996509552002 0.0267588905990123749
0.198977112770080566 -0.300403594970703125 0.0171517133712768555
0.329709291458129883 -0.136130258440971375 0.0389848016202449799
-0.311025500297546387 0.300521284341812134 0.401847213506698608
0.252446591854095459 -0.223657399415969849 -0.104978695511817932
0.377727419137954712 -0.00363537482917308807 -0.201357856392860413
-0.326059460639953613 0.279020875692367554 0.333305716514587402
-0.425890624523162842 -0.0612674318253993988 0.172080487012863159
0.36219710111618042 0.123367637395858765 -0.0137600116431713104
-0.389079838991165161 0.255119174718856812 0.376785457134246826
0.340854644775390625 0.227539569139480591 -0.166182056069374084
0.386124372482299805 0.0377141274511814117 -0.191442087292671204
-0.352315694093704224 -0.311367034912109375 0.249955564737319946
0.148082152009010315 0.138942748308181763 0.0921028405427932739
0.354017436504364014 -0.269596278667449951 -0.306193113327026367
0.359396040439605713 -0.110809743404388428 -0.263121873140335083
-0.39551997184753418 -0.211060196161270142 0.205601900815963745
0.179378017783164978 0.0743731856346130371 0.196473807096481323
0.191900119185447693 0.0324541330337524414 0.22912125289440155
-0.364466190338134766 -0.287312567234039307 0.144263505935668945
-0.411774128675460815 -0.216190949082374573 0.129355549812316895
-0.429777354001998901 -0.0566555559635162354 0.369070053100585938
0.283923476934432983 -0.0401930809020996094 -0.121786855161190033
0.203680112957954407 0.0208307504653930664 0.290781408548355103
0.194444045424461365 0.150521278381347656 0.145939171314239502
0.296127140522003174 0.233699202537536621 0.0713713467121124268
0.350086688995361328 0.207406282424926758 0.115870118141174316
0.0407683961093425751 0.445168614387512207 0.209355875849723816
-0.315219700336456299 -0.32559359073638916 0.047831900417804718
-0.368105173110961914 -0.306892871856689453 0.0457758009433746338
-0.375490754842758179 -0.262894362211227417 0.114146560430526733
-0.345297694206237793 -0.227491080760955811 0.129937216639518738
-0.359734445810317993 -0.272388696670532227 0.068624541163444519
-0.400448352098464966 0.177294462919235229 0.143340498208999634
0.344501793384552002 -0.0923242941498756409 -0.250647068023681641
-0.187958553433418274 0.409567117691040039 0.241015955805778503
-0.351175010204315186 -0.147714480757713318 0.133182346820831299
-0.452961742877960205 -0.050474017858505249 0.207560598850250244
-0.185913324356079102 0.408818632364273071 0.282498836517333984
0.333293646574020386 -0.287962287664413452 -0.284219563007354736
-0.443777173757553101 0.000183630501851439476 0.306734651327133179
-0.439546555280685425 0.00186275970190763474 0.141732767224311829
-0.24545268714427948 0.36959385871887207 0.312083244323730469
0.385644078254699707 0.229703605175018311 -0.138441592454910278
0.288488209247589111 -0.255994111299514771 -0.33222651481628418
-0.403637170791625977 0.229204773902893066 0.400064080953598022
-0.251573920249938965 0.295223116874694824 0.180081769824028015
0.295161634683609009 -0.313530981540679932 -0.332287758588790894
-0.456672459840774536 0.000977301038801670074 0.228542834520339966
-0.172706708312034607 0.416575819253921509 0.265062570571899414
0.362245440483093262 -0.0361437387764453888 -0.155186086893081665
0.373130977153778076 -0.0351813212037086487 -0.281008124351501465
-0.43147200345993042 0.0302641969174146652 0.325772851705551147
-0.441702455282211304 0.0478626713156700134 0.240064799785614014
0.310885012149810791 0.21300150454044342 0.0138857457786798477
-0.374490916728973389 0.0610135868191719055 0.228395819664001465
-0.282718360424041748 -0.312702387571334839 0.0508474595844745636
0.374714076519012451 -0.108162373304367065 -0.275783270597457886
-0.418884754180908203 -0.0443780645728111267 0.172042503952980042
0.161614701151847839 0.200703874230384827 0.082202523946762085
-0.408348232507705688 -0.116003319621086121 0.393896102905273438
-0.411827027797698975 -0.275697469711303711 0.0805121362209320068
-0.351995795965194702 0.0347760654985904694 0.409124314785003662
-0.371643722057342529 -0.104100972414016724 0.105086877942085266
-0.320904970169067383 0.306906998157501221 0.118737250566482544
0.380911380052566528 0.00754249095916748047 -0.218516692519187927
-0.327745825052261353 0.280036777257919312 0.337190538644790649
0.261890619993209839 0.187535136938095093 0.0977304503321647644
0.346201419830322266 0.204223111271858215 -0.169950142502784729
-0.424074351787567139 0.181414514780044556 0.352019578218460083
0.391651153564453125 0.0373961515724658966 -0.198875367641448975
0.304411798715591431 0.284606635570526123 0.169606029987335205
0.373167067766189575 0.244225800037384033 0.164530396461486816
0.298108398914337158 0.135383725166320801 0.242499008774757385
-0.43725508451461792 -0.0859833210706710815 0.241227582097053528
0.375555157661437988 0.175417691469192505 -0.14742143452167511
-0.43357500433921814 -0.103742167353630066 0.200906172394752502
-0.423070788383483887 -0.0177949368953704834 0.372867882251739502
0.331554949283599854 -0.0535433962941169739 0.197494983673095703
0.149714365601539612 0.234617799520492554 0.0416524447500705719
-0.363450080156326294 0.100585922598838806 0.22866782546043396
-0.209277823567390442 0.383179336786270142 0.238970562815666199
0.351262837648391724 0.217831522226333618 -0.116354838013648987
-0.0461940355598926544 0.421915382146835327 0.207088321447372437
-0.438875079154968262 0.259776920080184937 0.338211655616760254
0.438533902168273926 0.181778669357299805 -0.223656505346298218
-0.345773011445999146 -0.064420357346534729 0.14234606921672821
0.248396381735801697 0.0173586905002593994 -0.101007819175720215
0.217181205749511719 0.209556132555007935 0.301581144332885742
0.363402187824249268 -0.319948136806488037 -0.323414385318756104
-0.355476289987564087 -0.264492273330688477 0.0417333319783210754
0.27881544828414917 0.184602588415145874 0.154888391494750977
-0.307355821132659912 -0.29296875 0.0349250026047229767
-0.355165958404541016 -0.30405956506729126 0.336869895458221436
0.339315742254257202 -0.188202440738677979 -0.240664482116699219
-0.366111040115356445 0.220987021923065186 0.142201468348503113
-0.263232260942459106 -0.359452664852142334 0.0266626253724098206
-0.38327401876449585 0.196445956826210022 0.290817052125930786
0.123362064361572266 -0.336827307939529419 0.220968693494796753
0.297913879156112671 0.174326881766319275 0.231157884001731873
0.280017614364624023 0.197082877159118652 0.00109653174877166748
0.312033236026763916 0.16324712336063385 0.220456242561340332
-0.429797828197479248 -0.137668207287788391 0.223458349704742432
-0.406460851430892944 0.0225686021149158478 0.390598922967910767
-0.361280053853988647 0.0682709291577339172 0.185596853494644165
-0.198537886142730713 0.376224875450134277 0.238491013646125793
0.353307217359542847 -0.0539948046207427979 -0.232825979590415955
0.378873348236083984 0.139502197504043579 -0.19409218430519104
0.222289904952049255 0.400876909494400024 0.0513146370649337769
-0.37970307469367981 0.00655652629211544991 0.389264345169067383
0.172569334506988525 0.202150329947471619 0.0349434465169906616
-0.409195244312286377 -0.0717988759279251099 0.154611244797706604
-0.281843096017837524 -0.0565192811191082001 0.397163659334182739
0.319417476654052734 -0.255103170871734619 -0.270324259996414185
0.439621001482009888 0.113332077860832214 -0.227142065763473511
0.342851191759109497 -0.232241049408912659 -0.30252346396446228
-0.431615531444549561 -0.0746519118547439575 0.3350849449634552
-0.385125547647476196 0.149932861328125 0.195030421018600464
0.278471708297729492 -0.24360540509223938 0.0567854009568691254
-0.396953403949737549 0.295761942863464355 0.196416646242141724
-0.328597366809844971 -0.271461784839630127 0.0186148397624492645
-0.361051023006439209 0.199175477027893066 0.269344747066497803
-0.44492340087890625 -0.130546241998672485 0.189975395798683167
0.236172661185264587 0.0782494992017745972 0.13750109076499939
0.379105031490325928 0.0135773215442895889 -0.0139872254803776741
-0.31015324592590332 0.231257602572441101 0.147109627723693848
0.386781871318817139 -0.207240238785743713 -0.0438273996114730835
0.350590705871582031 0.201500147581100464 0.126259714365005493
-0.352976858615875244 -0.239233419299125671 0.113567650318145752
0.310921847820281982 -0.177025347948074341 -0.256838709115982056
-0.163336575031280518 0.306299328804016113 0.170750737190246582
0.353380858898162842 -0.231168895959854126 -0.286165028810501099
-0.38849368691444397 -0.0561311207711696625 0.201424822211265564
-0.37179100513458252 -0.154881134629249573 0.143151998519897461
-0.456868529319763184 0.148453563451766968 0.238791823387145996
0.388814985752105713 -0.17282867431640625 -0.284034788608551025
0.396121621131896973 0.160695359110832214 -0.129722371697425842
0.343077182769775391 -0.0713187307119369507 -0.204639479517936707
0.348166227340698242 0.0882060453295707703 -0.243504926562309265
0.228331342339515686 -0.336157053709030151 -0.313709616661071777
0.369863986968994141 -0.102065056562423706 -0.271558046340942383
-0.337221622467041016 0.274073481559753418 0.38267168402671814
0.325631201267242432 -0.319701075553894043 -0.338564276695251465
0.218051046133041382 -0.195676252245903015 -0.0218129977583885193
0.399450689554214478 0.115917325019836426 -0.257664769887924194
0.245603755116462708 -0.327561020851135254 -0.323993325233459473
0.367966949939727783 -0.0292882565408945084 -0.273195445537567139
-0.259905219078063965 -0.363700270652770996 0.0216573365032672882
0.350548803806304932 -0.110109530389308929 -0.239446848630905151
0.425014525651931763 0.237123742699623108 -0.203143134713172913
0.136631563305854797 0.130991995334625244 0.0855459645390510559
-0.440492063760757446 -0.0615173988044261932 0.307008683681488037
-0.41523897647857666 -0.238449439406394958 0.093799889087677002
-0.378928303718566895 -0.10431227833032608 0.100474148988723755
-0.324616074562072754 -0.229647353291511536 0.127837821841239929
-0.428543597459793091 0.168683305382728577 0.369702517986297607
0.151221632957458496 0.162972703576087952 0.0914309173822402954
-0.443747669458389282 0.281604886054992676 0.371803939342498779
0.304251015186309814 -0.254465460777282715 -0.235657721757888794
0.0976630523800849915 0.154035329818725586 0.292310476303100586
0.341748207807540894 0.0208211243152618408 0.21440008282661438
-0.195464670658111572 0.126421689987182617 0.389595627784729004
0.197621598839759827 -0.0440645217895507812 -0.0270115416496992111
0.36768639087677002 -0.0497188344597816467 -0.0312991663813591003
0.175933226943016052 0.333543598651885986 0.179014623165130615
-0.430222213268280029 -0.112208664417266846 0.274994462728500366
0.307741045951843262 -0.329101979732513428 -0.276372849941253662
0.383274078369140625 0.0829972326755523682 -0.257180660963058472
0.257082343101501465 0.246519491076469421 0.0108275040984153748
0.348444223403930664 0.172162637114524841 -0.0886345654726028442
-0.347802162170410156 0.205984562635421753 0.147615939378738403
0.236008062958717346 0.17489507794380188 0.0477481633424758911
0.180739954113960266 0.0978613495826721191 -0.0233280491083860397
0.369950056076049805 -0.118423923850059509 -0.281253337860107422
0.282339513301849365 0.277652114629745483 0.220838353037834167
0.292695522308349609 -0.289959132671356201 -0.255115121603012085
0.181234806776046753 0.306567549705505371 0.332724034786224365
-0.202402234077453613 -0.227360129356384277 0.145762532949447632
0.310051262378692627 0.182364672422409058 0.015461355447769165
0.202382460236549377 0.259643971920013428 0.170750916004180908
-0.462994426488876343 -0.125110164284706116 0.259186387062072754
0.31643250584602356 -0.293953269720077515 -0.286706537008285522
0.390528768301010132 0.0719859004020690918 -0.239482998847961426
0.370003700256347656 0.160280629992485046 -0.00619655288755893707
-0.32537272572517395 -0.293806701898574829 0.29971390962600708
0.364624083042144775 -0.178176760673522949 -0.312590360641479492
0.276564657688140869 -0.201256781816482544 -0.112782776355743408
-0.455571919679641724 0.248457372188568115 0.436272621154785156
0.102427713572978973 -0.380006462335586548 -0.0855753198266029358
-0.433575600385665894 -0.0606877505779266357 0.326614022254943848
-0.312618345022201538 0.244771823287010193 0.151415228843688965
-0.393375933170318604 0.0343592613935470581 0.363844305276870728
-0.372257441282272339 0.262581139802932739 0.387345641851425171
0.19329439103603363 -0.0100547671318054199 0.285585463047027588
-0.442709773778915405 -0.104684427380561829 0.345143914222717285
-0.0673126429319381714 -0.256688237190246582 0.371086269617080688
-0.356244504451751709 -0.224985241889953613 0.121883280575275421
-0.0861268416047096252 -0.398992270231246948 0.0212238598614931107
0.389276444911956787 -0.243507489562034607 -0.302029341459274292
-0.434562057256698608 0.0179729312658309937 0.16727215051651001
-0.0601512081921100616 0.394518911838531494 0.198187068104743958
-0.354674845933914185 -0.321299552917480469 0.136427029967308044
0.353447794914245605 -0.185830593109130859 -0.281704246997833252
-0.450010210275650024 0.142721682786941528 0.235906898975372314
0.334625780582427979 0.118406519293785095 0.283404618501663208
0.382860362529754639 -0.170907050371170044 -0.274667590856552124
0.37649691104888916 -0.22071722149848938 -0.304482102394104004
0.336089551448822021 -0.082828521728515625 -0.193968683481216431
-0.0209625810384750366 0.4032784104347229 0.359190106391906738
0.323416233062744141 0.21752774715423584 0.102868616580963135
0.225808262825012207 -0.334433138370513916 -0.295766144990921021
-0.339298784732818604 -0.295499920845031738 0.0967810079455375671
0.286961138248443604 -0.259276539087295532 -0.321959882974624634
0.375505208969116211 -0.113729998469352722 -0.270293384790420532
-0.463587701320648193 -0.166868537664413452 0.345461517572402954
-0.336089909076690674 0.266790539026260376 0.380331099033355713
0.310222089290618896 -0.322658240795135498 -0.31933295726776123
0.326355934143066406 -0.217719390988349915 0.158920705318450928
-0.0708830803632736206 -0.0512799918651580811 0.160985827445983887
0.344227075576782227 -0.156432405114173889 -0.30155789852142334
-0.114170342683792114 -0.265332937240600586 0.0979755595326423645
0.354031145572662354 -0.201324760913848877 -0.278348624706268311
0.366365700960159302 -0.0395314544439315796 -0.275239914655685425
0.309311747550964355 -0.159519195556640625 -0.204876303672790527
-0.255620837211608887 -0.367923378944396973 0.0200511552393436432
0.403361320495605469 -0.0459532663226127625 -0.265172839164733887
-0.438711702823638916 0.147318527102470398 0.403534591197967529
-0.334175139665603638 -0.303482234477996826 0.0859104543924331665
-0.435471087694168091 -0.2017822265625 0.135289043188095093
0.38422510027885437 -0.0536864101886749268 -0.250493139028549194
-0.379782170057296753 -0.123947590589523315 0.0948926806449890137
-0.433268815279006958 0.176027506589889526 0.372037261724472046
-0.354075789451599121 -0.244522929191589355 0.113501153886318207
0.292978018522262573 0.246486544609069824 -0.0724724307656288147
0.392720520496368408 0.246880307793617249 -0.162312969565391541
0.24869537353515625 0.19660535454750061 0.0468948408961296082
0.215639784932136536 0.159570097923278809 0.379793822765350342
-0.41605222225189209 -0.202333226799964905 0.391526937484741211
0.0951894819736480713 -0.250321507453918457 0.247512221336364746
-0.452688872814178467 0.0137129854410886765 0.272156864404678345
0.323715329170227051 -0.196915626525878906 -0.167716920375823975
-0.068714536726474762 -0.419684022665023804 0.0205161627382040024
0.0933881103992462158 -0.0987884700298309326 0.237591251730918884
0.273508131504058838 0.122244790196418762 0.309572845697402954
0.199801698327064514 -0.155285030603408813 0.25610506534576416
-0.434989362955093384 -0.280287861824035645 0.163712695240974426
-0.0884081944823265076 -0.449711710214614868 0.0412174277007579803
0.37500879168510437 -0.185682743787765503 -0.318165451288223267
0.180860862135887146 0.152260050177574158 0.198888033628463745
0.276962161064147949 -0.0496179051697254181 0.234428763389587402
-0.433861196041107178 0.167237475514411926 0.35522034764289856
0.269228816032409668 -0.187489956617355347 -0.103790365159511566
0.403214186429977417 -0.00198282860219478607 -0.0459745153784751892
0.305890142917633057 -0.274454683065414429 -0.274768590927124023
-0.337750613689422607 -0.324653267860412598 0.174638688564300537
-0.45207446813583374 0.263436317443847656 0.426042407751083374
0.272716879844665527 0.237486004829406738 -0.16527421772480011
0.296534240245819092 -0.259056210517883301 -0.247716829180717468
-0.249791130423545837 -0.311642348766326904 0.12033545970916748
0.317978560924530029 -0.222574055194854736 -0.180628716945648193
-0.243377521634101868 -0.381969869136810303 0.0405011847615242004
-0.427982240915298462 0.269684970378875732 0.414004206657409668
-0.47568744421005249 -0.287073493003845215 0.334120750427246094
-0.401096850633621216 -0.314547419548034668 0.0734181702136993408
0.294616013765335083 -0.260765224695205688 -0.326425433158874512
0.38741186261177063 0.0819517821073532104 -0.0174922775477170944
0.375311315059661865 -0.048440299928188324 -0.268852412700653076
0.323996961116790771 -0.153159081935882568 -0.228003665804862976
-0.44030386209487915 0.169296234846115112 0.402541071176528931
0.406047910451889038 0.158154159784317017 -0.223602294921875
-0.437661349773406982 -0.000411185901612043381 0.303205102682113647
0.344783902168273926 -0.221920192241668701 -0.249647766351699829
0.348090946674346924 0.209930941462516785 0.0709018111228942871
-0.228130772709846497 -0.405115574598312378 0.0494209043681621552
-0.428714096546173096 -0.116780310869216919 0.345220893621444702
0.342502176761627197 -0.292622506618499756 -0.247414082288742065
0.171559929847717285 0.146153360605239868 0.112886592745780945
-0.497161209583282471 -0.240274712443351746 0.320289850234985352
0.231891095638275146 -0.275686264038085938 -0.00465562008321285248
-0.44593164324760437 -0.0244778115302324295 0.227882012724876404
-0.352868437767028809 -0.235152840614318848 0.30486983060836792
0.377010613679885864 0.252453356981277466 -0.194126397371292114
-0.437465846538543701 0.0682933032512664795 0.284388810396194458
0.407134830951690674 0.169761866331100464 -0.226236969232559204
0.292590886354446411 -0.197698011994361877 -0.160855621099472046
0.300416558980941772 -0.28729519248008728 -0.256663054227828979
-0.332025408744812012 -0.323196440935134888 0.189721152186393738
0.327063500881195068 0.31784522533416748 0.0527714714407920837
0.385895609855651855 -0.0420083813369274139 -0.25760197639465332
0.296139508485794067 -0.249285995960235596 -0.24356485903263092
0.314516365528106689 -0.162380069494247437 0.101630181074142456
0.402104288339614868 0.269706249237060547 -0.16629377007484436
-0.451702505350112915 0.0960684865713119507 0.257477670907974243
0.384824067354202271 -0.238058984279632568 -0.299110084772109985
-0.194376260042190552 -0.249081790447235107 0.149389341473579407
-0.391783237457275391 -0.171185135841369629 0.155378967523574829
0.234402269124984741 -0.215447694063186646 -0.24655953049659729
-0.402991533279418945 0.0901371985673904419 0.186057388782501221
0.338652521371841431 0.139501288533210754 -0.248308062553405762
0.318058609962463379 -0.230308711528778076 -0.162636712193489075
0.336674481630325317 -0.0980968400835990906 -0.201683118939399719
-0.237480074167251587 -0.393970608711242676 0.0299532469362020493
0.266496598720550537 -0.320149809122085571 -0.276018708944320679
-0.373151898384094238 -0.294058799743652344 0.100655578076839447
-0.510279834270477295 -0.278354167938232422 0.319973945617675781
0.157755643129348755 -0.351228594779968262 -0.19228285551071167
-0.387012958526611328 -0.307941675186157227 0.0758749619126319885
-0.321573436260223389 -0.348338723182678223 0.0394134894013404846
0.370620697736740112 -0.123331859707832336 -0.261873334646224976
-0.316458046436309814 0.253514707088470459 0.410659343004226685
0.31633034348487854 -0.313342809677124023 -0.322083026170730591
-0.493354350328445435 0.310072839260101318 0.30785369873046875
0.411459207534790039 0.0966073125600814819 -0.21372811496257782
-0.42083778977394104 0.0959437787532806396 0.267281442880630493
-0.260111689567565918 -0.366756290197372437 0.0220923665910959244
-0.259725093841552734 0.32248261570930481 0.235451608896255493
-0.43096587061882019 -0.21430245041847229 0.138892173767089844
-0.387478053569793701 0.15248437225818634 0.139325886964797974
0.340620189905166626 -0.159007221460342407 0.00681698881089687347
0.184394538402557373 0.199124306440353394 0.303581088781356812
0.185464471578598022 -0.367888689041137695 -0.158680140972137451
-0.35580897331237793 -0.290864318609237671 0.233216777443885803
0.283390015363693237 -0.263911724090576172 0.0263155996799468994
0.334325850009918213 -0.0380187705159187317 0.109954804182052612
0.339204490184783936 0.257001698017120361 0.0540247894823551178
0.123941510915756226 -0.0251303911209106445 0.276794642210006714
-0.325827121734619141 0.292849481105804443 0.306473672389984131
0.285051226615905762 -0.312342524528503418 -0.337713181972503662
0.312063813209533691 -0.22786305844783783 -0.0372654423117637634
0.159194245934486389 0.0390729904174804688 0.299795210361480713
0.0104130208492279053 -0.343997925519943237 0.290122151374816895
-0.337031453847885132 -0.258981317281723022 0.234729796648025513
0.324938207864761353 -0.158748269081115723 0.0118161793798208237
0.177110001444816589 0.071103513240814209 0.289326488971710205
-0.350010544061660767 0.300732970237731934 0.253781020641326904
0.312265932559967041 -0.324943035840988159 -0.326450526714324951
-0.365650296211242676 0.143414527177810669 0.137118697166442871
-0.453701406717300415 -0.120904102921485901 0.189054101705551147
0.300353765487670898 -0.285688430070877075 -0.257973372936248779
-0.455427378416061401 0.25885733962059021 0.422470718622207642
0.0958661586046218872 -0.407033979892730713 -0.107554756104946136
0.278739362955093384 0.322852760553359985 -0.15171109139919281
-0.442457050085067749 -0.0713736340403556824 0.325674593448638916
0.311762601137161255 -0.0699777007102966309 -0.174356967210769653
-0.390236616134643555 0.0381295531988143921 0.360215425491333008
-0.443817734718322754 0.164952784776687622 0.399886131286621094
0.297663748264312744 -0.256300359964370728 -0.244370728731155396
-0.436960279941558838 -0.0144518483430147171 0.2114105224609375
-0.468208461999893188 0.0954545959830284119 0.264526695013046265
0.319315075874328613 -0.272244304418563843 -0.297063231468200684
0.38945278525352478 -0.237423211336135864 -0.304375231266021729
0.335889637470245361 -0.222528517246246338 -0.261504650115966797
0.260493934154510498 -0.3238372802734375 -0.0689934492111206055
-0.377087891101837158 -0.329767227172851562 0.0489694513380527496
0.288996756076812744 0.377935409545898438 -0.139839127659797668
-0.391985416412353516 0.0889035165309906006 0.193260863423347473
0.391301274299621582 -0.179558143019676208 -0.290907621383666992
0.307632803916931152 -0.229342490434646606 -0.170840352773666382
0.324331790208816528 -0.113152764737606049 -0.187298685312271118
-0.224714726209640503 -0.422111779451370239 0.0315625965595245361
-0.246421664953231812 0.324218869209289551 0.302774399518966675
0.280488491058349609 -0.261030793190002441 -0.325904399156570435
-0.301277190446853638 -0.350624501705169678 0.0232143569737672806
0.378726452589035034 -0.127506822347640991 -0.28052055835723877
0.314553022384643555 -0.241547003388404846 -0.327797293663024902
0.332774966955184937 -0.311796039342880249 -0.330035597085952759
-0.49821057915687561 0.299270033836364746 0.311251282691955566
0.342230767011642456 -0.156647071242332458 -0.299388349056243896
0.268429219722747803 0.368217498064041138 0.131457388401031494
0.344829022884368896 -0.140047818422317505 -0.191590547561645508
-0.422583162784576416 0.0756394714117050171 0.336788207292556763
0.392071545124053955 -0.125563159584999084 -0.292103826999664307
-0.38001444935798645 -0.277690708637237549 0.13729153573513031
-0.310765355825424194 -0.261910796165466309 -0.00723809748888015747
-0.40257728099822998 0.160125643014907837 0.377663195133209229
0.334245502948760986 -0.102375626564025879 -0.123922772705554962
0.391967594623565674 -0.232616603374481201 -0.313897371292114258
0.39937746524810791 -0.044844798743724823 -0.260242462158203125
0.300380468368530273 -0.263422071933746338 -0.254871010780334473
0.385097265243530273 -0.247514262795448303 -0.307967722415924072
0.287527859210968018 -0.289088964462280273 -0.18120160698890686
0.240468636155128479 0.361742615699768066 -0.00847282819449901581
0.266655474901199341 -0.336146950721740723 -0.0692548006772994995
0.281300127506256104 0.383447468280792236 -0.128539353609085083
0.390929490327835083 -0.176968783140182495 -0.293066799640655518
-0.236220777034759521 -0.40622633695602417 0.0354010164737701416
-0.417054623365402222 0.258596092462539673 0.409055829048156738
0.303376913070678711 -0.23462270200252533 -0.314407855272293091
0.321858763694763184 -0.236490488052368164 -0.340552300214767456
-0.313153356313705444 0.256705254316329956 0.405055254697799683
0.315064609050750732 -0.290832817554473877 -0.327345013618469238
0.34570649266242981 -0.161352783441543579 -0.28204578161239624
-0.255946159362792969 -0.362931281328201294 0.00863050203770399094
0.231765687465667725 -0.251074433326721191 -0.244712382555007935
-0.433453142642974854 -0.189784198999404907 0.125900477170944214
-0.324963033199310303 -0.312219917774200439 0.243021160364151001
-0.319230347871780396 -0.24337257444858551 0.30974280834197998
-0.0243075191974639893 -0.154552876949310303 0.383418351411819458
-0.473360359668731689 0.219604313373565674 0.265679240226745605
-0.20005074143409729 0.338094741106033325 0.199038073420524597
-0.326949745416641235 -0.29282379150390625 0.309574514627456665
-0.464257091283798218 -0.129887685179710388 0.17945176362991333
0.324837982654571533 -0.171991899609565735 0.0986521095037460327
-0.117812797427177429 0.321845769882202148 0.347618162631988525
-0.348100453615188599 -0.239566043019294739 0.0722007304430007935
-0.366391599178314209 -0.335366934537887573 0.079199373722076416
0.230249509215354919 -0.21244320273399353 -0.245374083518981934
-0.234141170978546143 -0.39900672435760498 0.0154500063508749008
-0.0857611224055290222 -0.447109341621398926 0.0359459221363067627
0.27405133843421936 -0.312342792749404907 -0.289664000272750854
-0.426792323589324951 0.240872591733932495 0.405781358480453491
-0.392497777938842773 -0.281313151121139526 0.0943724066019058228
-0.468392699956893921 0.307510316371917725 0.308551609516143799
0.218193888664245605 -0.255304008722305298 -0.241372823715209961
-0.435158044099807739 -0.19936719536781311 0.128243967890739441
-0.419598996639251709 0.0652709230780601501 0.338860422372817993
-0.0307037457823753357 0.431548029184341431 0.209965735673904419
0.159415647387504578 0.410135418176651001 0.364142149686813354
0.193686068058013916 -0.340619146823883057 0.120828889310359955
0.0286309570074081421 0.198224693536758423 0.157385319471359253
0.207647055387496948 -0.219091370701789856 0.102328337728977203
-0.25338900089263916 0.339623808860778809 0.265475869178771973
-0.348386883735656738 -0.30582699179649353 0.0455063506960868835
-0.150828137993812561 -0.427339673042297363 0.0453098565340042114
0.37256544828414917 0.00756418425589799881 -0.270411372184753418
-0.187928646802902222 0.37372252345085144 0.22582109272480011
-0.0834002941846847534 0.396555334329605103 0.354857712984085083
0.236786901950836182 0.335859745740890503 0.0331972986459732056
0.228281736373901367 -0.285233020782470703 -0.250753164291381836
-0.26627543568611145 0.0836195945739746094 0.366365969181060791
0.378889650106430054 0.0913244038820266724 -0.134216025471687317
0.337251603603363037 -0.0962989777326583862 -0.199263483285903931
0.305181443691253662 -0.305241137742996216 -0.291108667850494385
0.272166937589645386 -0.313774079084396362 -0.281196802854537964
-0.367139339447021484 -0.311477959156036377 0.0669935792684555054
0.312834322452545166 -0.31766974925994873 -0.318422913551330566
0.141124755144119263 0.348983317613601685 0.172526687383651733
-0.28864365816116333 -0.327532589435577393 0.0358713530004024506
0.00605019181966781616 0.254423379898071289 0.145820006728172302
-0.260024696588516235 -0.367774426937103271 0.0184633322060108185
-0.420348495244979858 0.0684154331684112549 0.339328676462173462
0.219725638628005981 0.215890705585479736 0.26497223973274231
0.210981562733650208 0.320224106311798096 0.358991622924804688
0.281111180782318115 0.00165386497974395752 0.228644400835037231
0.0954680591821670532 0.351064383983612061 0.145233318209648132
0.224750399589538574 -0.104300558567047119 0.275625079870223999
0.12299656867980957 0.210745394229888916 0.0105533115565776825
0.163868069648742676 0.298382818698883057 0.35402524471282959
0.106636226177215576 -0.0315878391265869141 0.349341332912445068
0.0903299897909164429 0.342710912227630615 0.131864294409751892
0.311649978160858154 0.0850630998611450195 0.27247658371925354
0.245839551091194153 0.272157430648803711 0.0292900949716567993
-0.454004347324371338 -0.136420965194702148 0.189174443483352661
-0.452913433313369751 0.0911740511655807495 0.271066009998321533
0.367354750633239746 -0.238247275352478027 -0.294595301151275635
0.295080363750457764 -0.21628040075302124 -0.152905777096748352
0.336957275867462158 -0.118585482239723206 -0.18466535210609436
0.357609391212463379 -0.17190822958946228 -0.303592860698699951
0.23723912239074707 0.43848302960395813 0.106512300670146942
0.295961141586303711 -0.260104089975357056 -0.239763170480728149
0.227395802736282349 -0.292968630790710449 -0.252638518810272217
0.274187266826629639 -0.314406543970108032 -0.294283181428909302
-0.214928537607192993 0.205114856362342834 0.382048249244689941
0.329705238342285156 0.18054160475730896 0.199244797229766846
0.102139323949813843 -0.374198824167251587 -0.0860554948449134827
0.263398438692092896 -0.320578098297119141 -0.326846927404403687
0.329071879386901855 -0.207888543605804443 -0.252552628517150879
0.271319210529327393 -0.120466992259025574 0.190597221255302429
0.276119709014892578 -0.325526505708694458 -0.319389194250106812
0.357120871543884277 -0.159766912460327148 -0.264132827520370483
-0.36621817946434021 0.162477597594261169 0.276262611150741577
-0.366822153329849243 -0.313692808151245117 0.0484304986894130707
-0.364820480346679688 -0.317087113857269287 0.0500671863555908203
-0.29664456844329834 -0.243172734975814819 0.0440131761133670807
-0.449026048183441162 -0.0842787325382232666 0.234669014811515808
0.327761262655258179 0.198827251791954041 -0.199650466442108154
-0.392006605863571167 0.114086523652076721 0.161076456308364868
0.36436229944229126 -0.241023167967796326 -0.301452934741973877
-0.385734409093856812 -0.087973274290561676 0.147364154458045959
0.240591198205947876 -0.238982543349266052 -0.259278208017349243
0.201209992170333862 -0.305578321218490601 0.12196321040391922
-0.37690386176109314 -0.256282210350036621 0.248514845967292786
0.299408167600631714 -0.224985525012016296 -0.147017940878868103
0.27332913875579834 -0.327518492937088013 -0.282425820827484131
-0.440759062767028809 -0.0868346095085144043 0.261054396629333496
0.256044715642929077 0.247735992074012756 -0.142443671822547913
-0.328183412551879883 0.298945009708404541 0.287862300872802734
-0.386755466461181641 -0.270818203687667847 0.0683216601610183716
0.421110808849334717 0.188940674066543579 -0.234358638525009155
0.28346329927444458 0.199208348989486694 -0.174470022320747375
-0.42910727858543396 -0.128824040293693542 0.14402461051940918
0.366297721862792969 -0.232206806540489197 -0.292552471160888672
0.24826832115650177 0.417727470397949219 0.00736510567367076874
0.366124480962753296 -0.172276884317398071 -0.305922716856002808
-0.304413855075836182 -0.209928169846534729 0.314185291528701782
0.366572827100753784 -0.0422512814402580261 -0.212102398276329041
-0.305570662021636963 -0.246095851063728333 0.310047358274459839
-0.410936951637268066 -0.12557375431060791 0.2225760817527771
0.305283069610595703 -0.17321854829788208 -0.247535854578018188
-0.298958063125610352 -0.338861018419265747 0.129868209362030029
0.376033961772918701 0.0513031631708145142 -0.171796098351478577
0.316762655973434448 0.213938474655151367 -0.0999771058559417725
0.429137289524078369 0.244149848818778992 -0.204035088419914246
0.22006186842918396 0.209272190928459167 0.324998587369918823
0.35889589786529541 -0.256629407405853271 -0.253177165985107422
-0.419469207525253296 0.0636992305517196655 0.355382770299911499
0.348001778125762939 -0.173384517431259155 0.219750121235847473
0.207653924822807312 -0.290573656558990479 0.0895150452852249146
0.365229040384292603 0.0246598850935697556 -0.258973032236099243
-0.428897470235824585 -0.00802722107619047165 0.307788223028182983
-0.400509357452392578 -0.0708818361163139343 0.367248833179473877
-0.471125036478042603 0.222236841917037964 0.257790625095367432
-0.438337385654449463 0.116247296333312988 0.355356663465499878
0.408686965703964233 -0.124909572303295135 -0.276405513286590576
0.382215321063995361 -0.0422983802855014801 -0.159740433096885681
-0.402690589427947998 0.0621374249458312988 0.126829057931900024
-0.345452368259429932 -0.302062034606933594 0.14530634880065918
-0.374909520149230957 0.153904169797897339 0.360171675682067871
0.322790801525115967 0.134515464305877686 -0.0748588517308235168
0.33666422963142395 -0.117934860289096832 -0.166881382465362549
0.32928583025932312 -0.11337946355342865 -0.0447010472416877747
-0.439601331949234009 0.178169891238212585 0.404977142810821533
-0.451457738876342773 -0.172753453254699707 0.379758119583129883
0.307139933109283447 0.00257773883640766144 0.241052195429801941
0.0701892226934432983 -0.131410986185073853 0.244751840829849243
-0.423336684703826904 0.194805935025215149 0.368234097957611084
-0.414621204137802124 0.289523392915725708 0.373441070318222046
0.269563198089599609 -0.24508512020111084 -0.118484869599342346
-0.422176569700241089 -0.0730338394641876221 0.323824584484100342
0.375887870788574219 0.120254829525947571 -0.104665309190750122
-0.466714352369308472 0.265504658222198486 0.413368523120880127
-0.36736530065536499 -0.310380041599273682 0.042458903044462204
0.418149083852767944 -0.057558886706829071 -0.264955222606658936
-0.367086619138717651 -0.208341553807258606 0.0875308960676193237
0.329843252897262573 0.217594370245933533 -0.0997156649827957153
-0.363604485988616943 -0.31592908501625061 0.0494213178753852844
0.350376307964324951 -0.221802994608879089 -0.286676734685897827
0.425171554088592529 0.132643237709999084 -0.206448763608932495
0.368198484182357788 -0.233693867921829224 -0.29546886682510376
-0.41657218337059021 0.122374534606933594 0.395864695310592651
0.356634378433227539 -0.18361954391002655 -0.286939799785614014
-0.240286439657211304 -0.395841330289840698 0.0115943215787410736
-0.442443519830703735 -0.0755995661020278931 0.233660757541656494
-0.386181175708770752 -0.00757219642400741577 0.162700831890106201
0.283261626958847046 -0.293642878532409668 -0.236501246690750122
0.316933542490005493 -0.2918262779712677 -0.343070834875106812
0.376333236694335938 0.342298448085784912 -0.196502849459648132
-0.462182670831680298 -0.265486687421798706 0.336247473955154419
-0.323525786399841309 0.295721769332885742 0.278628230094909668
-0.379465997219085693 -0.268478035926818848 0.0636021643877029419
-0.384252786636352539 0.0643206238746643066 0.375037431716918945
-0.378174483776092529 -0.234275877475738525 0.0986486971378326416
-0.356949001550674438 0.03687276691198349 0.398244500160217285
-0.165500834584236145 0.314442247152328491 0.159781426191329956
0.280051261186599731 0.321798086166381836 0.0422982871532440186
-0.434131711721420288 -0.14856429398059845 0.145988941192626953
0.273474365472793579 -0.319832026958465576 -0.286168336868286133
0.428709149360656738 0.188886970281600952 -0.233347445726394653
-0.411460161209106445 -0.0868605822324752808 0.357954740524291992
-0.407857775688171387 0.069863446056842804 0.130183517932891846
-0.449135959148406982 -0.167858988046646118 0.380714237689971924
0.317571789026260376 -0.182936683297157288 0.0143839679658412933
-0.406603366136550903 0.238500282168388367 0.405702352523803711
0.358167767524719238 -0.0157136581838130951 -0.256071865558624268
0.319615840911865234 -0.201078131794929504 -0.209117189049720764
0.337212860584259033 -0.0956648886203765869 0.129695966839790344
0.392119050025939941 0.131170272827148438 -0.108910538256168365
-0.2748832106590271 -0.359221577644348145 0.0582410916686058044
0.362553715705871582 -0.182453081011772156 -0.282517820596694946
-0.409289538860321045 -0.0763780400156974792 0.37259247899055481
-0.406736552715301514 0.235375732183456421 0.380837142467498779
0.301306664943695068 -0.207945942878723145 -0.195566534996032715
0.302896231412887573 -0.234967738389968872 -0.229335471987724304
0.279276132583618164 0.249517768621444702 0.241195976734161377
0.259581863880157471 0.278145939111709595 0.0172350425273180008
-0.0474863350391387939 0.435457020998001099 0.204398468136787415
-0.43636554479598999 0.187372505664825439 0.397565096616744995
0.329304337501525879 -0.307814061641693115 -0.331435978412628174
-0.173239096999168396 0.340160340070724487 0.277615189552307129
0.0593112707138061523 0.148565545678138733 0.0977937430143356323
-0.438660502433776855 0.197154030203819275 0.411252915859222412
0.366697341203689575 -0.14067484438419342 -0.250642985105514526
-0.199109181761741638 0.192859545350074768 0.144186288118362427
-0.347797006368637085 0.189754411578178406 0.15348285436630249
0.299623996019363403 -0.0598599910736083984 0.237213790416717529
-0.220316201448440552 0.199643686413764954 0.375320464372634888
0.0998211652040481567 -0.390089660882949829 -0.108588002622127533
0.370531737804412842 0.0381978936493396759 -0.0897761136293411255
0.385257899761199951 -0.180060341954231262 -0.293694555759429932
-0.42268073558807373 0.299187183380126953 0.4113045334815979
-0.293963789939880371 -0.384374380111694336 0.0560224130749702454
-0.422386050224304199 -0.170619070529937744 0.393799543380737305
-0.474293619394302368 0.238715216517448425 0.389165312051773071
0.286394357681274414 -0.18901360034942627 -0.204755082726478577
0.20709693431854248 0.0814607441425323486 -0.00207490473985671997
0.321736514568328857 -0.134900480508804321 -0.0563621558248996735
0.322787255048751831 -0.0823544338345527649 -0.194465100765228271
0.284295022487640381 0.269216328859329224 0.0421660467982292175
0.332637310028076172 0.278053760528564453 -0.177081450819969177
0.200334370136260986 -0.287481844425201416 0.0186967980116605759
-0.416847944259643555 0.0355006754398345947 0.361546963453292847
0.344669073820114136 -0.319250255823135376 -0.331865280866622925
0.358267486095428467 0.0954381227493286133 -0.10369400680065155
-0.434711247682571411 -0.0656182095408439636 0.323572456836700439
-0.356875300407409668 -0.312157362699508667 0.0423599667847156525
0.400638282299041748 -0.0366231799125671387 -0.272032052278518677
-0.356611341238021851 -0.202155664563179016 0.0932980179786682129
-0.180795758962631226 0.33027765154838562 0.23920266330242157
-0.328828126192092896 0.283814787864685059 0.139901190996170044
0.307567894458770752 0.073460802435874939 0.241196945309638977
0.393246442079544067 -0.249681830406188965 -0.312702566385269165
0.384094357490539551 -0.0803360044956207275 -0.261988401412963867
0.373757421970367432 0.342542946338653564 -0.188329234719276428
-0.433392763137817383 0.0726068615913391113 0.168526619672775269
0.329225897789001465 0.237532243132591248 -0.153841599822044373
-0.404789090156555176 -0.0230967029929161072 0.153745129704475403
-0.439307093620300293 0.284690499305725098 0.406571477651596069
-0.334292232990264893 -0.305728614330291748 0.309864312410354614
0.436691552400588989 0.251494824886322021 -0.220478743314743042
0.297862231731414795 -0.220196843147277832 -0.264077812433242798
0.343235701322555542 -0.149065002799034119 -0.294024646282196045
-0.382228612899780273 -0.265091985464096069 0.0663920566439628601
-0.423079609870910645 0.0506579279899597168 0.333754450082778931
-0.436547070741653442 0.0202367678284645081 0.278142690658569336
0.418577492237091064 0.194301635026931763 -0.233518034219741821
-0.362566053867340088 0.289929687976837158 0.161797553300857544
0.40464407205581665 0.0718691125512123108 -0.124380879104137421
0.276606291532516479 -0.325164347887039185 -0.212883725762367249
0.36630094051361084 -0.111414745450019836 -0.276844680309295654
-0.306190729141235352 0.317576050758361816 0.184367328882217407
-0.32782667875289917 -0.327325969934463501 0.0436345338821411133
-0.392081350088119507 -0.260399162769317627 0.0704801604151725769
0.397245913743972778 0.124718770384788513 -0.254273086786270142
0.298424661159515381 -0.00451455637812614441 0.237101584672927856
0.41166260838508606 0.178019136190414429 -0.239901080727577209
-0.433269739151000977 -0.132636800408363342 0.145237043499946594
0.236792400479316711 0.37140190601348877 -0.00462817400693893433
-0.464750528335571289 0.21686282753944397 0.257779985666275024
-0.467315375804901123 0.265141159296035767 0.416782796382904053
0.41696283221244812 -0.0496923476457595825 -0.262914478778839111
0.368955492973327637 -0.240626662969589233 -0.294049590826034546
-0.375929415225982666 -0.00252177659422159195 0.152533382177352905
0.216987192630767822 0.371646910905838013 0.000743553042411804199
0.350576490163803101 -0.0223427042365074158 -0.257177591323852539
-0.0381096526980400085 0.42427825927734375 0.200476184487342834
0.332123011350631714 -0.315517127513885498 -0.334995508193969727
-0.196885257959365845 0.196261376142501831 0.143644928932189941
0.360313534736633301 -0.200216785073280334 -0.301898956298828125
-0.430296778678894043 0.0384309291839599609 0.346408069133758545
0.342229306697845459 -0.321779161691665649 -0.332961022853851318
0.336882978677749634 0.230544835329055786 0.0627980083227157593
0.361992895603179932 0.0319579541683197021 -0.257707327604293823
-0.0496349260210990906 0.411662459373474121 0.202557221055030823
-0.438395440578460693 0.0120986783877015114 0.296583890914916992
0.358369529247283936 0.230038821697235107 0.000637266784906387329
-0.0532620549201965332 0.437981098890304565 0.232602804899215698
-0.359830588102340698 0.20954681932926178 0.271956712007522583
0.360077410936355591 0.0715597569942474365 0.0787577331066131592
0.324727118015289307 0.090567760169506073 0.19199661910533905
-0.370630651712417603 0.179757550358772278 0.379301071166992188
0.391755580902099609 0.0582768097519874573 -0.263858675956726074
-0.0385366231203079224 -0.146184027194976807 0.065245211124420166
-0.419428586959838867 0.0697788223624229431 0.226874887943267822
0.37729683518409729 -0.0877845808863639832 -0.245046675205230713
-0.309146374464035034 -0.223336592316627502 0.314720690250396729
-0.118001446127891541 0.289750933647155762 0.362936466932296753
0.15998762845993042 0.24380938708782196 0.0657794997096061707
0.324106186628341675 0.166118130087852478 -0.0883229672908782959
0.367548733949661255 -0.210971489548683167 -0.29701310396194458
-0.357961297035217285 0.0409513935446739197 0.12638363242149353
0.319840073585510254 0.211220636963844299 0.0740624070167541504
0.103747695684432983 0.163657218217849731 0.0065275244414806366
-0.41062590479850769 -0.256827116012573242 0.115665413439273834
-0.209157198667526245 0.402693718671798706 0.276265799999237061
0.288566917181015015 0.225348502397537231 -0.0675167590379714966
0.096443474292755127 0.139363467693328857 0.0130706615746021271
0.326198577880859375 0.00349709391593933105 -0.21654355525970459
0.305402815341949463 -0.198420897126197815 -0.11584646999835968
-0.404443651437759399 0.0102644776925444603 0.378656864166259766
0.320338338613510132 -0.268336266279220581 -0.324123620986938477
-0.409664571285247803 0.221814930438995361 0.144602477550506592
-0.327907472848892212 -0.184373512864112854 0.138893783092498779
0.36417040228843689 -0.0075984615832567215 -0.269585549831390381
0.318350762128829956 -0.117444232106208801 0.115000501275062561
0.297045737504959106 -0.103597655892372131 0.102150559425354004
-0.027549348771572113 0.420036107301712036 0.193432703614234924
-0.0512049570679664612 0.406826198101043701 0.202231615781784058
-0.433174610137939453 -0.0266509577631950378 0.318546324968338013
0.359656631946563721 0.221090495586395264 -0.00819559767842292786
0.302207469940185547 -0.15397702157497406 0.0787573680281639099
0.335773885250091553 0.115412324666976929 0.16978570818901062
0.33328711986541748 -0.248232439160346985 -0.254485845565795898
-0.347829997539520264 0.244004726409912109 0.385840713977813721
-0.407007753849029541 0.12360449880361557 0.407175779342651367
0.382951736450195312 -0.0760348513722419739 -0.226782366633415222
-0.41235804557800293 -0.09784746915102005 0.185984164476394653
0.155569970607757568 0.215213939547538757 0.056447148323059082
-0.461143732070922852 -0.164392516016960144 0.365733832120895386
0.3080330491065979 -0.219697043299674988 -0.264198601245880127
-0.396471649408340454 -0.0652762502431869507 0.0951477587223052979
-0.378383934497833252 0.0821297988295555115 0.375566691160202026
0.122113615274429321 0.206865489482879639 0.00357504189014434814
-0.265315890312194824 0.16059526801109314 0.380554825067520142
-0.407690823078155518 -0.190733030438423157 0.158544585108757019
0.221176996827125549 -0.000275373458862304688 -0.124103561043739319
0.0987408608198165894 0.170927137136459351 0.0425455532968044281
0.366658568382263184 0.0866274237632751465 -0.213485568761825562
-0.409402668476104736 -0.177816048264503479 0.166598021984100342
0.228625521063804626 -0.358653783798217773 -0.317980915307998657
-0.328598052263259888 0.18820469081401825 0.150968983769416809
-0.39829641580581665 -0.105629913508892059 0.149320930242538452
0.367212116718292236 -0.0030016973614692688 -0.254143714904785156
0.328269124031066895 -0.154109835624694824 0.0802837386727333069
0.29423859715461731 -0.126767665147781372 0.110080160200595856
