ply
format ascii 1.0
element vertex 743
property float x
property float y
property float z
end_header
0.36156812310218811 -0.128222554922103882 0.2265777587890625
0.404461413621902466 -0.0677119642496109009 -0.25688895583152771
0.435955345630645752 0.058052700012922287 -0.250024616718292236
0.110953636467456818 0.402719467878341675 0.174751177430152893
0.334826797246932983 -0.303283780813217163 -0.365308165550231934
0.410066008567810059 -0.0219408497214317322 -0.285231173038482666
0.239000797271728516 -0.331830680370330811 -0.0794031769037246704
0.304738700389862061 -0.282223522663116455 -0.233975023031234741
-0.401060581207275391 0.246117457747459412 0.414787828922271729
0.411989778280258179 -0.153951823711395264 -0.310789227485656738
0.316243678331375122 0.362884491682052612 -0.147807419300079346
0.414598762989044189 -0.13454166054725647 -0.290616333484649658
0.343327194452285767 -0.284762054681777954 -0.325853705406188965
-0.0312331691384315491 0.409883201122283936 0.266788959503173828
0.318095207214355469 -0.19305536150932312 -0.127931505441665649
0.331307530403137207 0.267758995294570923 -0.0731724351644515991
0.213541314005851746 0.190300613641738892 0.192296549677848816
0.354264020919799805 -0.0471957847476005554 0.178970962762832642
0.423490464687347412 0.310601085424423218 -0.200147956609725952
0.375072121620178223 -0.150878295302391052 -0.0984911173582077026
0.17601381242275238 -0.341716229915618896 -0.179045319557189941
-0.411475241184234619 0.0722441971302032471 0.24756157398223877
0.398391097784042358 0.0349914133548736572 0.230454623699188232
0.349900484085083008 0.255723178386688232 0.0117203891277313232
0.142826750874519348 -0.02603951096534729 0.216823115944862366
-0.487505912780761719 0.190277829766273499 0.29169166088104248
0.312673181295394897 -0.156206309795379639 -0.227388322353363037
0.354936391115188599 -0.11005730926990509 0.164824336767196655
0.366514921188354492 -0.103608414530754089 -0.110801920294761658
-0.396837085485458374 0.235913559794425964 0.405989557504653931
0.260246902704238892 0.123081773519515991 0.234559625387191772
-0.35528564453125 -0.312429994344711304 0.135137587785720825
0.273024439811706543 0.27924695611000061 -0.00767084583640098572
0.203831419348716736 -0.416966676712036133 -0.00709223374724388123
0.347918301820755005 0.244499489665031433 0.0855340734124183655
0.401697725057601929 -0.192447900772094727 -0.29566684365272522
-0.378681004047393799 -0.122977115213871002 0.17895352840423584
0.195705950260162354 -0.308059900999069214 -0.188506454229354858
0.31640288233757019 -0.181853383779525757 -0.262228727340698242
0.218333572149276733 -0.297283977270126343 -0.315473854541778564
0.351823329925537109 -0.17998814582824707 0.0855283141136169434
0.365087956190109253 0.290170222520828247 -0.102341450750827789
0.417818009853363037 0.248615160584449768 -0.235061779618263245
0.379577815532684326 0.136376619338989258 -0.121426627039909363
0.385102510452270508 0.113798052072525024 0.100569888949394226
0.397376805543899536 0.164569005370140076 -0.0256555750966072083
0.37571677565574646 -0.0877583995461463928 -0.294098079204559326
-0.377997308969497681 -0.295718401670455933 0.13085782527923584
-0.37549746036529541 -0.249418795108795166 0.148085370659828186
-0.289749979972839355 -0.342399060726165771 0.143199145793914795
-0.327668726444244385 0.273244023323059082 0.215910539031028748
-0.389865994453430176 -0.244586169719696045 0.14100193977355957
0.266290575265884399 -0.187287688255310059 0.218291535973548889
0.302584022283554077 -0.274243146181106567 -0.281796902418136597
0.34240296483039856 0.3594169020652771 -0.142340809106826782
-0.360246002674102783 -0.284959077835083008 0.326938658952713013
0.449769347906112671 0.0610883571207523346 -0.257580399513244629
-0.371585309505462646 0.1658812016248703 0.187622681260108948
-0.334910929203033447 -0.329220622777938843 0.179978460073471069
0.189762413501739502 0.271853625774383545 0.0567424856126308441
0.156289875507354736 -0.233905255794525146 -0.151965558528900146
0.309302538633346558 -0.291818052530288696 -0.194710284471511841
-0.331043660640716553 -0.338445872068405151 0.136953458189964294
0.354684531688690186 -0.288287192583084106 -0.338494837284088135
0.342824965715408325 -0.234006747603416443 -0.267456591129302979
0.391836374998092651 -0.200316548347473145 -0.301036417484283447
0.304368287324905396 -0.22519528865814209 -0.132316857576370239
-0.436141222715377808 0.0210370942950248718 0.224049881100654602
-0.363694250583648682 0.154996082186698914 0.32606041431427002
0.397352784872055054 -0.0323861762881278992 -0.0484266765415668488
0.324053704738616943 -0.246665745973587036 -0.239115655422210693
-0.328688055276870728 -0.287370473146438599 0.024647880345582962
0.313011765480041504 -0.246477007865905762 -0.124031119048595428
0.436476081609725952 0.0422429107129573822 -0.26726001501083374
0.306489437818527222 -0.288386076688766479 -0.232065021991729736
0.239971190690994263 0.455954372882843018 0.109135299921035767
0.313699126243591309 0.362924873828887939 -0.146477103233337402
0.33954155445098877 -0.301846206188201904 -0.368481874465942383
0.336296349763870239 -0.285860151052474976 -0.326938420534133911
-0.337628543376922607 0.301756918430328369 0.432381212711334229
-0.448075264692306519 -0.0236141681671142578 0.283227384090423584
0.365740090608596802 -0.151348277926445007 -0.0921390652656555176
0.177305325865745544 -0.322211593389511108 -0.180803477764129639
0.273396670818328857 0.253069460391998291 -0.0523036234080791473
0.336601793766021729 -0.223671659827232361 -0.181409403681755066
-0.417357116937637329 0.0735011696815490723 0.240083605051040649
-0.475401043891906738 0.190345913171768188 0.29450535774230957
0.318794846534729004 0.312065005302429199 -0.0813919752836227417
0.137383416295051575 0.199121758341789246 0.231089606881141663
0.295471787452697754 0.0561975389719009399 0.23980027437210083
0.202215716242790222 0.293987870216369629 0.0399749055504798889
0.252361059188842773 0.190457820892333984 0.155322358012199402
0.326366215944290161 0.121310442686080933 0.162872880697250366
-0.336003601551055908 0.28944629430770874 0.434958279132843018
0.432963192462921143 0.0940729379653930664 -0.0906984955072402954
-0.3465232253074646 0.0143135040998458862 0.183059513568878174
0.398746728897094727 0.104658633470535278 -0.0942489057779312134
-0.408535212278366089 0.104038529098033905 0.262899130582809448
0.38120153546333313 -0.225862085819244385 -0.35017821192741394
0.415379256010055542 -0.132875621318817139 -0.316968530416488647
0.328695416450500488 0.26906469464302063 0.0329141542315483093
0.325082302093505859 -0.243673339486122131 -0.202071309089660645
0.201697438955307007 0.342503249645233154 0.166595786809921265
0.175605177879333496 -0.282561779022216797 -0.145126223564147949
0.36160627007484436 -0.159055247902870178 -0.244098365306854248
-0.326244115829467773 -0.244721785187721252 0.155429750680923462
0.357750952243804932 0.189244270324707031 0.072451762855052948
0.393510967493057251 -0.0116959651932120323 -0.307791173458099365
0.214900344610214233 0.207384005188941956 0.246404752135276794
-0.422275930643081665 0.0771662592887878418 0.262171059846878052
0.345015108585357666 -0.213390842080116272 -0.295112907886505127
0.145410254597663879 0.130539789795875549 0.141469821333885193
-0.431100964546203613 0.158792465925216675 0.408601820468902588
-0.454308539628982544 0.209840297698974609 0.419605046510696411
0.358308553695678711 0.0941293388605117798 0.167002677917480469
-0.421045124530792236 0.0497696064412593842 0.369849950075149536
0.416081786155700684 -0.205863475799560547 -0.338833481073379517
0.458174079656600952 -0.0167351681739091873 -0.210277140140533447
0.352251619100570679 0.0786654651165008545 0.156424105167388916
0.086186625063419342 0.253401845693588257 0.195235937833786011
0.383145451545715332 -0.242208153009414673 -0.34248235821723938
0.239903703331947327 0.183620542287826538 0.198562100529670715
-0.390053629875183105 0.139497935771942139 0.349963277578353882
0.23487555980682373 0.298844277858734131 0.00805489346385002136
-0.352747440338134766 0.244765877723693848 0.337089687585830688
0.133305221796035767 0.204130694270133972 0.232270091772079468
0.317103266716003418 0.122804164886474609 0.2494773268699646
0.128681480884552002 0.244387045502662659 0.1357097327709198
0.27932131290435791 0.235084742307662964 0.167690128087997437
0.292333364486694336 0.270444393157958984 0.221165955066680908
0.386477351188659668 0.279581576585769653 -0.0923216715455055237
0.293118715286254883 0.0615999326109886169 0.219356462359428406
-0.0681358203291893005 0.44302406907081604 0.424757212400436401
0.332398176193237305 0.360740542411804199 -0.141975045204162598
-0.414378076791763306 0.0839409977197647095 0.262248039245605469
0.31414484977722168 -0.260791122913360596 -0.333436667919158936
0.421268582344055176 -0.181669920682907104 -0.304566413164138794
0.343935847282409668 -0.252074360847473145 -0.262499034404754639
0.137199133634567261 0.230692416429519653 0.421382367610931396
0.305423617362976074 -0.158337697386741638 -0.207446008920669556
0.245989009737968445 -0.258819907903671265 0.0934559553861618042
0.332189440727233887 -0.0736870467662811279 -0.110224790871143341
0.249713823199272156 -0.139478236436843872 -0.20959433913230896
-0.399781703948974609 0.231989338994026184 0.407027602195739746
0.338709205389022827 -0.17918144166469574 0.0844667255878448486
0.36822548508644104 -0.227668777108192444 -0.332937151193618774
0.408773630857467651 0.0281820744276046753 0.0935914516448974609
-0.347289979457855225 0.296031534671783447 0.43299064040184021
0.331689685583114624 -0.240147799253463745 -0.293833732604980469
0.17636464536190033 0.0696118175983428955 0.230421543121337891
-0.439640074968338013 0.291177272796630859 0.425753593444824219
-0.430328011512756348 0.144354060292243958 0.453893035650253296
0.348372280597686768 -0.238178640604019165 -0.358678042888641357
0.388836473226547241 -0.0431457459926605225 -0.175461336970329285
0.338428199291229248 -0.0300480462610721588 0.161665305495262146
0.0467364639043807983 -0.109931409358978271 0.137144505977630615
-0.465242505073547363 -0.0375011377036571503 0.250300139188766479
0.304939985275268555 0.0771260857582092285 0.0875309109687805176
-0.438120186328887939 0.135704949498176575 0.35094839334487915
0.247137516736984253 0.264641225337982178 -0.0394854359328746796
-0.412843525409698486 0.154574379324913025 0.305199384689331055
-0.40859144926071167 0.160240978002548218 0.327937722206115723
-0.360964715480804443 -0.0346773751080036163 0.436381280422210693
0.227831721305847168 -0.228302463889122009 -0.224704772233963013
0.152125701308250427 -0.263185024261474609 0.22765621542930603
-0.334504663944244385 0.176454409956932068 0.162795871496200562
0.396676033735275269 -0.0665006190538406372 -0.185532838106155396
-0.335736602544784546 -0.234343156218528748 0.293430685997009277
-0.435364723205566406 0.0357618182897567749 0.200156539678573608
0.376602649688720703 0.120991706848144531 0.101915754377841949
0.31668776273727417 0.0713924393057823181 0.23764801025390625
0.414065837860107422 0.0556626059114933014 0.0428208895027637482
0.335699468851089478 -0.0960350409150123596 0.155886679887771606
-0.332754403352737427 0.277127623558044434 0.212192177772521973
-0.384113609790802002 -0.234754413366317749 0.0960736572742462158
0.402995407581329346 -0.134500116109848022 -0.301423430442810059
0.295274466276168823 -0.249904125928878784 -0.129422992467880249
0.328014463186264038 0.259055823087692261 0.230243682861328125
0.269214093685150146 -0.189758449792861938 0.218854859471321106
-0.222019791603088379 -0.397934973239898682 0.0523183718323707581
0.35941922664642334 -0.252369999885559082 -0.301175773143768311
0.315099149942398071 -0.26737549901008606 -0.281346708536148071
0.344961494207382202 0.343428045511245728 -0.153406232595443726
0.337108492851257324 0.137316688895225525 0.156652361154556274
-0.370680510997772217 -0.313169479370117188 0.0774295032024383545
-0.0638264119625091553 0.406927734613418579 0.25914350152015686
0.311878204345703125 -0.275286704301834106 -0.247349873185157776
0.347351819276809692 0.037477545440196991 0.203677311539649963
-0.404503524303436279 -0.277396410703659058 0.0952141284942626953
0.342910945415496826 -0.0590935200452804565 0.17565116286277771
0.325956434011459351 -0.26437649130821228 -0.353521436452865601
-0.388854146003723145 -0.249888211488723755 0.129541099071502686
0.4154776930809021 -0.138605445623397827 -0.289660155773162842
0.345347940921783447 -0.283517241477966309 -0.327084004878997803
0.331563889980316162 -0.229835137724876404 -0.273775786161422729
-0.440406322479248047 0.0215532109141349792 0.223689109086990356
0.392973482608795166 -0.0295262411236763 -0.0448366925120353699
0.311516135931015015 -0.26117369532585144 -0.118149623274803162
-0.442187666893005371 0.285947084426879883 0.422790616750717163
0.349688172340393066 -0.236749321222305298 -0.358739882707595825
0.399992227554321289 0.0688613802194595337 -0.128681793808937073
0.338099092245101929 0.331587135791778564 0.0182358883321285248
0.370096921920776367 -0.0207768045365810394 -0.079488605260848999
0.298624813556671143 -0.0939086750149726868 0.183341622352600098
0.418174892663955688 0.170020729303359985 -0.233540713787078857
-0.422859936952590942 0.0953976064920425415 0.271471798419952393
0.36106303334236145 -0.13543352484703064 0.238648205995559692
0.115517139434814453 0.198553383350372314 0.0134180411696434021
0.380896091461181641 0.316331595182418823 -0.196569830179214478
-0.309091091156005859 -0.32466086745262146 0.308909773826599121
0.439684927463531494 -0.174055516719818115 0.117897048592567444
-0.299135982990264893 -0.293824285268783569 0.295254290103912354
0.356161177158355713 -0.259375989437103271 0.214611172676086426
0.152298107743263245 0.275878876447677612 0.0348307453095912933
0.411756217479705811 0.239702522754669189 -0.172527492046356201
0.415284216403961182 0.150508210062980652 0.178055331110954285
-0.445838451385498047 -0.135895103216171265 0.188128650188446045
-0.384961754083633423 0.218522727489471436 0.405550479888916016
-0.443007528781890869 0.0630129203200340271 0.206979110836982727
-0.46706080436706543 -0.129573047161102295 0.319801747798919678
0.366892397403717041 -0.211883470416069031 -0.301614165306091309
0.320770323276519775 -0.283543854951858521 -0.18793778121471405
-0.46440279483795166 -0.165018975734710693 0.283073544502258301
0.395616710186004639 -0.115329399704933167 -0.286358118057250977
0.268180936574935913 -0.189999759197235107 0.216363072395324707
0.294982373714447021 -0.32587277889251709 -0.332100808620452881
-0.430144965648651123 -0.128926664590835571 0.324846059083938599
-0.424154549837112427 0.256052464246749878 0.434695422649383545
-0.431823492050170898 0.165577903389930725 0.389929413795471191
0.392728090286254883 -0.252653837203979492 -0.338853299617767334
-0.314961999654769897 -0.343536227941513062 0.0644147321581840515
0.306364059448242188 -0.266199231147766113 -0.252741545438766479
-0.457884520292282104 0.238856911659240723 0.433368265628814697
0.412646114826202393 -0.162919268012046814 -0.31119576096534729
-0.0686035752296447754 -0.434164732694625854 0.050655558705329895
0.416205734014511108 -0.135334089398384094 -0.293505728244781494
-0.4434642493724823 0.021895652636885643 0.223771274089813232
-0.450562000274658203 0.202427148818969727 0.40157511830329895
-0.453036278486251831 0.292158037424087524 0.427395164966583252
0.427359253168106079 0.264705181121826172 -0.227307453751564026
-0.341879457235336304 0.184527099132537842 0.159377485513687134
-0.456581950187683105 0.00749052641913294792 0.277955830097198486
0.352327883243560791 -0.086571618914604187 0.056880265474319458
-0.297075241804122925 -0.182586982846260071 0.100548803806304932
0.386710315942764282 -0.242508798837661743 -0.374365687370300293
0.344507426023483276 -0.301774114370346069 -0.379017472267150879
-0.390058696269989014 0.22638249397277832 0.163398087024688721
0.335833430290222168 -0.123057395219802856 0.160752952098846436
-0.447747379541397095 0.222752422094345093 0.411249846220016479
-0.453627556562423706 0.0040495418943464756 0.274877250194549561
0.340737015008926392 -0.0991415828466415405 0.0681236386299133301
0.391084551811218262 0.129728779196739197 -0.254856705665588379
0.232104331254959106 -0.296413421630859375 -0.0114512555301189423
0.381118625402450562 -0.256111413240432739 -0.345123767852783203
-0.435118168592453003 -0.0582465790212154388 0.325340569019317627
0.377498775720596313 -0.193529635667800903 -0.298872888088226318
-0.382199764251708984 -0.104368850588798523 0.180907487869262695
0.378118783235549927 0.00549218058586120605 -0.216800734400749207
-0.388584256172180176 0.161306172609329224 0.140636742115020752
0.407345443964004517 0.103453502058982849 -0.101255550980567932
-0.406639039516448975 0.0084371538832783699 0.14836864173412323
-0.394628286361694336 -0.26448705792427063 0.0791935771703720093
-0.330772280693054199 -0.221834048628807068 0.0946313664317131042
0.376864165067672729 0.118713021278381348 -0.276397228240966797
-0.375896215438842773 -0.261181354522705078 0.124364711344242096
-0.26025843620300293 0.262438982725143433 0.185797721147537231
-0.397311300039291382 -0.247291669249534607 0.142426759004592896
0.399395227432250977 0.0296290908008813858 -0.29059174656867981
0.407512485980987549 -0.113075733184814453 -0.294668346643447876
0.241101861000061035 0.195775344967842102 0.191608801484107971
-0.348784983158111572 -0.292738050222396851 0.326960593461990356
-0.0111096054315567017 0.306982517242431641 0.170062735676765442
-0.431520760059356689 0.0187241509556770325 0.361788064241409302
-0.361667454242706299 0.0503846853971481323 0.166114926338195801
-0.0614524632692337036 0.407108396291732788 0.260471343994140625
0.400605618953704834 -0.25582355260848999 -0.345341026782989502
0.397353321313858032 -0.146263584494590759 -0.316173315048217773
0.357768416404724121 0.352564126253128052 -0.161604076623916626
0.217098504304885864 0.310068517923355103 -0.0171315744519233704
0.116743937134742737 -0.366027355194091797 -0.070071883499622345
-0.416395068168640137 -0.237293809652328491 0.196109533309936523
-0.399039596319198608 -0.234196737408638 0.133463531732559204
-0.437048614025115967 -0.226525872945785522 0.347730875015258789
0.28366851806640625 0.427414119243621826 0.0489072501659393311
0.397002518177032471 -0.191619738936424255 -0.293983131647109985
0.380812764167785645 -0.195593014359474182 -0.269930005073547363
-0.227952972054481506 -0.390562057495117188 0.0495537109673023224
0.333147197961807251 0.363286375999450684 -0.150155723094940186
-0.448458671569824219 0.287945598363876343 0.420361876487731934
0.360690414905548096 -0.23480302095413208 -0.358123749494552612
0.327198505401611328 -0.29608491063117981 -0.372687488794326782
0.277870625257492065 0.264266878366470337 -0.0124083729460835457
0.321788579225540161 -0.0570846796035766602 -0.119202315807342529
-0.378489851951599121 -0.0422277674078941345 0.183529645204544067
-0.46696743369102478 -0.150754213333129883 0.222445502877235413
-0.391702860593795776 0.21307121217250824 0.392844170331954956
0.373532772064208984 0.159275621175765991 -0.1007576584815979
0.239228695631027222 0.251947700977325439 0.139729097485542297
0.300415277481079102 0.229588225483894348 -0.184717744588851929
0.137320712208747864 -0.245972588658332825 -0.154345735907554626
0.356012403964996338 -0.113635465502738953 -0.226818263530731201
0.067978203296661377 0.241811186075210571 0.316531389951705933
0.359265536069869995 -0.266093730926513672 -0.29486393928527832
0.124794319272041321 0.338735491037368774 0.164994239807128906
0.375537276268005371 0.238318562507629395 -0.0581221394240856171
-0.271068602800369263 -0.230410516262054443 0.081974029541015625
-0.307896018028259277 -0.320588886737823486 0.0377458855509757996
0.231231614947319031 -0.2571544349193573 -0.196330487728118896
-0.351254433393478394 0.194161057472229004 0.373487889766693115
0.321812868118286133 -0.239959284663200378 -0.311307847499847412
0.303974032402038574 -0.133591130375862122 -0.268797457218170166
-0.348392307758331299 0.198476135730743408 0.167954608798027039
0.269018858671188354 0.358499377965927124 0.0245779473334550858
-0.457744777202606201 -0.0982982441782951355 0.232462897896766663
0.334955543279647827 0.0904596894979476929 -0.0280300956219434738
-0.382839441299438477 0.0744459405541419983 0.123461440205574036
0.362176686525344849 0.14260023832321167 -0.0258829593658447266
0.300758242607116699 0.291719496250152588 -0.169129371643066406
0.365251630544662476 -0.247609540820121765 -0.309492886066436768
-0.44241786003112793 -0.135061278939247131 0.096848607063293457
0.180260986089706421 0.349759370088577271 0.173295855522155762
0.105582676827907562 0.208954289555549622 0.286117017269134521
0.392240256071090698 0.197322174906730652 -0.069256216287612915
-0.312811017036437988 0.249070793390274048 0.147914499044418335
-0.267861008644104004 -0.269546031951904297 0.0651521459221839905
0.0926968157291412354 0.299933433532714844 0.0828768983483314514
0.369109690189361572 0.172268196940422058 -0.242060273885726929
0.331137895584106445 -0.261803984642028809 -0.219558611512184143
0.117234803736209869 0.228319734334945679 0.238961055874824524
-0.27960890531539917 0.317925631999969482 0.280970871448516846
-0.445205003023147583 -0.0328269600868225098 0.204745963215827942
0.35358726978302002 0.0710867494344711304 0.100725769996643066
-0.399251729249954224 -0.211561918258666992 0.0807947665452957153
0.337269425392150879 0.173207029700279236 0.165289118885993958
-0.188953220844268799 -0.393120110034942627 0.0534604303538799286
-0.42376360297203064 0.131346985697746277 0.134194716811180115
-0.326993167400360107 -0.249054476618766785 0.0739488899707794189
-0.303788274526596069 -0.329517841339111328 0.0629579126834869385
-0.00192139390856027603 0.441111594438552856 0.407678842544555664
-0.385873287916183472 0.156561136245727539 0.140886694192886353
-0.45096290111541748 0.270839095115661621 0.204259812831878662
-0.399965733289718628 0.0122138475999236107 0.136612951755523682
-0.336621493101119995 -0.31957128643989563 0.0751169994473457336
-0.316864162683486938 0.298525333404541016 0.263976931571960449
-0.295830816030502319 -0.336443722248077393 0.135110676288604736
0.342626988887786865 -0.253011763095855713 -0.249796599149703979
-0.38020363450050354 -0.233346998691558838 0.101084724068641663
-0.314122140407562256 0.175941169261932373 0.158198222517967224
-0.268337488174438477 -0.3383769690990448 0.074698425829410553
0.390279084444046021 -0.0656657814979553223 -0.256803333759307861
-0.422158807516098022 0.096685945987701416 0.180085167288780212
-0.277243226766586304 -0.0209247022867202759 0.133204370737075806
-0.215284347534179688 0.296339333057403564 0.233520627021789551
0.408216685056686401 -0.0706098675727844238 -0.298145681619644165
-0.0717512890696525574 0.399753302335739136 0.253587663173675537
0.412224411964416504 -0.257488608360290527 -0.341543495655059814
0.353833854198455811 -0.304070711135864258 0.172266483306884766
0.395763009786605835 -0.00561204133555293083 -0.291006088256835938
0.278471976518630981 0.166260629892349243 0.293524414300918579
0.367016434669494629 -0.213841557502746582 -0.308158546686172485
0.33327782154083252 0.364259153604507446 -0.153897568583488464
-0.355995982885360718 0.278195559978485107 0.174559056758880615
0.352732628583908081 0.028024693951010704 0.203054487705230713
-0.320113688707351685 0.229192554950714111 0.259418845176696777
-0.230975210666656494 0.332773119211196899 0.278104484081268311
0.385671615600585938 -0.00195655599236488342 -0.22896045446395874
0.339545458555221558 0.04812660813331604 0.0953080803155899048
0.455420196056365967 0.22025790810585022 -0.213592618703842163
-0.44600224494934082 -0.230024993419647217 0.352155745029449463
0.393866389989852905 -0.000485081225633621216 -0.029432712122797966
0.287990391254425049 -0.295093357563018799 -0.153051704168319702
0.228704094886779785 0.298074901103973389 -0.0191552396863698959
-0.417128413915634155 -0.150227159261703491 0.154997870326042175
-0.369949609041213989 -0.232851237058639526 0.371358573436737061
0.349192917346954346 -0.292179018259048462 -0.348717212677001953
0.246601194143295288 0.172290027141571045 -0.0491160154342651367
0.292845278978347778 -0.0915388688445091248 0.168973222374916077
0.380658984184265137 -0.233014926314353943 -0.35579991340637207
0.338867425918579102 -0.316751748323440552 -0.388032376766204834
-0.341352224349975586 -0.14537319540977478 0.070794716477394104
0.185704141855239868 0.33813321590423584 0.169808775186538696
-0.382588207721710205 0.153728991746902466 0.1421852707862854
-0.315161198377609253 -0.191366314888000488 0.0987671017646789551
-0.0646608173847198486 0.414629340171813965 0.262216240167617798
-0.380559772253036499 0.150396302342414856 0.281938672065734863
-0.425013482570648193 0.12291409820318222 0.400314122438430786
-0.381652176380157471 0.0721826329827308655 0.12963569164276123
-0.446303129196166992 -0.0349795706570148468 0.332523971796035767
-0.347948729991912842 0.204624012112617493 0.387199163436889648
0.388794481754302979 -0.175750598311424255 -0.291181981563568115
0.333431243896484375 0.079870074987411499 0.0985033214092254639
-0.37532392144203186 -0.0935369879007339478 0.126762658357620239
0.36870574951171875 -0.24762389063835144 -0.27379906177520752
0.253236711025238037 0.207040950655937195 0.105272732675075531
0.392211079597473145 0.320487290620803833 -0.192123621702194214
0.392678231000900269 0.245217099785804749 -0.193997666239738464
0.147883415222167969 -0.0537541806697845459 0.342473357915878296
0.294853389263153076 -0.136780440807342529 0.0509987659752368927
0.43726620078086853 -0.0364396721124649048 -0.270568192005157471
-0.302917361259460449 0.264481097459793091 0.423612296581268311
-0.410684823989868164 0.0869807526469230652 0.34628218412399292
0.316091835498809814 -0.324401050806045532 -0.348954111337661743
-0.488578051328659058 0.28539314866065979 0.277443468570709229
-0.438668608665466309 -0.0398473963141441345 0.305489838123321533
-0.354911983013153076 0.237447425723075867 0.414344102144241333
0.279488205909729004 -0.0134144499897956848 0.155365034937858582
-0.415609389543533325 0.278008162975311279 0.421368122100830078
0.0775985419750213623 0.0405872166156768799 0.0959856808185577393
-0.0903671681880950928 0.412375330924987793 0.256904840469360352
0.255787819623947144 -0.271798491477966309 0.125015527009963989
-0.437413394451141357 0.122060768306255341 0.440485835075378418
0.11963171511888504 0.173098757863044739 0.0841124802827835083
0.41253894567489624 -0.200095608830451965 -0.324351131916046143
0.370252877473831177 0.164061844348907471 0.133901789784431458
-0.437083661556243896 -0.0260180253535509109 0.212478950619697571
-0.400880128145217896 -0.0922793969511985779 0.162906408309936523
0.373977929353713989 -0.145539417862892151 -0.247494161128997803
-0.419752657413482666 -0.222245752811431885 0.155048191547393799
-0.362131118774414062 0.226424515247344971 0.204445004463195801
-0.36744651198387146 -0.263797849416732788 0.249207049608230591
-0.350378274917602539 0.23847024142742157 0.259623587131500244
0.398112565279006958 0.195867985486984253 -0.187733829021453857
-0.376827001571655273 -0.329978764057159424 0.134189963340759277
0.384900897741317749 0.321457475423812866 -0.193478018045425415
0.425001442432403564 0.104390926659107208 -0.221668660640716553
0.35191720724105835 -0.133069589734077454 -0.15708237886428833
-0.191598579287528992 -0.405988365411758423 0.046639513224363327
-0.395950675010681152 -0.193499296903610229 0.15693393349647522
0.429615259170532227 -0.0632338374853134155 -0.286276072263717651
0.380035638809204102 -0.127487272024154663 -0.0387650839984416962
-0.430461585521697998 0.169602319598197937 0.422536283731460571
0.391207903623580933 0.0638209208846092224 -0.233530044555664062
0.423942595720291138 -0.184921085834503174 -0.295324891805648804
0.354683667421340942 -0.291178911924362183 -0.377241373062133789
0.340261906385421753 -0.141136854887008667 -0.171922236680984497
0.0498410016298294067 -0.0117978751659393311 0.103266015648841858
-0.244317561388015747 0.41711115837097168 0.323559761047363281
0.213144510984420776 -0.337534189224243164 0.12882155179977417
-0.441580206155776978 -0.0448564514517784119 0.199798941612243652
-0.12871164083480835 0.425694257020950317 0.27130851149559021
-0.3952217698097229 -0.258150577545166016 0.0811380520462989807
-0.373324722051620483 0.188518688082695007 0.415087491273880005
-0.271049588918685913 -0.239702910184860229 0.097454071044921875
-0.343442440032958984 -0.255952268838882446 0.134408801794052124
-0.314229905605316162 0.265026479959487915 0.15982547402381897
0.301277369260787964 0.19095313549041748 0.193921715021133423
0.148173227906227112 0.35341256856918335 0.110535033047199249
-0.426880419254302979 0.0376447811722755432 0.154429048299789429
-0.378547906875610352 -0.11387961357831955 0.171366214752197266
-0.350130796432495117 -0.317998051643371582 0.0789653807878494263
0.336368024349212646 -0.100839078426361084 0.158557191491127014
-0.372096478939056396 0.0339615941047668457 0.142225503921508789
-0.452929139137268066 -0.144980981945991516 0.178102105855941772
-0.398187696933746338 -0.237393274903297424 0.0870991870760917664
0.408583939075469971 -0.114336125552654266 -0.293291628360748291
-0.311016589403152466 0.298563122749328613 0.334138870239257812
0.327902704477310181 -0.277011722326278687 -0.301448196172714233
0.29520028829574585 -0.321612834930419922 -0.304886579513549805
0.391267091035842896 0.00908726640045642853 -0.228775382041931152
-0.447309255599975586 -0.0977682322263717651 0.341069400310516357
-0.431879520416259766 0.10405847430229187 0.188517853617668152
-0.421900659799575806 0.0606196224689483643 0.166780263185501099
-0.211398735642433167 0.411382079124450684 0.298957347869873047
-0.0713282003998756409 0.404707729816436768 0.254616379737854004
-0.3588065505027771 -0.163324683904647827 0.189466789364814758
0.232059985399246216 -0.292900741100311279 -0.207732588052749634
0.407188266515731812 -0.0585151873528957367 -0.305500924587249756
0.423444479703903198 0.073578953742980957 -0.273312479257583618
0.403595089912414551 -0.0198900699615478516 -0.230595961213111877
-0.346582412719726562 -0.154386147856712341 0.135568022727966309
0.281504273414611816 -0.194062173366546631 0.0426953844726085663
0.325931727886199951 -0.264325767755508423 -0.360853046178817749
0.261496156454086304 0.22134670615196228 -0.0502778850495815277
0.338317036628723145 -0.292659491300582886 -0.330352723598480225
-0.388570487499237061 0.154241815209388733 0.140385642647743225
-0.354131847620010376 -0.0355436205863952637 0.133797705173492432
-0.441558003425598145 0.0110260322690010071 0.236763060092926025
-0.421842187643051147 0.149422630667686462 0.403353333473205566
-0.426809430122375488 -0.0394983589649200439 0.204245895147323608
-0.295519977807998657 -0.332813471555709839 0.136257410049438477
0.3446502685546875 0.356748193502426147 -0.161170154809951782
0.347303569316864014 -0.295198440551757812 -0.348355948925018311
-0.313820838928222656 -0.195501789450645447 0.107010170817375183
-0.435000509023666382 0.00363644585013389587 0.240453407168388367
-0.432704150676727295 0.1799803227186203 0.427199602127075195
0.301565319299697876 -0.141990691423416138 -0.260007768869400024
0.266365647315979004 -0.259323537349700928 -0.0500211119651794434
0.288795411586761475 -0.226115524768829346 -0.0062630288302898407
0.34548264741897583 0.00921731814742088318 0.0630976408720016479
0.183174610137939453 -0.392728447914123535 0.0192701201885938644
-0.302589654922485352 -0.316075921058654785 0.10113079845905304
0.37727963924407959 0.131771981716156006 0.0608997568488121033
-0.394224375486373901 -0.0927762463688850403 0.192622661590576172
0.353807002305984497 0.207857266068458557 0.0455160215497016907
-0.126942425966262817 0.346418231725692749 0.21257801353931427
0.376833111047744751 0.198042750358581543 -0.0484061352908611298
0.340619146823883057 -0.0551448874175548553 0.168650150299072266
0.29571300745010376 -0.323727816343307495 -0.133944123983383179
0.371596932411193848 0.236585900187492371 0.291946828365325928
0.392086148262023926 0.00813957490026950836 -0.0587455257773399353
0.45407220721244812 0.218380898237228394 -0.108645960688591003
0.358888745307922363 0.119207501411437988 -0.0659305453300476074
0.236190065741539001 0.142279848456382751 0.240526705980300903
0.365644365549087524 -0.22534489631652832 -0.33086007833480835
0.354151099920272827 0.190602034330368042 0.246857643127441406
0.277465522289276123 0.14308716356754303 0.289066910743713379
-0.37380141019821167 0.147944182157516479 0.179278448224067688
-0.333274811506271362 0.20473906397819519 0.136949703097343445
0.30313602089881897 0.00576778315007686615 0.160784795880317688
0.285905748605728149 0.29133489727973938 0.0531049259006977081
0.348263949155807495 -0.233307644724845886 -0.302488476037979126
-0.385377049446105957 -0.0972437858581542969 0.188707500696182251
0.405555486679077148 0.232515901327133179 -0.213825106620788574
-0.298524588346481323 -0.306954383850097656 0.0170834250748157501
0.177002757787704468 0.217571943998336792 0.295539885759353638
0.288350760936737061 0.152203381061553955 0.209280833601951599
-0.0718383491039276123 0.396859556436538696 0.249871134757995605
-0.308423340320587158 0.252397716045379639 0.177530825138092041
0.424037545919418335 0.111264601349830627 -0.221846669912338257
-0.26344752311706543 -0.383922815322875977 0.0736670196056365967
0.343648970127105713 -0.095553569495677948 0.16874067485332489
-0.415181636810302734 0.125920534133911133 0.30124172568321228
-0.414891302585601807 -0.121248148381710052 0.387727588415145874
0.314091593027114868 -0.0169457811862230301 0.102268531918525696
0.0374998748302459717 -0.00231629610061645508 0.0602391436696052551
0.335814476013183594 0.021322447806596756 0.0137722045183181763
0.360610008239746094 0.0107800588011741638 -0.212615132331848145
0.313254117965698242 0.00849449634552001953 0.0945762172341346741
0.291663616895675659 0.0655146241188049316 0.228466242551803589
0.3709372878074646 -0.0723882243037223816 0.0369263738393783569
0.351016521453857422 0.202437922358512878 0.0444721095263957977
0.326540589332580566 -0.207148253917694092 -0.262273639440536499
0.365524470806121826 -0.0305712241679430008 0.160053253173828125
0.377319902181625366 -0.00640000589191913605 -0.070565149188041687
0.332735419273376465 0.196673616766929626 -0.101708337664604187
0.34563368558883667 0.27764737606048584 -0.0880341753363609314
0.362409472465515137 0.232367187738418579 0.250845015048980713
0.347074508666992188 -0.172692209482192993 -0.29953467845916748
-0.362415432929992676 0.199235111474990845 0.227306023240089417
0.409673571586608887 -0.128007933497428894 -0.231471225619316101
-0.35003998875617981 0.0158064235001802444 0.174403578042984009
0.412575751543045044 0.127052918076515198 -0.172486752271652222
-0.395479440689086914 0.135289654135704041 0.175135940313339233
-0.43907618522644043 0.0361502617597579956 0.330241739749908447
0.0413822904229164124 0.451767802238464355 0.239320039749145508
0.284079819917678833 0.00842200592160224915 0.22122153639793396
-0.319826215505599976 0.299327373504638672 0.31022942066192627
-0.44911763072013855 -0.115439094603061676 0.362342238426208496
-0.453601926565170288 -0.173102051019668579 0.359732538461685181
-0.345939934253692627 -0.263432115316390991 0.132093340158462524
-0.368832409381866455 -0.281502187252044678 0.124716281890869141
0.259941816329956055 0.388969123363494873 0.0402058213949203491
-0.413809150457382202 0.024943280965089798 0.148234695196151733
-0.28554767370223999 -0.29302668571472168 0.0424041152000427246
-0.411187946796417236 -0.195493847131729126 0.139427706599235535
0.294250160455703735 -0.23756350576877594 -0.326067686080932617
-0.323875248432159424 -0.290261358022689819 0.0228098183870315552
0.410567343235015869 -0.0154672926291823387 -0.219763725996017456
-0.427253156900405884 0.10219275951385498 0.186505600810050964
0.399595558643341064 -0.0813857764005661011 -0.296934783458709717
0.375287711620330811 -0.2349129319190979 -0.301153361797332764
-0.22298787534236908 -0.375908941030502319 0.0614584796130657196
-0.350198626518249512 -0.182057633996009827 0.199846267700195312
0.379260897636413574 -0.0332126691937446594 -0.166821181774139404
0.406282216310501099 -0.0569397956132888794 -0.298820614814758301
-0.439331471920013428 0.0437524393200874329 0.331886887550354004
0.440791457891464233 0.0793840065598487854 -0.221747487783432007
0.349111676216125488 0.356922447681427002 -0.156562834978103638
0.24090123176574707 -0.339113533496856689 -0.0769382119178771973
0.3893699049949646 -0.0162599161267280579 -0.207480296492576599
-0.349734604358673096 -0.149157792329788208 0.135110795497894287
-0.282324761152267456 -0.354798823595046997 0.0448031425476074219
-0.422091066837310791 -0.237559765577316284 0.129253208637237549
0.227649122476577759 0.407918065786361694 0.016532018780708313
0.346571147441864014 0.351741909980773926 -0.144696414470672607
0.324590027332305908 -0.311788648366928101 -0.379102379083633423
0.24956551194190979 0.463942229747772217 0.103550702333450317
-0.0660914033651351929 0.397545754909515381 0.254470795392990112
-0.422262400388717651 0.145661264657974243 0.404089152812957764
-0.340086817741394043 -0.252146601676940918 0.0599082820117473602
-0.294582843780517578 -0.330705195665359497 0.081950753927230835
-0.423169702291488647 -0.212311640381813049 0.165606707334518433
-0.333410918712615967 -0.218277201056480408 0.135958641767501831
0.406097561120986938 -0.263004928827285767 -0.34353262186050415
0.311568528413772583 -0.260862112045288086 -0.349635481834411621
0.362427741289138794 -0.220910027623176575 -0.340399324893951416
0.31885489821434021 0.225957661867141724 0.215478375554084778
-0.33556520938873291 0.0992677807807922363 0.162023693323135376
0.342140465974807739 0.213225305080413818 -0.0695607960224151611
-0.425773262977600098 -0.115832507610321045 0.18060600757598877
0.359665066003799438 0.192064285278320312 0.0534630604088306427
-0.436957895755767822 -0.161195725202560425 0.162095680832862854
-0.414601266384124756 -0.200791656970977783 0.187320888042449951
-0.44992336630821228 -0.0527052171528339386 0.293943196535110474
-0.427318185567855835 0.0847943276166915894 0.264946967363357544
0.370081841945648193 -0.165692463517189026 -0.314824670553207397
0.410791218280792236 0.0657061710953712463 -0.252693057060241699
-0.292602241039276123 0.310533761978149414 0.261801362037658691
-0.444728374481201172 -0.231519505381584167 0.330951452255249023
-0.441907793283462524 -0.0468658730387687683 0.296111702919006348
0.249254330992698669 0.322907745838165283 0.00588752701878547668
0.379282623529434204 -0.281472444534301758 -0.375968515872955322
0.296447068452835083 -0.310091942548751831 -0.349265605211257935
-0.45616266131401062 0.181459829211235046 0.36884954571723938
-0.295246779918670654 -0.344903320074081421 0.105081945657730103
0.217288956046104431 -0.301633656024932861 -0.156758740544319153
0.284766256809234619 -0.167744532227516174 -0.0147034600377082825
0.152740150690078735 0.220240041613578796 0.263143330812454224
-0.4572029709815979 -0.0518277063965797424 0.254709243774414062
0.367526352405548096 0.0864822417497634888 -0.131965771317481995
-0.220622479915618896 -0.394603729248046875 0.0415171682834625244
0.325603246688842773 0.328363269567489624 -0.151689544320106506
-0.280045390129089355 -0.339880317449569702 0.067071080207824707
-0.352290421724319458 -0.28215944766998291 0.0571068674325942993
-0.184943363070487976 0.40984046459197998 0.30590742826461792
0.285901725292205811 -0.309575468301773071 -0.118639416992664337
-0.397932678461074829 0.0759557336568832397 0.386878043413162231
-0.387215733528137207 0.216360092163085938 0.40827372670173645
0.278889000415802002 0.114103645086288452 0.280726253986358643
0.0677609443664550781 0.265477925539016724 0.280225217342376709
0.251184463500976562 0.157860666513442993 0.341527551412582397
0.347576260566711426 0.184940353035926819 -0.0888126641511917114
0.336012899875640869 -0.0815413594245910645 0.0814637839794158936
-0.443044155836105347 -0.0723482519388198853 0.202237367630004883
-0.416794359683990479 -0.211334571242332458 0.166970431804656982
-0.438692659139633179 -0.0651528537273406982 0.222645625472068787
-0.348573833703994751 0.301457911729812622 0.439441800117492676
-0.371981114149093628 -0.0369913354516029358 0.387787193059921265
0.431152850389480591 -0.155567958950996399 -0.292476743459701538
-0.365155518054962158 0.140329033136367798 0.319769173860549927
-0.381561100482940674 0.126439660787582397 0.242203980684280396
0.335111469030380249 -0.26497417688369751 -0.369382739067077637
0.330070614814758301 -0.295892983675003052 -0.373793929815292358
-0.339224398136138916 -0.18269716203212738 0.141951888799667358
-0.137075483798980713 0.3999519944190979 0.265975415706634521
-0.293659001588821411 -0.346644580364227295 0.117110401391983032
0.290058135986328125 -0.292935460805892944 -0.099254608154296875
0.39650493860244751 0.0416163206100463867 -0.0364791862666606903
0.0794494226574897766 0.234534800052642822 0.125422418117523193
-0.0510754883289337158 0.461050510406494141 0.404336929321289062
0.360201239585876465 0.092116236686706543 0.0384675487875938416
-0.243521988391876221 -0.377935498952865601 0.0604184381663799286
0.375934362411499023 0.30633506178855896 -0.155165314674377441
-0.290537208318710327 -0.254063218832015991 0.0536329895257949829
-0.177049726247787476 0.389159709215164185 0.277100592851638794
0.307033836841583252 -0.280436962842941284 -0.0713552534580230713
0.228875830769538879 -0.210452720522880554 0.223308920860290527
-0.422213494777679443 -0.0207417234778404236 0.354305416345596313
0.302256077527999878 0.116948321461677551 0.276189297437667847
-0.442296862602233887 -0.0336555242538452148 0.204671382904052734
-0.13155326247215271 0.415727704763412476 0.265189528465270996
0.414265036582946777 0.278638303279876709 -0.165853559970855713
-0.293024241924285889 -0.0937040671706199646 0.14286978542804718
-0.342722505331039429 -0.248355492949485779 0.135417044162750244
-0.16722482442855835 0.402820408344268799 0.251590907573699951
-0.373486489057540894 -0.0698951557278633118 0.117942050099372864
0.215738624334335327 0.0754860043525695801 0.25649416446685791
-0.421622246503829956 -0.162349730730056763 0.156969606876373291
-0.436702191829681396 -0.0813415199518203735 0.30758368968963623
-0.443552017211914062 0.0229680053889751434 0.174661040306091309
0.286277055740356445 -0.258314162492752075 -0.0565189234912395477
0.322283327579498291 -0.286411285400390625 -0.187488213181495667
-0.424455851316452026 0.0265506859868764877 0.151824235916137695
-0.33025398850440979 -0.314243704080581665 0.0861358493566513062
-0.177629455924034119 0.417655378580093384 0.305059999227523804
-0.382318168878555298 -0.260714828968048096 0.0910478755831718445
-0.414089977741241455 -0.187040597200393677 0.138813957571983337
-0.368806153535842896 0.179779917001724243 0.348345011472702026
-0.321519821882247925 0.309559792280197144 0.183611810207366943
0.402489781379699707 0.0303042382001876831 -0.289764076471328735
-0.393933147192001343 0.0743359029293060303 0.151209354400634766
0.24509979784488678 -0.0533811748027801514 -0.141825884580612183
-0.311896294355392456 0.296370744705200195 0.329100131988525391
0.378104448318481445 0.147024482488632202 -0.277068138122558594
0.342049449682235718 -0.245958715677261353 -0.297481358051300049
-0.443447142839431763 -0.0987176969647407532 0.33817976713180542
-0.25008198618888855 0.327579379081726074 0.304979801177978516
-0.319694429636001587 0.307090729475021362 0.201821953058242798
-0.427100300788879395 0.101822748780250549 0.187485486268997192
-0.359179139137268066 -0.311409592628479004 0.110699281096458435
0.262564152479171753 -0.286639213562011719 -0.349652320146560669
-0.308721661567687988 -0.307113409042358398 0.0509452894330024719
-0.422012835741043091 0.253496229648590088 0.434010922908782959
0.33456769585609436 0.332431524991989136 -0.165349513292312622
0.398064613342285156 0.322131603956222534 -0.209398716688156128
0.405159860849380493 -0.262782692909240723 -0.350495040416717529
0.368003875017166138 -0.0215205475687980652 -0.167991161346435547
0.351323515176773071 0.36346966028213501 -0.15804716944694519
-0.227808922529220581 0.341496974229812622 0.27393805980682373
0.232369199395179749 0.443949103355407715 0.103225156664848328
0.357641726732254028 -0.111771456897258759 -0.0679626986384391785
-0.285672932863235474 -0.302361130714416504 0.0350187085568904877
0.39114832878112793 -0.00739527866244316101 -0.228397741913795471
0.388588219881057739 -0.131449460983276367 -0.282210379838943481
0.265568792819976807 -0.324174284934997559 -0.362997919321060181
-0.431780219078063965 -0.115333199501037598 0.200590819120407104
-0.320232272148132324 -0.312837451696395874 0.305522531270980835
0.222692504525184631 0.373882591724395752 -0.000473145395517349243
0.386170685291290283 -0.196716800332069397 -0.275460243225097656
0.259372413158416748 0.213845163583755493 -0.0502935796976089478
0.359257638454437256 -0.214078933000564575 -0.29554903507232666
-0.4390697181224823 -0.00108077377080917358 0.303789049386978149
0.247999384999275208 0.452028989791870117 0.101385936141014099
0.228405088186264038 0.169893234968185425 0.192065119743347168
-0.42526814341545105 0.134299337863922119 0.398455321788787842
-0.0095160994678735733 0.452767312526702881 0.411445260047912598
-0.426073670387268066 0.0878258347511291504 0.176018476486206055
0.324590623378753662 -0.197425603866577148 -0.207461550831794739
-0.0322812497615814209 0.384581118822097778 0.224165558815002441
0.331412225961685181 -0.210952639579772949 -0.257275134325027466
-0.296338140964508057 -0.340864419937133789 0.138140559196472168
-0.440677165985107422 0.059789024293422699 0.333634793758392334
0.32829168438911438 -0.318263620138168335 -0.379720628261566162
-0.435862064361572266 0.282225668430328369 0.417115151882171631
-0.296049654483795166 -0.343606323003768921 0.109104208648204803
-0.387181222438812256 0.20898793637752533 0.400724709033966064
-0.413797497749328613 -0.204376935958862305 0.17457956075668335
-0.378443539142608643 0.192429482936859131 0.325970977544784546
-0.292719393968582153 -0.346053719520568848 0.116899736225605011
-0.0454401075839996338 0.452582269906997681 0.390527129173278809
0.297949403524398804 -0.27714809775352478 -0.0689937472343444824
0.348340749740600586 0.299107670783996582 0.0179851464927196503
-0.404163897037506104 -0.220781043171882629 0.0748114734888076782
-0.332823902368545532 0.153048321604728699 0.297608435153961182
0.326632261276245117 -0.192981377243995667 -0.274961382150650024
0.178449630737304688 0.35770803689956665 0.214259415864944458
-0.404050350189208984 -0.057861674576997757 0.377924203872680664
0.276359528303146362 -0.233433276414871216 0.108102157711982727
-0.451759487390518188 -0.0160039383918046951 0.203865647315979004
-0.278091520071029663 0.259514808654785156 0.211995691061019897
0.398764818906784058 0.056546386331319809 -0.0576017647981643677
-0.319857388734817505 -0.31975284218788147 0.160025805234909058
0.355138242244720459 0.0396627672016620636 0.0196704305708408356
-0.401809930801391602 -0.136568829417228699 0.0709130764007568359
-0.138128027319908142 0.382528066635131836 0.228902339935302734
-0.450575500726699829 0.0275637172162532806 0.371019124984741211
0.376569986343383789 0.108931094408035278 0.25395318865776062
0.310436874628067017 -0.0010483618825674057 0.114427179098129272
0.338031977415084839 -0.281296670436859131 -0.213730722665786743
-0.275254309177398682 0.305753320455551147 0.342473894357681274
-0.391965806484222412 -0.225221902132034302 0.150458976626396179
-0.387811928987503052 -0.181115821003913879 0.163219094276428223
0.125969141721725464 -0.33280789852142334 0.220936551690101624
