ply
format ascii 1.0
element vertex 740
property float x
property float y
property float z
end_header
0.480661243200302124 -0.172358766198158264 -0.286832273006439209
0.471551328897476196 0.392924964427947998 -0.089655652642250061
0.284248679876327515 0.496321111917495728 0.0353095307946205139
0.1552458256483078 -0.473513007164001465 -0.181320130825042725
-0.463976353406906128 -0.242368653416633606 0.127654880285263062
-0.442593753337860107 -0.236771255731582642 0.0447581484913825989
-0.583678185939788818 -0.223094522953033447 0.26335299015045166
0.282090306282043457 0.496917843818664551 0.0373963117599487305
0.45940813422203064 -0.207161903381347656 -0.271005302667617798
0.501805603504180908 -0.181025147438049316 -0.189526528120040894
-0.273195445537567139 -0.437048196792602539 -0.0691967904567718506
0.466815650463104248 0.368675112724304199 -0.0854066535830497742
-0.524131655693054199 0.355306863784790039 0.37425115704536438
0.442805379629135132 -0.273219525814056396 -0.322677850723266602
0.451775193214416504 -0.344593942165374756 -0.328529775142669678
0.323310524225234985 0.360458731651306152 0.0360378623008728027
0.432688295841217041 -0.104698449373245239 -0.105172634124755859
-0.449356436729431152 -0.0236133672297000885 0.112062752246856689
-0.537792384624481201 -0.156248688697814941 0.141502529382705688
-0.48677527904510498 0.27303585410118103 0.329823493957519531
0.491384744644165039 0.136884629726409912 -0.0477274879813194275
0.274998784065246582 0.38214874267578125 0.172764286398887634
0.433916062116622925 0.396102279424667358 -0.0952589735388755798
0.150449499487876892 -0.41068565845489502 -0.246050640940666199
0.4684906005859375 -0.142238840460777283 -0.189258202910423279
0.136205002665519714 0.423708200454711914 0.327827215194702148
0.435734391212463379 -0.298418611288070679 -0.249787017703056335
0.144675910472869873 0.50205683708190918 0.171866238117218018
0.470440000295639038 0.2345753014087677 -0.0338415578007698059
-0.367607593536376953 -0.233125388622283936 -0.0317015610635280609
-0.356100320816040039 -0.332262367010116577 -0.0447340682148933411
0.262382477521896362 -0.37614595890045166 -0.237862154841423035
-0.448045849800109863 0.226732552051544189 0.307721883058547974
0.400718122720718384 -0.296242505311965942 -0.274741530418395996
0.384633749723434448 -0.143476486206054688 -0.216384470462799072
-0.396444916725158691 0.208841398358345032 0.102943204343318939
0.358997046947479248 0.392962992191314697 0.0374752581119537354
-0.529982209205627441 -0.123761281371116638 0.169160708785057068
0.425743222236633301 0.0708792358636856079 -0.011284886859357357
-0.418370068073272705 0.071443311870098114 0.0551639311015605927
0.474600493907928467 0.108271196484565735 0.000503227580338716507
0.375145167112350464 0.401727408170700073 -0.116189740598201752
0.455322504043579102 -0.271174788475036621 -0.280003339052200317
-0.575825393199920654 -0.127611294388771057 -0.000313553959131240845
0.200660526752471924 0.532523036003112793 0.190158858895301819
0.128966867923736572 0.363090395927429199 0.319217056035995483
0.478743433952331543 0.198137819766998291 -0.028318990021944046
-0.38235899806022644 0.272187709808349609 0.0614302456378936768
-0.319465041160583496 -0.305779010057449341 -0.0523975454270839691
0.0890004560351371765 0.532353997230529785 0.0960375070571899414
0.474986106157302856 0.155518367886543274 -0.167890697717666626
0.41568368673324585 -0.300453901290893555 -0.178503185510635376
0.124053969979286194 0.307861387729644775 0.251391291618347168
-0.327444583177566528 0.351764410734176636 0.22101418673992157
-0.527924895286560059 -0.0148035604506731033 0.121942333877086639
0.430006831884384155 0.176520898938179016 0.111330509185791016
-0.472906231880187988 -0.226890236139297485 -0.0123060755431652069
0.423412203788757324 0.267870038747787476 0.168244853615760803
-0.228223398327827454 -0.440635442733764648 -0.0432629920542240143
-0.479993730783462524 0.146865978837013245 0.0715661793947219849
-0.446903437376022339 -0.359601080417633057 -0.00236217305064201355
-0.319851607084274292 -0.348600596189498901 -0.0150314830243587494
-0.0757208764553070068 0.522047102451324463 0.335895895957946777
-0.436389565467834473 0.158425763249397278 0.0958034396171569824
-0.489117562770843506 0.298891574144363403 0.158197358250617981
-0.455220669507980347 0.00560392718762159348 0.0456357449293136597
-0.371313154697418213 -0.345766514539718628 -0.00685682520270347595
-0.378878355026245117 0.353096038103103638 0.178620874881744385
-0.319378525018692017 -0.386810123920440674 0.0374396927654743195
0.435698330402374268 -0.282694816589355469 -0.194235846400260925
-0.435950160026550293 -0.23529091477394104 0.0257188044488430023
-0.351094216108322144 0.186585471034049988 0.0934956371784210205
-0.307188540697097778 -0.389046400785446167 -0.0307879075407981873
0.484149724245071411 -0.0897102653980255127 -0.209091067314147949
-0.478402853012084961 0.101565010845661163 0.126859158277511597
-0.322793066501617432 -0.0231669805943965912 0.0310481265187263489
-0.261260807514190674 0.314977675676345825 0.146480351686477661
0.551284670829772949 -0.103123530745506287 -0.256380647420883179
-0.161873877048492432 0.471268326044082642 0.155664131045341492
0.505169391632080078 -0.284393131732940674 -0.306557357311248779
0.431541532278060913 -0.173235863447189331 0.175223290920257568
0.496336817741394043 -0.0418396741151809692 -0.23480224609375
0.328778266906738281 0.366229772567749023 0.362459570169448853
0.480483442544937134 -0.222600281238555908 -0.258730441331863403
0.445048511028289795 0.399058759212493896 -0.0922198891639709473
-0.451601266860961914 0.331377863883972168 0.0804012864828109741
0.441209256649017334 -0.00336604379117488861 0.185208454728126526
-0.356046080589294434 0.237661063671112061 0.196447134017944336
-0.295227557420730591 0.368448436260223389 0.185575038194656372
0.530817866325378418 -0.00196310132741928101 -0.144474238157272339
0.46413344144821167 0.0486610457301139832 0.132605671882629395
0.585900247097015381 0.225475236773490906 -0.140107452869415283
-0.579790234565734863 -0.2262897789478302 0.270844191312789917
0.486966520547866821 -0.0280862748622894287 0.00701703689992427826
0.364028215408325195 -0.34709891676902771 -0.124218001961708069
0.253948450088500977 0.407116532325744629 0.0202389117330312729
-0.491204142570495605 -0.135920196771621704 0.0624164119362831116
-0.461585402488708496 -0.248890995979309082 0.274608701467514038
0.456157922744750977 -0.326050281524658203 -0.300975680351257324
0.32839810848236084 0.365241348743438721 -0.00581561308354139328
0.451068639755249023 -0.104666106402873993 0.192569434642791748
0.485345542430877686 -0.285124301910400391 -0.322015702724456787
0.477888345718383789 -0.367784202098846436 -0.323716312646865845
-0.415002048015594482 -0.145656436681747437 -0.0216593295335769653
0.0918132662773132324 0.385764867067337036 0.1343659907579422
-0.436030715703964233 0.160759776830673218 0.0965255200862884521
-0.397772163152694702 -0.204203709959983826 0.0192217044532299042
-0.163064584136009216 0.486319512128829956 0.156172320246696472
-0.452895224094390869 0.160726815462112427 0.202356010675430298
-0.523142814636230469 0.152105033397674561 0.359974592924118042
-0.427898049354553223 0.075867384672164917 0.063509523868560791
-0.56778031587600708 -0.0300381295382976532 0.23124067485332489
-0.442586421966552734 0.247214987874031067 0.326299965381622314
0.46902233362197876 -0.194823384284973145 -0.262326478958129883
0.443445116281509399 0.0804947763681411743 0.108817249536514282
-0.424922019243240356 -0.0838905423879623413 0.0678002536296844482
0.48414042592048645 -0.250481307506561279 -0.224888667464256287
0.298501491546630859 0.373582422733306885 0.15958714485168457
0.511016130447387695 0.377060294151306152 -0.0859933644533157349
0.524679720401763916 0.37079957127571106 -0.107987686991691589
0.279938280582427979 0.197439774870872498 0.344110786914825439
0.470714867115020752 -0.169855773448944092 0.0581765733659267426
0.582034468650817871 -0.0683192312717437744 -0.231528639793395996
-0.402091503143310547 0.307087689638137817 0.350083708763122559
-0.502713024616241455 0.119711317121982574 0.288905560970306396
0.432688027620315552 -0.38219335675239563 -0.326852083206176758
-0.536121010780334473 0.289990037679672241 0.234303846955299377
-0.502698779106140137 -0.0443261265754699707 0.213400080800056458
-0.478752255439758301 0.282649010419845581 0.331275373697280884
0.451042711734771729 -0.0274545475840568542 0.16663186252117157
-0.522008419036865234 0.355965107679367065 0.349041223526000977
0.185331523418426514 0.323877811431884766 0.109882578253746033
-0.188107609748840332 0.45585477352142334 0.148636311292648315
0.305270612239837646 -0.318186819553375244 0.124427735805511475
-0.505316555500030518 0.149588748812675476 0.34977877140045166
0.15141981840133667 0.321913719177246094 0.108667582273483276
0.529660642147064209 -0.22476997971534729 -0.279460310935974121
0.411125808954238892 0.3122825026512146 0.135689795017242432
-0.478659331798553467 -0.0187835767865180969 0.158898502588272095
-0.453184425830841064 -0.0713544189929962158 0.0823868066072463989
0.500955402851104736 -0.165769219398498535 -0.173080116510391235
-0.476589202880859375 -0.227380797266960144 0.0621901638805866241
-0.394716441631317139 0.241535738110542297 0.151982933282852173
-0.417056530714035034 -0.294016540050506592 0.146211802959442139
-0.398648083209991455 0.265574872493743896 0.199984699487686157
0.522540569305419922 0.316053628921508789 -0.10551336407661438
-0.429269939661026001 -0.379988670349121094 0.0511648058891296387
0.503433287143707275 0.381687700748443604 -0.0988604277372360229
0.556390166282653809 0.0992220938205718994 -0.152565717697143555
0.478349685668945312 -0.172498911619186401 -0.13400915265083313
-0.240794524550437927 -0.436549633741378784 -0.0497051365673542023
-0.473102569580078125 -0.183638185262680054 0.0722828209400177002
0.549259841442108154 -0.0928504616022109985 -0.235322117805480957
0.459141701459884644 -0.156859993934631348 -0.0314450673758983612
-0.524292111396789551 0.228322207927703857 0.366621673107147217
0.506602883338928223 0.0488691553473472595 -0.157235100865364075
0.486781597137451172 -0.199420705437660217 -0.278935641050338745
0.475517213344573975 -0.328095167875289917 -0.31339949369430542
0.445502758026123047 -0.170606240630149841 -0.151559561491012573
0.182004764676094055 0.30966639518737793 0.114432409405708313
-0.324299633502960205 0.435853779315948486 0.228660464286804199
0.274731576442718506 -0.400445342063903809 0.098814547061920166
-0.518772780895233154 -0.0136955361813306808 0.115111343562602997
-0.20202597975730896 0.473024219274520874 0.16990131139755249
-0.472739249467849731 -0.266495585441589355 0.0176374390721321106
-0.502538502216339111 0.218962997198104858 0.334109991788864136
-0.357254773378372192 -0.262333989143371582 -0.0238549001514911652
-0.40001755952835083 -0.255270928144454956 0.0803212597966194153
-0.381227076053619385 0.303778201341629028 0.0712191164493560791
0.385105133056640625 0.210616260766983032 0.229585722088813782
0.108290821313858032 0.466599553823471069 0.104532688856124878
-0.477421611547470093 0.0224392153322696686 0.0876095369458198547
-0.434882313013076782 -0.103161484003067017 0.0921596735715866089
-0.403458982706069946 -0.341101258993148804 0.0225563645362854004
0.490587025880813599 -0.127555429935455322 0.186476513743400574
-0.428416043519973755 0.0273531787097454071 0.0690310671925544739
-0.515212178230285645 -0.128792494535446167 0.10491645336151123
-0.456976413726806641 -0.239397183060646057 0.00168870389461517334
0.481438428163528442 -0.139518693089485168 -0.269716769456863403
-0.35729682445526123 0.329884707927703857 0.287994414567947388
0.386987268924713135 -0.325171142816543579 -0.261664211750030518
0.382442444562911987 -0.392671018838882446 -0.281197488307952881
0.507071614265441895 -0.0100699597969651222 -0.160110637545585632
-0.547874569892883301 -0.0830768495798110962 0.272768259048461914
-0.50140535831451416 0.110981844365596771 0.142276465892791748
-0.453242897987365723 0.0525347031652927399 0.113513410091400146
-0.263596594333648682 0.423678040504455566 0.210211873054504395
-0.163371473550796509 0.473943948745727539 0.152378827333450317
-0.441567003726959229 -0.153166860342025757 0.11224028468132019
0.289541929960250854 -0.395012468099594116 -0.270202279090881348
0.488170534372329712 -0.0708300843834877014 -0.254853606224060059
0.51459193229675293 0.0359926521778106689 -0.223149999976158142
0.526857733726501465 -0.0222137626260519028 -0.167370349168777466
-0.409970849752426147 -0.151290744543075562 0.0771582797169685364
0.382634133100509644 -0.218863293528556824 0.025300104171037674
0.399515539407730103 -0.282144308090209961 -0.298808187246322632
0.313240349292755127 0.384472131729125977 -0.00625459710136055946
0.424900174140930176 -0.32901531457901001 -0.291243970394134521
-0.439512819051742554 0.158373519778251648 0.0929027646780014038
-0.407897412776947021 -0.0362318605184555054 0.0524423904716968536
-0.50490272045135498 0.0293671190738677979 0.149372830986976624
-0.528168082237243652 0.173424780368804932 0.354492872953414917
-0.501585841178894043 -0.0183673389256000519 0.118171095848083496
-0.34129786491394043 -0.365816771984100342 0.026969175785779953
0.478184729814529419 0.38211899995803833 -0.0816988050937652588
0.4591330885887146 -0.322620868682861328 -0.296398431062698364
-0.38680875301361084 -0.20898321270942688 0.0207046754658222198
-0.50057065486907959 0.014736764132976532 0.165601432323455811
-0.527282953262329102 0.236987665295600891 0.368372440338134766
0.378254175186157227 -0.15187343955039978 -0.211795523762702942
0.37636217474937439 -0.306329011917114258 -0.0388008244335651398
0.387687444686889648 -0.255523622035980225 -0.00486620143055915833
0.489984333515167236 -0.0064583122730255127 0.108025945723056793
0.171926587820053101 -0.479872524738311768 -0.0879641547799110413
-0.360915124416351318 -0.388589709997177124 -0.00204386189579963684
0.483312129974365234 0.106368519365787506 0.0841158032417297363
-0.467528939247131348 -0.0796605348587036133 0.125297114253044128
0.478318840265274048 0.187252089381217957 0.0440643355250358582
-0.184969276189804077 0.384805858135223389 0.122405804693698883
0.49821886420249939 0.179649710655212402 -0.000657677650451660156
0.448287457227706909 -0.0531031191349029541 0.167315900325775146
0.356965720653533936 -0.355803728103637695 -0.112677544355392456
0.407583922147750854 0.346013337373733521 0.337769806385040283
0.535204708576202393 -0.000179847702383995056 0.00121982023119926453
0.554339110851287842 0.280969202518463135 -0.0652883574366569519
0.432333588600158691 0.251353800296783447 -0.0639975666999816895
0.291040241718292236 0.341537654399871826 0.311542510986328125
0.436853975057601929 -0.243447065353393555 -0.307886421680450439
0.412637948989868164 0.333138227462768555 0.288106799125671387
0.349938273429870605 0.372458696365356445 0.33146551251411438
-0.413687467575073242 0.143385469913482666 0.108723834156990051
-0.36517062783241272 0.213112622499465942 0.0791569799184799194
0.416008412837982178 -0.00460206624120473862 0.155351385474205017
0.357331961393356323 0.331928282976150513 0.0773216038942337036
0.467242598533630371 -0.261574476957321167 -0.263745278120040894
-0.435952633619308472 -0.0867584049701690674 0.1196012943983078
0.532609522342681885 0.258862197399139404 -0.122189439833164215
-0.355085998773574829 -0.344722270965576172 -0.0665355324745178223
0.200416430830955505 0.398332923650741577 0.339344620704650879
0.360289335250854492 0.243079528212547302 0.24249577522277832
-0.157163336873054504 0.441150426864624023 0.164644867181777954
-0.367785751819610596 0.279727131128311157 0.0959171652793884277
0.538293302059173584 0.0824619531631469727 -0.183283671736717224
-0.300918400287628174 -0.43039405345916748 -0.0425374247133731842
0.469223290681838989 -0.128240868449211121 0.186864033341407776
-0.504885733127593994 0.144111394882202148 0.23189246654510498
-0.528725743293762207 -0.120000839233398438 0.287372976541519165
0.453111439943313599 -0.0226801522076129913 0.1240730881690979
0.151241689920425415 0.260622590780258179 0.0753349587321281433
0.438156396150588989 0.0134698562324047089 0.0238153785467147827
0.512186050415039062 -0.00177221745252609253 -0.147905677556991577
0.357541441917419434 0.110116221010684967 0.108631357550621033
0.367102771997451782 0.158287525177001953 0.264859497547149658
0.455588459968566895 -0.0894936993718147278 0.0294327065348625183
0.46217009425163269 0.17643854022026062 0.0398072227835655212
0.46581616997718811 -0.221760720014572144 -0.20302167534828186
0.446479380130767822 0.00951352901756763458 0.164226129651069641
0.518921375274658203 -0.0287046004086732864 -0.0422223173081874847
0.474336445331573486 0.356806457042694092 0.000663656741380691528
0.398692220449447632 0.381196409463882446 -0.0723884254693984985
0.391678899526596069 0.280974239110946655 0.268158644437789917
0.433255910873413086 -0.202189639210700989 -0.254715532064437866
-0.416916221380233765 0.221213296055793762 0.167139843106269836
0.503931283950805664 -0.152452737092971802 -0.190275013446807861
-0.404845535755157471 0.0261399727314710617 0.108932442963123322
0.510384678840637207 0.181624576449394226 -0.103868886828422546
-0.454219281673431396 0.157767444849014282 0.117317758500576019
-0.547657966613769531 0.113344877958297729 0.277614951133728027
-0.0927134603261947632 0.521066725254058838 0.149036362767219543
0.414803385734558105 0.0356303155422210693 0.214608028531074524
-0.368335604667663574 0.331310540437698364 0.250942021608352661
-0.560501992702484131 -0.0781714320182800293 0.305545598268508911
-0.577531039714813232 -0.169635847210884094 0.270417541265487671
-0.400511771440505981 -0.260947316884994507 0.0831276923418045044
-0.454000085592269897 -0.328694522380828857 0.0504436641931533813
0.255631625652313232 0.543687760829925537 0.0488142147660255432
-0.456212431192398071 0.00888993777334690094 0.0731631964445114136
-0.360032826662063599 -0.388139218091964722 -0.0624878779053688049
-0.47615814208984375 -0.222153514623641968 0.0412010215222835541
0.311324894428253174 -0.234012886881828308 -0.245664507150650024
-0.367402464151382446 -0.354623496532440186 -0.115241140127182007
0.513616025447845459 -0.0260093919932842255 -0.151049479842185974
-0.493717491626739502 0.106007188558578491 0.139157116413116455
0.525851309299468994 -0.106062814593315125 -0.260507464408874512
0.455317586660385132 -0.247223407030105591 -0.257573574781417847
-0.260513752698898315 -0.420241266489028931 -0.0541346929967403412
-0.424086600542068481 -0.165112018585205078 0.13419361412525177
0.523228943347930908 -0.0444521009922027588 -0.153047412633895874
0.491691350936889648 -0.0709741860628128052 -0.250525087118148804
-0.505433082580566406 0.0579934045672416687 0.269593954086303711
0.545447945594787598 0.0744824334979057312 -0.169000118970870972
0.478735804557800293 0.382583111524581909 -0.0796554908156394958
0.272575348615646362 -0.407003939151763916 -0.100263923406600952
0.507424592971801758 -0.0170698594301939011 -0.164741694927215576
-0.409679383039474487 -0.152279019355773926 0.0743781402707099915
-0.326921045780181885 -0.40949249267578125 -0.0761612951755523682
-0.492684066295623779 -0.268823683261871338 0.0373151451349258423
0.241383448243141174 0.521845400333404541 0.0380781404674053192
0.465282589197158813 0.36983838677406311 -0.0824561342597007751
0.457173079252243042 -0.356980264186859131 -0.327938616275787354
0.233421400189399719 0.497591882944107056 0.0674564838409423828
-0.159660249948501587 0.466101348400115967 0.148844331502914429
-0.525958418846130371 0.167993351817131042 0.358148008584976196
-0.434080362319946289 -0.340731799602508545 -0.0111138559877872467
-0.327833354473114014 -0.33744513988494873 0.000887408852577209473
-0.473734050989151001 -0.223968431353569031 0.0758318156003952026
-0.399919062852859497 -0.225830912590026855 0.0616899803280830383
0.510147571563720703 -0.283155173063278198 -0.304045766592025757
0.385668337345123291 -0.281134247779846191 -0.299121379852294922
0.450609475374221802 -0.243928983807563782 -0.314542055130004883
0.395898699760437012 0.261893332004547119 0.243770614266395569
-0.381240814924240112 0.106936708092689514 0.103098019957542419
0.417026728391647339 0.381916314363479614 -0.00611854903399944305
-0.504626095294952393 -0.102491579949855804 0.108037978410720825
0.457092583179473877 0.159931004047393799 0.0645273551344871521
-0.50547105073928833 -0.171564966440200806 0.0922314971685409546
-0.503492236137390137 -0.215136200189590454 0.105564266443252563
-0.540251076221466064 -0.0430353432893753052 0.216335594654083252
-0.494114130735397339 0.0921136364340782166 0.200238674879074097
0.485038459300994873 -0.211390882730484009 -0.276571303606033325
0.517959237098693848 0.0212873220443725586 -0.214895486831665039
-0.34907001256942749 0.342958509922027588 0.191213160753250122
-0.552517056465148926 -0.235053941607475281 0.22667461633682251
-0.511613547801971436 -0.0528170391917228699 0.195469558238983154
0.299902379512786865 0.486110776662826538 0.0245839506387710571
0.467551827430725098 -0.309718340635299683 -0.334583312273025513
0.392982929944992065 -0.370377451181411743 -0.312604069709777832
-0.544563472270965576 0.22133338451385498 0.31661522388458252
-0.348342090845108032 -0.380156368017196655 -0.0113912448287010193
0.274583816528320312 -0.401118814945220947 -0.192053318023681641
0.383476614952087402 -0.197498291730880737 -0.00227232091128826141
0.195037424564361572 0.369771242141723633 0.287332415580749512
-0.532944798469543457 -0.0561850406229496002 0.167751625180244446
0.481055766344070435 0.0747134461998939514 -0.0844784975051879883
-0.247180402278900146 -0.458971530199050903 -0.076640598475933075
0.407499372959136963 0.42149469256401062 -0.0872800573706626892
-0.325696766376495361 -0.368781745433807373 -0.0334257632493972778
-0.459818571805953979 -0.35334429144859314 -0.0218942910432815552
-0.235231637954711914 0.431412667036056519 0.210555225610733032
0.384166687726974487 -0.355162203311920166 -0.122579857707023621
-0.497355669736862183 0.12186925858259201 0.328775465488433838
-0.492232859134674072 0.253933250904083252 0.336329102516174316
0.348435580730438232 0.240668386220932007 0.284463167190551758
0.0755333900451660156 0.492711484432220459 0.321863114833831787
0.29921722412109375 0.28792223334312439 0.359046459197998047
0.428735285997390747 0.350544661283493042 -0.0603059865534305573
0.410197675228118896 0.0505969226360321045 0.0892852246761322021
-0.532827913761138916 -0.0638786554336547852 0.129818260669708252
-0.46652790904045105 -0.232651978731155396 0.07355499267578125
-0.476998567581176758 -0.0549424290657043457 0.161939471960067749
-0.46279531717300415 0.358113080263137817 0.37197422981262207
-0.537231206893920898 0.0373230800032615662 0.313205540180206299
0.533194780349731445 -0.171248480677604675 -0.222273692488670349
-0.446846812963485718 0.16026604175567627 0.240812554955482483
-0.435542047023773193 0.151128828525543213 0.183456718921661377
0.422682404518127441 -0.293040752410888672 -0.312709391117095947
0.460659712553024292 -0.347082227468490601 -0.326649129390716553
-0.398602515459060669 -0.17914620041847229 0.0673483684659004211
-0.211357951164245605 0.426188498735427856 0.174753054976463318
-0.319409549236297607 -0.37580379843711853 0.0198507457971572876
0.360550820827484131 -0.342794090509414673 -0.107332035899162292
0.510265111923217773 0.0109231825917959213 0.00332763791084289551
0.100338444113731384 0.387653917074203491 0.132939249277114868
-0.142700940370559692 0.569611132144927979 0.34417647123336792
0.47536739706993103 0.0675391927361488342 0.0639404729008674622
-0.295830905437469482 -0.428392320871353149 -0.0576771162450313568
0.50968855619430542 0.346117287874221802 -0.0731269717216491699
-0.445408552885055542 -0.344420582056045532 -0.058007456362247467
-0.243871942162513733 0.415146350860595703 0.175967603921890259
0.372969537973403931 -0.337036550045013428 -0.0756507664918899536
0.408293217420578003 0.172210156917572021 0.246252983808517456
-0.527038156986236572 0.0504785813391208649 0.316371262073516846
0.384871155023574829 0.346891105175018311 0.311644077301025391
-0.521095871925354004 -0.021676916629076004 0.117701955139636993
-0.190571457147598267 0.458782970905303955 0.162895739078521729
0.502587854862213135 0.370132207870483398 -0.086482219398021698
-0.353082627058029175 -0.0844911783933639526 0.0452007278800010681
-0.394474923610687256 -0.247097387909889221 0.0667321458458900452
-0.217498153448104858 0.412347227334976196 0.159187391400337219
-0.440067768096923828 -0.0916843786835670471 0.0609414838254451752
0.344037324190139771 0.0851062089204788208 0.26449158787727356
-0.480667769908905029 -0.155673116445541382 0.0753106474876403809
-0.501065254211425781 -0.0645321458578109741 0.225206702947616577
-0.502588510513305664 0.0263589806854724884 0.121402695775032043
0.385979115962982178 -0.314284861087799072 -0.046543266624212265
0.407852858304977417 -0.328222811222076416 -0.168468520045280457
-0.467766642570495605 0.00958997290581464767 0.0833617150783538818
-0.38915550708770752 -0.348484426736831665 -0.00798511877655982971
-0.286290377378463745 0.465479940176010132 0.183389335870742798
-0.475998580455780029 -0.289489626884460449 0.0213445946574211121
-0.494391381740570068 -0.220962062478065491 0.0368839241564273834
-0.454494953155517578 0.213595375418663025 0.280717790126800537
-0.405209600925445557 0.363884508609771729 0.107236728072166443
0.512502431869506836 0.00660731084644794464 -0.243230313062667847
-0.443014264106750488 0.0802077129483222961 0.0821903049945831299
0.404131144285202026 0.252505987882614136 -0.125570893287658691
-0.357007026672363281 0.322179347276687622 0.276375353336334229
0.471557319164276123 0.116572357714176178 -0.235029608011245728
0.42300531268119812 -0.286914944648742676 -0.266283690929412842
-0.537528634071350098 -0.0820555388927459717 0.270990163087844849
-0.27902868390083313 0.367384999990463257 0.248523280024528503
-0.375213891267776489 0.336744993925094604 0.130219817161560059
-0.495825380086898804 0.102391704916954041 0.141788244247436523
-0.433902561664581299 -0.345682919025421143 0.00456965342164039612
0.400686562061309814 -0.377892434597015381 -0.299266606569290161
-0.371633440256118774 -0.293526649475097656 -0.0301356632262468338
-0.515527188777923584 0.311254620552062988 0.370200663805007935
0.442435294389724731 0.369205594062805176 -0.100727707147598267
0.528624594211578369 0.309050619602203369 -0.117541387677192688
0.48934638500213623 -0.276299446821212769 -0.295355170965194702
0.465307652950286865 -0.0353105142712593079 -0.154601201415061951
0.472336530685424805 0.400643914937973022 -0.0853619277477264404
-0.295132905244827271 0.383020222187042236 0.183209463953971863
0.22338944673538208 0.532158970832824707 0.090352959930896759
0.438462376594543457 -0.149894729256629944 -0.0699335411190986633
-0.364653170108795166 -0.357012718915939331 -0.0546411685645580292
0.534330666065216064 -0.0064135286957025528 -0.148502737283706665
0.454735815525054932 -0.145508229732513428 -0.251358062028884888
0.375401973724365234 -0.37373468279838562 -0.315990626811981201
-0.487925559282302856 -0.107924357056617737 0.134685873985290527
-0.388183474540710449 -0.375657707452774048 0.18318060040473938
0.251520544290542603 0.517058193683624268 0.0341720543801784515
0.499413251876831055 -0.180439993739128113 -0.197677642107009888
0.315199881792068481 0.377154767513275146 -0.00692849280312657356
0.442610979080200195 -0.233951792120933533 -0.27286994457244873
-0.513278722763061523 0.0176421757787466049 0.236241728067398071
0.239340871572494507 0.49763798713684082 0.0717374905943870544
0.273917734622955322 0.350744009017944336 0.240354299545288086
-0.525918781757354736 0.160756096243858337 0.354190349578857422
-0.0788731426000595093 0.505658745765686035 0.343409329652786255
-0.479684680700302124 0.0973621904850006104 0.121299147605895996
0.47094079852104187 -0.216478481888771057 -0.149856686592102051
-0.12069740891456604 0.414796203374862671 0.136123701930046082
0.477155387401580811 -0.236832201480865479 -0.20003056526184082
-0.326199233531951904 -0.385541290044784546 0.0339038558304309845
-0.512649953365325928 0.0720013976097106934 0.271697491407394409
0.474057286977767944 -0.365635901689529419 -0.316847801208496094
-0.508629560470581055 0.365768373012542725 0.365694344043731689
-0.34504777193069458 -0.380394876003265381 -0.0073124319314956665
-0.50723874568939209 0.246049270033836365 0.326178193092346191
-0.451245486736297607 -0.236944705247879028 0.0870989784598350525
-0.464000046253204346 0.231182694435119629 0.257353633642196655
-0.318836987018585205 -0.374636471271514893 0.0184254050254821777
-0.142836451530456543 0.57326805591583252 0.332244277000427246
0.354427695274353027 -0.324971944093704224 -0.0682453960180282593
0.41034543514251709 0.392908424139022827 0.0409285351634025574
-0.468726456165313721 -0.220707625150680542 -0.00455512665212154388
-0.426115214824676514 0.169405177235603333 0.207949221134185791
0.425891220569610596 -0.212171569466590881 -0.226022914052009583
0.204463779926300049 0.466759145259857178 0.233090847730636597
-0.519479513168334961 -0.0385698229074478149 0.290685832500457764
0.393850207328796387 -0.261961996555328369 0.108661428093910217
-0.486325323581695557 -0.0134560298174619675 0.139008492231369019
-0.33654668927192688 0.299955278635025024 0.115047246217727661
0.495454490184783936 0.0319202840328216553 -0.0128503795713186264
-0.354437023401260376 -0.365193456411361694 0.0690803155303001404
0.452679365873336792 0.0273869931697845459 0.024936385452747345
-0.515503108501434326 -0.118551827967166901 -0.00727464444935321808
-0.180099338293075562 0.392095714807510376 0.139857590198516846
-0.556995630264282227 0.0519844815135002136 0.309228003025054932
0.406586706638336182 0.22887904942035675 0.269209176301956177
0.465371519327163696 -0.000968882814049720764 0.138127326965332031
0.390470504760742188 -0.299031227827072144 -0.184721708297729492
-0.352884590625762939 0.355999261140823364 0.248990342020988464
-0.475173801183700562 -0.259721189737319946 0.0799497291445732117
-0.456316769123077393 -0.185341089963912964 0.0814372748136520386
0.172256603837013245 -0.396669685840606689 0.197453781962394714
0.399057567119598389 -0.291246086359024048 -0.0720778554677963257
-0.534150421619415283 0.178511694073677063 0.349062323570251465
-0.494857639074325562 0.0149705056101083755 0.176581546664237976
-0.532586395740509033 0.0133838439360260963 0.287198334932327271
-0.496932893991470337 0.104910373687744141 0.23403535783290863
-0.478923678398132324 -0.2019854336977005 0.0095215924084186554
-0.515372693538665771 -0.014354572631418705 0.172714978456497192
0.416856944561004639 -0.242634087800979614 0.167319580912590027
-0.188693761825561523 0.451101005077362061 0.142308339476585388
0.39203217625617981 -0.269694894552230835 -0.296930849552154541
0.470682829618453979 0.102266743779182434 0.0688720569014549255
-0.440868020057678223 0.0492615401744842529 0.16027107834815979
-0.385512679815292358 -0.107076935470104218 0.0313463732600212097
-0.151298984885215759 0.464827775955200195 0.126887142658233643
-0.526613414287567139 0.190438300371170044 0.351156413555145264
0.451850414276123047 0.137068837881088257 0.149294018745422363
0.483269751071929932 0.0912999063730239868 0.0177044365555047989
0.318765431642532349 0.369256317615509033 0.0974603816866874695
-0.459519863128662109 -0.220418006181716919 -0.00313065387308597565
-0.416964352130889893 0.164291501045227051 0.198574811220169067
0.310603022575378418 0.383005201816558838 0.195139944553375244
-0.443793535232543945 0.0241663325577974319 0.119681000709533691
0.481661021709442139 0.205794632434844971 0.0285097341984510422
0.442027658224105835 0.0558910258114337921 -0.181293904781341553
0.460234582424163818 0.045961335301399231 0.0203423276543617249
-0.435112297534942627 -0.0821650177240371704 0.0449272990226745605
0.423776149749755859 0.395813435316085815 0.0257193241268396378
0.214502483606338501 -0.41029772162437439 -0.244386389851570129
0.447380185127258301 -0.26790088415145874 -0.130861759185791016
-0.0815268605947494507 0.47219550609588623 0.158763185143470764
-0.542066872119903564 0.13505178689956665 0.320057451725006104
-0.30280032753944397 0.310710430145263672 0.116198077797889709
-0.503321230411529541 -0.0264672040939331055 0.334205597639083862
0.390851259231567383 0.262369066476821899 0.269464403390884399
-0.479450643062591553 0.315835297107696533 0.270095139741897583
0.397080659866333008 -0.315360665321350098 -0.245801091194152832
-0.369930744171142578 0.373212844133377075 0.239610776305198669
-0.485074162483215332 0.208475455641746521 0.331929445266723633
-0.460470855236053467 -0.235409140586853027 0.0955303311347961426
0.507857680320739746 0.326278239488601685 -0.106345824897289276
-0.463258981704711914 -0.160901486873626709 0.0691208168864250183
0.275793880224227905 -0.352987766265869141 0.0104568544775247574
-0.275701403617858887 -0.407255232334136963 -0.0370167605578899384
0.38133847713470459 -0.328405380249023438 -0.11866992712020874
-0.346058249473571777 -0.158060833811759949 0.0212323740124702454
-0.0855383947491645813 0.441475987434387207 0.15000152587890625
-0.549229681491851807 0.180889502167701721 0.357268631458282471
-0.453747421503067017 -0.272150158882141113 -0.0342552885413169861
-0.337838649749755859 -0.154573768377304077 0.0425465218722820282
0.0422265008091926575 0.555693686008453369 0.139962479472160339
-0.163511976599693298 0.477981686592102051 0.124690189957618713
0.37241828441619873 -0.381393998861312866 -0.3010367751121521
0.463063716888427734 0.0855454802513122559 0.0605358853936195374
-0.448270112276077271 0.0417482182383537292 0.0937054827809333801
-0.16276136040687561 0.48305213451385498 0.137869805097579956
-0.53487551212310791 0.219599395990371704 0.336262106895446777
-0.547411024570465088 0.272971212863922119 0.334851711988449097
0.474280864000320435 0.0828131586313247681 0.0835544317960739136
-0.192848533391952515 0.452199846506118774 0.163765028119087219
-0.212367013096809387 0.405011415481567383 0.161781087517738342
-0.480442017316818237 0.00325039331801235676 0.0857318565249443054
0.520536422729492188 0.00266990996897220612 -0.249488919973373413
-0.34594428539276123 0.319897502660751343 0.284148812294006348
-0.496104389429092407 0.111567631363868713 0.145633876323699951
-0.165072336792945862 0.473184585571289062 0.142178386449813843
0.403627991676330566 -0.344313055276870728 -0.305009335279464722
0.534871339797973633 -0.26982492208480835 -0.283126324415206909
0.475301086902618408 -0.168980658054351807 -0.28696325421333313
-0.541852772235870361 0.0672541484236717224 0.284370929002761841
0.0323852673172950745 0.573158979415893555 0.151349335908889771
0.149332940578460693 -0.566820323467254639 -0.0935925915837287903
0.501182019710540771 0.00137886591255664825 -0.162930965423583984
0.511782288551330566 -0.191824778914451599 -0.272638976573944092
0.299045205116271973 0.50294262170791626 0.0615391097962856293
-0.481871277093887329 -0.277428627014160156 0.0564464814960956573
0.448421716690063477 -0.272652566432952881 -0.208055898547172546
-0.420593142509460449 0.382597267627716064 0.360973536968231201
0.451348364353179932 -0.242532476782798767 -0.276769697666168213
0.447573274374008179 -0.221220448613166809 -0.271719992160797119
-0.452005147933959961 -0.235224604606628418 0.0863969475030899048
0.435934543609619141 0.387346357107162476 0.0825238153338432312
-0.514211416244506836 0.262999594211578369 0.352564424276351929
0.433292537927627563 0.37301027774810791 0.0385227501392364502
0.0878199785947799683 0.569736957550048828 0.179593801498413086
0.150770649313926697 -0.497555255889892578 -0.0654447227716445923
-0.54821467399597168 0.309169530868530273 0.37315717339515686
0.363402247428894043 0.247907638549804688 0.0977940559387207031
-0.471138745546340942 0.311513751745223999 0.352184176445007324
0.44361191987991333 0.298722296953201294 0.0536119528114795685
0.14239385724067688 0.497233986854553223 0.264445096254348755
0.252240538597106934 0.469381928443908691 0.18694053590297699
0.289573907852172852 0.331759333610534668 0.141181260347366333
-0.537602663040161133 0.285104483366012573 0.372805476188659668
0.420404344797134399 -0.250223666429519653 0.00796155259013175964
-0.469318866729736328 0.327980637550354004 0.324897140264511108
-0.467727541923522949 0.358702301979064941 0.353646010160446167
0.547022879123687744 0.00479846633970737457 -0.218640759587287903
-0.343634665012359619 -0.384514123201370239 0.0459111481904983521
0.532692909240722656 0.249985843896865845 -0.126241326332092285
-0.520574212074279785 -0.0624673739075660706 0.225173696875572205
0.502465546131134033 -0.00207154825329780579 -0.25788193941116333
-0.487267494201660156 0.148462310433387756 0.186656415462493896
0.405400663614273071 0.259643822908401489 -0.122170686721801758
0.425501167774200439 -0.292463600635528564 -0.269984036684036255
0.398842066526412964 0.28097456693649292 0.325236707925796509
0.529571712017059326 -0.105059869587421417 -0.263524323701858521
0.454768866300582886 -0.270743042230606079 -0.280192136764526367
-0.525697588920593262 0.196776032447814941 0.338168948888778687
0.583547592163085938 0.138150379061698914 -0.14540216326713562
0.531148672103881836 0.309348642826080322 -0.114777304232120514
0.520339906215667725 0.0654906481504440308 -0.221583008766174316
-0.518597900867462158 0.0626820698380470276 0.267330706119537354
0.544023990631103516 -0.0544024594128131866 -0.232913970947265625
0.423018276691436768 0.0206138715147972107 0.221964314579963684
-0.5243796706199646 -0.10294380784034729 -0.0422017648816108704
0.514227509498596191 -0.0195781569927930832 -0.162182211875915527
0.451372802257537842 -0.324338853359222412 -0.288243561983108521
-0.421286404132843018 0.381208896636962891 0.359876722097396851
-0.527604877948760986 0.146788120269775391 0.352007597684860229
0.481787174940109253 -0.282539278268814087 -0.319911986589431763
0.499957442283630371 -0.361435890197753906 -0.307943135499954224
0.529878556728363037 -0.0967755094170570374 -0.25899919867515564
0.474586546421051025 -0.3657551109790802 -0.317046135663986206
0.51163405179977417 -0.190008580684661865 -0.276457726955413818
-0.573158740997314453 -0.0166391581296920776 0.139468997716903687
0.570762932300567627 0.340446770191192627 -0.113894939422607422
0.481164991855621338 -0.285154879093170166 -0.299258530139923096
0.506576359272003174 0.00129941292107105255 -0.24716302752494812
-0.427957445383071899 0.298303395509719849 0.335166007280349731
0.498019814491271973 -0.112510994076728821 -0.283260256052017212
0.452005326747894287 -0.207453489303588867 -0.27994227409362793
0.45895954966545105 0.168123155832290649 0.0254321340471506119
0.474009096622467041 -0.101668111979961395 -0.253331959247589111
0.327260255813598633 -0.0821044445037841797 0.253753095865249634
0.525212109088897705 0.329355239868164062 -0.085325978696346283
0.470840185880661011 -0.2696971595287323 -0.299881190061569214
0.480730056762695312 -0.00116502866148948669 -0.241257250308990479
0.429583549499511719 -0.29604804515838623 -0.297303736209869385
0.363512516021728516 0.393426895141601562 0.0553190931677818298
-0.512238144874572754 -0.0721604675054550171 0.222597181797027588
-0.376235663890838623 0.361158072948455811 0.181758105754852295
0.389570742845535278 -0.345254212617874146 -0.307632863521575928
-0.536533474922180176 0.023347826674580574 0.231860220432281494
0.473597437143325806 -0.283498764038085938 -0.324115008115768433
0.478443801403045654 -0.361811220645904541 -0.316460490226745605
0.429233014583587646 0.1205001100897789 0.068297162652015686
0.39905199408531189 0.331117630004882812 0.0778706371784210205
0.282243013381958008 0.417608082294464111 0.151237815618515015
-0.327072262763977051 -0.399721503257751465 0.0647664070129394531
0.371956467628479004 0.401687264442443848 0.162787720561027527
0.445815950632095337 0.253828197717666626 0.0944515243172645569
-0.463424503803253174 0.290916502475738525 0.131595343351364136
0.385068714618682861 -0.320613771677017212 -0.254206299781799316
0.45672529935836792 0.163876175880432129 0.0593130216002464294
0.471444487571716309 0.115263402462005615 0.0655346661806106567
0.171245604753494263 0.427081465721130371 0.122471868991851807
-0.41083189845085144 -0.37981298565864563 0.088937610387802124
0.416337430477142334 0.402864575386047363 0.0501411110162734985
-0.453825384378433228 -0.0748255103826522827 0.00375000014901161194
-0.423814296722412109 0.328420013189315796 0.0543645620346069336
0.45377272367477417 -0.286196410655975342 -0.215723007917404175
-0.58175969123840332 -0.220943599939346313 0.281450390815734863
-0.280662000179290771 -0.400659799575805664 -0.0543564930558204651
-0.429798483848571777 0.208918362855911255 0.0792746245861053467
-0.47447553277015686 0.145407095551490784 0.077924676239490509
-0.462346673011779785 -0.30850633978843689 -0.147418960928916931
-0.528354048728942871 -0.199966296553611755 0.116247132420539856
0.366635620594024658 0.446014702320098877 -0.0547714009881019592
-0.54024958610534668 -0.0182426758110523224 0.291678518056869507
-0.437224924564361572 -0.236278295516967773 0.0052271038293838501
-0.496140062808990479 -0.0107814772054553032 0.162719249725341797
0.401479840278625488 0.248130291700363159 -0.12607768177986145
0.360322028398513794 -0.221181541681289673 -0.259971320629119873
-0.424642950296401978 0.101811856031417847 0.0269059911370277405
0.48300585150718689 -0.0900678485631942749 -0.211671799421310425
-0.413262784481048584 -0.349554687738418579 -0.00349844247102737427
0.394090354442596436 -0.290141820907592773 -0.305793672800064087
-0.314481347799301147 -0.408691674470901489 -0.0701541081070899963
-0.521472930908203125 0.204885542392730713 0.317355334758758545
0.0667154714465141296 0.4024067223072052 0.100171178579330444
0.415600299835205078 0.377386093139648438 0.102131888270378113
0.164396792650222778 -0.408250570297241211 -0.244544833898544312
0.505138397216796875 0.3507557213306427 -0.114224836230278015
0.269320011138916016 0.407289505004882812 -0.0260247662663459778
-0.396669089794158936 0.318497836589813232 0.0996015071868896484
-0.498696833848953247 -0.0875208154320716858 0.173025712370872498
0.37550780177116394 -0.35857689380645752 -0.262006521224975586
-0.503518223762512207 -0.123378708958625793 0.077715747058391571
0.462224900722503662 -0.326564043760299683 -0.286854147911071777
-0.507007300853729248 -0.0615898258984088898 0.182995408773422241
-0.297442972660064697 -0.395826935768127441 0.0507984012365341187
-0.595115184783935547 -0.226982653141021729 0.253307849168777466
0.528626203536987305 -0.224726602435112 -0.278284668922424316
0.414134770631790161 -0.325156509876251221 -0.170110300183296204
0.456890761852264404 -0.272232741117477417 -0.282688140869140625
-0.516884863376617432 0.20546017587184906 0.311862438917160034
0.421564996242523193 0.393889367580413818 0.0464843176305294037
0.543935120105743408 0.165752395987510681 -0.141410410404205322
-0.485090017318725586 -0.215264841914176941 0.269017785787582397
-0.574854135513305664 -0.212435111403465271 0.257214248180389404
-0.449700653553009033 -0.315508395433425903 0.138613969087600708
-0.533635735511779785 0.153793424367904663 0.3305511474609375
0.383966445922851562 0.390941023826599121 0.0290002413094043732
-0.276445180177688599 -0.429652154445648193 -0.0659569799900054932
0.423372119665145874 -0.263549149036407471 -0.240271106362342834
0.490734696388244629 -0.0327885225415229797 0.0400880463421344757
0.40948525071144104 0.247983247041702271 0.106772221624851227
-0.4876556396484375 0.0147964898496866226 0.110151380300521851
0.321255594491958618 0.382658064365386963 0.195783346891403198
0.394245296716690063 -0.346345961093902588 -0.189059332013130188
0.388405770063400269 0.422222495079040527 -0.0612642019987106323
-0.401187390089035034 -0.37250027060508728 0.259009897708892822
-0.414225280284881592 -0.274781793355941772 0.0758654624223709106
-0.41067194938659668 -0.3760184645652771 0.010382041335105896
-0.414742738008499146 0.200192093849182129 0.141188070178031921
-0.317811250686645508 0.366675078868865967 0.280550539493560791
0.406808018684387207 -0.289636522531509399 -0.14364740252494812
0.47925904393196106 -0.167066127061843872 -0.174264177680015564
0.290111064910888672 0.371188342571258545 0.124553345143795013
-0.490683883428573608 0.303000807762145996 0.369667589664459229
0.303136080503463745 0.515239715576171875 0.156113922595977783
0.477673530578613281 -0.270263075828552246 -0.292438417673110962
0.423711538314819336 -0.0070686042308807373 0.163599848747253418
-0.435306459665298462 0.00666566751897335052 0.147270604968070984
0.401490241289138794 -0.338750660419464111 -0.0584015883505344391
0.220432788133621216 0.269933402538299561 0.336579293012619019
-0.523930549621582031 -0.0968711450695991516 0.113979794085025787
0.0640477687120437622 0.50051724910736084 0.113720089197158813
0.417869329452514648 -0.185703352093696594 0.136318236589431763
0.423346966505050659 -0.133147493004798889 0.0672676339745521545
0.233779981732368469 -0.408055126667022705 0.148843050003051758
-0.367485255002975464 0.32574889063835144 0.141590625047683716
-0.337359338998794556 -0.372734814882278442 0.0552861914038658142
-0.445256471633911133 -0.292015612125396729 -0.0410175882279872894
0.327022254467010498 0.398664712905883789 0.142531305551528931
0.411547213792800903 -0.237939417362213135 0.207312941551208496
-0.308635562658309937 -0.41344180703163147 -0.0278686098754405975
0.448478847742080688 -0.236425593495368958 -0.252027839422225952
-0.408731341361999512 0.298680782318115234 0.102921567857265472
-0.420953243970870972 0.0686112791299819946 0.105790473520755768
0.417808085680007935 -0.296363621950149536 -0.313232868909835815
0.360880285501480103 0.38909149169921875 0.199736163020133972
0.212172016501426697 0.385428875684738159 0.392129302024841309
0.526935219764709473 0.338775187730789185 -0.12386341392993927
-0.181067690253257751 0.450770437717437744 0.159683346748352051
-0.393958896398544312 -0.280550658702850342 0.034652218222618103
-0.470550298690795898 -0.328125149011611938 0.00741939526051282883
0.39776882529258728 -0.0902750790119171143 0.0491634905338287354
-0.401720494031906128 0.286623448133468628 0.162453442811965942
-0.308922767639160156 0.355943590402603149 0.242741167545318604
0.282264798879623413 0.20337212085723877 0.169697612524032593
-0.431571841239929199 0.317072033882141113 0.324758291244506836
0.416467577219009399 -0.133311823010444641 -0.122075304388999939
0.362881898880004883 -0.251252144575119019 -0.0810750424861907959
0.0737074539065361023 0.425386667251586914 0.0899399742484092712
-0.468806982040405273 0.299603670835494995 0.370184212923049927
-0.1974496990442276 0.433363139629364014 0.153599128127098083
0.429157018661499023 -0.214314088225364685 -0.176929950714111328
0.409289032220840454 0.0568012595176696777 0.151415124535560608
0.17604944109916687 0.400256365537643433 0.0806089118123054504
0.43277248740196228 -0.303875744342803955 -0.126766085624694824
0.291280448436737061 0.443865835666656494 0.319751322269439697
0.449501395225524902 0.0473843365907669067 0.101804405450820923
0.286263078451156616 0.368925005197525024 0.371798187494277954
-0.482852637767791748 -0.230094462633132935 -0.00400592107325792313
-0.41071617603302002 0.320322901010513306 0.298813134431838989
-0.422951728105545044 -0.306827425956726074 -0.126082256436347961
-0.49118882417678833 -0.165021225810050964 0.0693437904119491577
0.385829567909240723 -0.257338881492614746 -0.0364127010107040405
-0.441904127597808838 -0.224725395441055298 0.0346877053380012512
-0.451989442110061646 -0.259068191051483154 0.0518624596297740936
-0.288040071725845337 -0.358188629150390625 -0.00659407675266265869
0.478022247552871704 -0.222245782613754272 -0.269085288047790527
