ply
format ascii 1.0
element vertex 740
property float x
property float y
property float z
end_header
-0.354742914438247681 -0.255669713020324707 0.138082459568977356
0.391099870204925537 0.109927535057067871 -0.205201730132102966
0.307718932628631592 0.284815549850463867 0.0455923564732074738
-0.242746159434318542 -0.234457805752754211 0.322705745697021484
0.218740001320838928 0.064319908618927002 -0.121832817792892456
0.291600584983825684 0.0543186068534851074 -0.171707838773727417
-0.426448822021484375 -0.242547065019607544 0.35879981517791748
-0.287086516618728638 0.30709373950958252 0.191348880529403687
-0.452356100082397461 -0.119091406464576721 0.235824868083000183
0.410733729600906372 0.257503718137741089 -0.221447557210922241
0.370883345603942871 0.01782950758934021 -0.215174928307533264
0.347618937492370605 -0.165828809142112732 -0.281569540500640869
0.390034377574920654 0.0838720798492431641 -0.231326833367347717
0.327589482069015503 -0.186213269829750061 -0.290665656328201294
-0.341948509216308594 -0.217849865555763245 0.20309525728225708
-0.164433851838111877 0.348496586084365845 0.251728594303131104
-0.291252493858337402 0.257831454277038574 0.193614333868026733
0.0239591822028160095 0.40378183126449585 0.221639454364776611
-0.410917580127716064 -0.244161009788513184 0.34943234920501709
-0.31487882137298584 -0.212575092911720276 0.0991258397698402405
0.274765729904174805 0.0523618161678314209 0.219109788537025452
0.37409442663192749 0.075578838586807251 -0.207688957452774048
0.265385985374450684 -0.0416515320539474487 0.221861451864242554
0.256659984588623047 -0.213332340121269226 -0.0046411566436290741
0.284339666366577148 -0.100228212773799896 -0.313963264226913452
-0.251632750034332275 -0.333313494920730591 0.0899947434663772583
-0.420057833194732666 0.129683941602706909 0.377993583679199219
-0.294504702091217041 0.286704063415527344 0.286409467458724976
-0.405596345663070679 0.108591832220554352 0.295475393533706665
0.129723995923995972 -0.164756745100021362 -0.204526782035827637
0.125821128487586975 0.144737660884857178 -0.0289991535246372223
-0.337024152278900146 -0.258115202188491821 0.104969844222068787
0.28691554069519043 -0.022288590669631958 0.216971144080162048
-0.408564478158950806 0.154719531536102295 0.293851852416992188
-0.33174172043800354 0.252420395612716675 0.338264316320419312
-0.317200243473052979 0.254181623458862305 0.266846925020217896
0.267968595027923584 0.00196743011474609375 -0.214004486799240112
-0.420991063117980957 -0.139608368277549744 0.204815313220024109
-0.433403134346008301 0.251886516809463501 0.421646207571029663
-0.406697094440460205 -0.187406331300735474 0.144293218851089478
0.248172715306282043 -0.291390299797058105 -0.160149410367012024
-0.34247279167175293 -0.230724632740020752 0.118278622627258301
0.304972708225250244 -0.261931836605072021 -0.294594645500183105
-0.145516395568847656 -0.314847886562347412 0.069911465048789978
0.341187655925750732 -0.264195859432220459 -0.336352646350860596
0.350926637649536133 -0.181925579905509949 -0.294761180877685547
0.308103561401367188 0.0943331718444824219 -0.186638355255126953
0.293739944696426392 -0.282686471939086914 -0.353416293859481812
0.350265681743621826 -0.065883338451385498 -0.275968849658966064
0.367508471012115479 -0.00753067061305046082 -0.283887714147567749
0.358672976493835449 -0.0988767817616462708 -0.282890796661376953
0.226378962397575378 0.0593580305576324463 -0.123725570738315582
0.361523419618606567 0.144303992390632629 -0.234309494495391846
-0.333713024854660034 0.207323729991912842 0.418324917554855347
-0.339342296123504639 -0.17519773542881012 0.161651641130447388
-0.268319547176361084 0.335249602794647217 0.344338476657867432
0.266181737184524536 -0.288501739501953125 -0.341309934854507446
-0.334916383028030396 -0.316971510648727417 0.150649458169937134
0.23318086564540863 -0.301940023899078369 0.0192968174815177917
0.323969453573226929 -0.248893499374389648 -0.359502017498016357
-0.233562305569648743 -0.354003697633743286 0.0623444020748138428
-0.42100292444229126 0.00475169159471988678 0.271452009677886963
-0.313709259033203125 -0.281791508197784424 0.128888025879859924
0.176799297332763672 -0.410570204257965088 -0.0601458922028541565
0.255142807960510254 -0.270906925201416016 0.199681743979454041
0.209047377109527588 0.281558513641357422 0.0656273439526557922
0.256155908107757568 0.193360462784767151 -0.142411172389984131
-0.394699394702911377 -0.0170694813132286072 0.36169898509979248
-0.447662770748138428 0.262789905071258545 0.401080608367919922
-0.186230570077896118 -0.247388303279876709 0.0402592234313488007
0.209233686327934265 0.0854561328887939453 -0.126610606908798218
-0.392240345478057861 -0.0889820307493209839 0.158437758684158325
0.287858754396438599 -0.0975000336766242981 0.211946964263916016
-0.383153349161148071 -0.238615289330482483 0.0898588672280311584
0.24850347638130188 0.206847980618476868 0.273822635412216187
-0.325564175844192505 -0.302394658327102661 0.0935183241963386536
-0.39458996057510376 -0.0785064846277236938 0.399263262748718262
-0.365282237529754639 0.232965394854545593 0.429404169321060181
-0.311909288167953491 0.131888657808303833 0.144538938999176025
-0.290856122970581055 -0.308774888515472412 0.245993703603744507
-0.338964402675628662 -0.197006955742835999 0.355267107486724854
-0.195288032293319702 0.401685476303100586 0.318975985050201416
-0.247873082756996155 -0.268460750579833984 0.0357239469885826111
0.123393282294273376 0.0293034017086029053 0.0944182276725769043
0.322257876396179199 0.071505814790725708 -0.194194883108139038
-0.356097936630249023 -0.227037966251373291 0.17660658061504364
-0.345806628465652466 -0.301337063312530518 0.160323724150657654
-0.459345042705535889 0.265415221452713013 0.305964559316635132
0.205297589302062988 -0.255111873149871826 0.209545791149139404
0.3240203857421875 -0.213962942361831665 -0.346055090427398682
0.244146764278411865 -0.300729095935821533 -0.30565229058265686
-0.266707748174667358 -0.141461506485939026 0.159331530332565308
-0.171691477298736572 0.295867502689361572 0.388602674007415771
0.306622982025146484 -0.265611469745635986 -0.298447400331497192
0.30595099925994873 -0.282371759414672852 -0.349912583827972412
0.343545675277709961 -0.0657369792461395264 -0.262056946754455566
0.344822108745574951 -0.0814822986721992493 -0.268292456865310669
0.333837360143661499 -0.216010123491287231 -0.342394411563873291
0.0177964791655540466 0.365952044725418091 0.244770944118499756
-0.0103126168251037598 -0.294384121894836426 0.0408389344811439514
-0.386415481567382812 0.120058193802833557 0.387791305780410767
-0.0132856965065002441 0.403079301118850708 0.243338599801063538
0.331624716520309448 -0.238064303994178772 0.0687514916062355042
0.011162489652633667 0.117057204246520996 0.344217687845230103
-0.156712174415588379 -0.311123937368392944 0.0673793628811836243
0.170896485447883606 0.192151010036468506 0.334234267473220825
0.270453155040740967 0.150052845478057861 -0.121942244470119476
-0.116485431790351868 -0.312933593988418579 0.0646229684352874756
0.205098867416381836 0.235183313488960266 0.00442076846957206726
0.283837318420410156 0.168408259749412537 -0.0310868285596370697
0.0588871091604232788 -0.105761438608169556 0.218163684010505676
0.232885465025901794 0.104869216680526733 0.035417649894952774
-0.305251479148864746 -0.223987966775894165 0.106130719184875488
-0.0494347810745239258 -0.154085099697113037 0.0919758155941963196
-0.340654224157333374 -0.221713855862617493 0.108270838856697083
0.302954912185668945 -0.147597938776016235 0.0504960492253303528
-0.17567896842956543 -0.316912591457366943 0.107652239501476288
0.382033020257949829 -0.173610970377922058 -0.296977639198303223
0.261142522096633911 -0.32221531867980957 -0.229582637548446655
0.0291558802127838135 0.149605721235275269 0.27936321496963501
0.174014613032341003 0.00683286786079406738 0.0793818682432174683
0.26944848895072937 -0.281236469745635986 -0.215129092335700989
-0.331455826759338379 -0.241091743111610413 0.126231923699378967
0.358289003372192383 0.133268535137176514 -0.149724990129470825
0.273979514837265015 -0.290711134672164917 -0.204179331660270691
0.373134374618530273 -0.12285912036895752 -0.271643847227096558
0.351516693830490112 -0.182701766490936279 -0.294200658798217773
-0.243056118488311768 0.08724936842918396 0.372983932495117188
0.242718786001205444 -0.221606835722923279 0.0123139414936304092
0.311554908752441406 0.120982639491558075 0.197637498378753662
-0.0575546026229858398 -0.301780343055725098 0.00605348870158195496
0.305460870265960693 -0.122918486595153809 0.118635557591915131
-0.212052062153816223 -0.331611871719360352 0.0884378924965858459
0.324506759643554688 0.0726052820682525635 0.0209646560251712799
0.35914650559425354 -0.0479491911828517914 -0.274013042449951172
0.109693348407745361 0.0874827802181243896 0.370520293712615967
0.348696112632751465 0.0169115960597991943 -0.17451910674571991
0.173346728086471558 0.229839026927947998 0.0352844111621379852
0.364749312400817871 -0.116980597376823425 -0.269761353731155396
0.0327506959438323975 0.19862714409828186 0.168433353304862976
-0.325006693601608276 0.0540307313203811646 0.220043733716011047
-0.33239707350730896 0.0246622860431671143 0.167201608419418335
-0.249859869480133057 -0.239196807146072388 0.0528338514268398285
0.00745445489883422852 -0.330171644687652588 0.0698036402463912964
0.324842929840087891 0.257115960121154785 -0.22669394314289093
-0.378261685371398926 -0.318184077739715576 0.0732357129454612732
-0.385595917701721191 0.0256537273526191711 0.383113056421279907
0.124955072999000549 0.193575829267501831 0.038098357617855072
-0.409094393253326416 0.186722949147224426 0.369637936353683472
0.223526760935783386 0.343449920415878296 0.0147681795060634613
0.378636747598648071 -0.150045871734619141 -0.30144655704498291
-0.0424108430743217468 0.318920254707336426 0.239377215504646301
-0.312104076147079468 0.274285256862640381 0.313873171806335449
0.407968044281005859 0.180007621645927429 -0.23587353527545929
0.00140389800071716309 0.0216130912303924561 0.295304954051971436
-0.0648958459496498108 0.394642233848571777 0.232644826173782349
0.285977303981781006 -0.247626334428787231 -0.19424399733543396
0.365187764167785645 0.0878448560833930969 -0.261875420808792114
-0.304045259952545166 -0.196069702506065369 0.106169059872627258
0.353820294141769409 -0.0978914424777030945 -0.275471270084381104
0.222573727369308472 -0.134328827261924744 0.232323765754699707
0.355307847261428833 0.255132228136062622 -0.20282939076423645
-0.356316119432449341 0.193207472562789917 0.384856700897216797
0.329175651073455811 0.311004102230072021 -0.193249374628067017
0.358578622341156006 0.00732693076133728027 -0.275235921144485474
-0.336939632892608643 -0.299969375133514404 0.194864541292190552
-0.327288657426834106 -0.297516524791717529 0.090588591992855072
0.35891568660736084 -0.191560983657836914 -0.315404593944549561
-0.427552878856658936 -0.145957231521606445 0.197226583957672119
0.285071492195129395 -0.0994431450963020325 0.168933063745498657
0.183575943112373352 -0.402553796768188477 -0.0684505105018615723
-0.420277953147888184 -0.243898496031761169 0.20993100106716156
0.357014924287796021 0.00243386579677462578 -0.275835156440734863
0.201025098562240601 0.0360963940620422363 -0.0216055996716022491
0.211663618683815002 -0.240727692842483521 0.21862185001373291
-0.141902968287467957 -0.370445013046264648 0.0728891938924789429
-0.25447458028793335 -0.0709689408540725708 0.110261291265487671
-0.366022646427154541 -0.257826507091522217 0.200232118368148804
0.310656458139419556 -0.0652253702282905579 0.228197664022445679
-0.0188737660646438599 -0.417867541313171387 0.0634866431355476379
0.37419283390045166 0.0705690681934356689 -0.148164540529251099
-0.417330056428909302 -0.0351265668869018555 0.200437545776367188
0.3302115797996521 0.288014680147171021 -0.013715147040784359
-0.362235933542251587 -0.239125430583953857 0.155552983283996582
-0.329409271478652954 0.155958384275436401 0.201315015554428101
-0.363922983407974243 -0.143608033657073975 0.075688973069190979
0.311159670352935791 0.118818178772926331 0.207836732268333435
-0.402054965496063232 -0.0193931739777326584 0.217280089855194092
-0.408028453588485718 -0.154113128781318665 0.246827989816665649
-0.189301624894142151 0.376018434762954712 0.269056081771850586
0.0108608007431030273 0.402989029884338379 0.225804805755615234
-0.338489174842834473 -0.294336050748825073 0.165214836597442627
0.273933053016662598 -0.195951879024505615 -0.297357529401779175
-0.380246996879577637 -0.213087007403373718 0.139628991484642029
-0.218888700008392334 0.201300904154777527 0.368209183216094971
0.248303860425949097 -0.342252999544143677 -0.23815646767616272
0.361606597900390625 0.0950848013162612915 -0.202855274081230164
0.222928926348686218 0.229013308882713318 -0.0110660120844841003
0.257274210453033447 0.200623646378517151 0.300996005535125732
0.128680750727653503 0.170891150832176208 0.0451229289174079895
-0.308038711547851562 -0.153464674949645996 0.120231285691261292
-0.394246995449066162 0.022396184504032135 0.170550018548965454
0.33183741569519043 0.17263677716255188 -0.119516327977180481
-0.0951116085052490234 -0.282935351133346558 0.0925280079245567322
-0.279082000255584717 -0.245571300387382507 0.117962837219238281
0.144759997725486755 -0.0141849517822265625 0.233198553323745728
0.369209170341491699 -0.0500750504434108734 -0.250286370515823364
0.280688196420669556 -0.218283534049987793 0.0703887343406677246
-0.364399492740631104 -0.0941702201962471008 0.146386384963989258
-0.364625990390777588 0.0455377660691738129 0.410998761653900146
0.247569486498832703 -0.206186220049858093 -0.294457197189331055
-0.283691465854644775 -0.305928647518157959 0.0897271409630775452
0.354750931262969971 -0.0532971099019050598 -0.230452045798301697
0.141526460647583008 0.257340908050537109 0.369760364294052124
-0.276993751525878906 -0.313195765018463135 0.0409053042531013489
-0.286908417940139771 0.194749519228935242 0.184972018003463745
0.393946737051010132 0.209304630756378174 -0.123188965022563934
0.220599934458732605 0.142785295844078064 0.180395513772964478
0.286270856857299805 0.0189684592187404633 0.236206367611885071
-0.36051487922668457 0.136121869087219238 0.164893031120300293
0.139901310205459595 0.139352664351463318 0.00494963303208351135
0.319063365459442139 -0.242396622896194458 -0.278805762529373169
0.379176437854766846 0.0857390686869621277 -0.249551206827163696
0.252754837274551392 0.217411845922470093 -0.0990715101361274719
0.239898547530174255 0.221130982041358948 0.275970458984375
-0.011122286319732666 -0.0623139441013336182 0.0802316591143608093
-0.378316372632980347 0.0538735911250114441 0.203476011753082275
-0.398225665092468262 0.0662858113646507263 0.245089814066886902
0.291411519050598145 -0.116926796734333038 -0.133789971470832825
0.266396880149841309 -0.314330607652664185 -0.208440840244293213
0.244503587484359741 -0.313485890626907349 -0.314060002565383911
-0.385130822658538818 0.0224355980753898621 0.381793498992919922
-0.0630825161933898926 -0.338243067264556885 0.358830541372299194
0.0368390083312988281 -0.221869915723800659 0.14221586287021637
0.31777268648147583 -0.2141743004322052 -0.275252878665924072
-0.322150051593780518 -0.249325007200241089 0.0940987914800643921
-0.258135825395584106 -0.306554436683654785 0.0727465599775314331
-0.313537359237670898 0.152079463005065918 0.185263305902481079
0.339904665946960449 0.153413444757461548 -0.143247559666633606
-0.0450153648853302002 -0.584434807300567627 -0.134863078594207764
0.326910853385925293 0.267666369676589966 0.204896613955497742
-0.0109660625457763672 -0.293059229850769043 0.0452423691749572754
0.353027969598770142 0.16655305027961731 -0.0277432464063167572
0.344248861074447632 0.163697361946105957 -0.074341900646686554
-0.410429775714874268 0.103652335703372955 0.34939199686050415
-0.393121182918548584 0.0938983336091041565 0.17088732123374939
0.349099099636077881 -0.212944194674491882 -0.338448703289031982
0.281531393527984619 -0.073512151837348938 -0.0453258603811264038
0.288179337978363037 0.228968575596809387 -0.11565379798412323
-0.297395527362823486 0.183258324861526489 0.425879538059234619
-0.25808030366897583 0.284281462430953979 0.183195203542709351
0.157688960433006287 0.00958049297332763672 0.152192607522010803
-0.370330870151519775 -0.0506865307688713074 0.140617460012435913
0.376727640628814697 -0.149319306015968323 -0.295376330614089966
-0.403874874114990234 -0.130235642194747925 0.0980651229619979858
-0.372392117977142334 -0.230166822671890259 0.102808825671672821
-0.0597875863313674927 -0.390720635652542114 0.0575770512223243713
-0.249698340892791748 -0.145339369773864746 0.0861475914716720581
-0.330402016639709473 0.262449085712432861 0.337284475564956665
-0.390246987342834473 0.202635884284973145 0.407503008842468262
0.301733940839767456 -0.275427788496017456 -0.316404759883880615
-0.316017359495162964 0.252092480659484863 0.192616745829582214
-0.327285736799240112 -0.309094995260238647 0.101133227348327637
0.157209157943725586 -0.338276386260986328 0.209686338901519775
-0.295871496200561523 -0.0874844714999198914 0.0970592275261878967
0.338815003633499146 -0.200171545147895813 -0.337697654962539673
-0.411372572183609009 -0.0433900468051433563 0.332198381423950195
0.166836842894554138 -0.217658773064613342 0.138955175876617432
-0.371959030628204346 0.215147584676742554 0.199638664722442627
0.299452632665634155 -0.147993549704551697 0.0511120222508907318
-0.396188795566558838 -0.176522016525268555 0.230268239974975586
-0.346273899078369141 -0.30065000057220459 0.120236948132514954
-0.315464049577713013 0.0181597359478473663 0.348242372274398804
-0.353400766849517822 0.216662585735321045 0.231179922819137573
0.30951380729675293 -0.0602350756525993347 0.0655347704887390137
0.211561739444732666 0.189406946301460266 -0.160973697900772095
-0.411011159420013428 -0.0328434482216835022 0.340134739875793457
-0.266682714223861694 -0.125856608152389526 0.336813271045684814
0.251192748546600342 0.13442540168762207 -0.0957907810807228088
-0.367911875247955322 -0.261903941631317139 0.087799951434135437
0.217461705207824707 -0.181944459676742554 -0.0247070528566837311
0.290631711483001709 0.0110090672969818115 -0.151089057326316833
0.254359722137451172 -0.31529688835144043 -0.287038117647171021
0.278601109981536865 -0.269370824098587036 -0.267715245485305786
0.360246121883392334 -0.149800881743431091 -0.291071981191635132
0.307925909757614136 -0.118968337774276733 -0.0875868052244186401
0.254194557666778564 -0.301599949598312378 -0.309523999691009521
-0.308642834424972534 -0.315467685461044312 0.149347230792045593
-0.414476156234741211 0.125718340277671814 0.224432855844497681
0.320024430751800537 -0.038359910249710083 0.275933176279067993
-0.411142051219940186 0.133621543645858765 0.392280280590057373
0.401914834976196289 0.0912851691246032715 -0.203945651650428772
0.360586732625961304 -0.131390497088432312 -0.284708321094512939
0.303422331809997559 -0.220176294445991516 -0.287043750286102295
0.364476382732391357 -0.170491218566894531 -0.298685908317565918
0.315585911273956299 -0.263262093067169189 -0.318325698375701904
-0.359787940979003906 -0.229468449950218201 0.164967715740203857
-0.324082404375076294 -0.307290941476821899 0.194443553686141968
0.299197077751159668 -0.188348084688186646 -0.217467814683914185
-0.324642926454544067 0.0631687343120574951 0.170937478542327881
0.108022764325141907 -0.258111298084259033 -0.162249296903610229
-0.192371025681495667 0.227572590112686157 0.367544770240783691
-0.240681380033493042 -0.335306465625762939 0.0782979205250740051
0.363992571830749512 -0.0324954800307750702 -0.270908564329147339
0.268661201000213623 -0.301922440528869629 -0.227505683898925781
0.282846242189407349 -0.267627835273742676 -0.300591617822647095
0.390522599220275879 0.0514388680458068848 -0.24731716513633728
-0.384516805410385132 -0.262685894966125488 0.157342836260795593
-0.334599614143371582 -0.0757897272706031799 0.142635375261306763
-0.385693788528442383 -0.0560358874499797821 0.344415009021759033
0.285013675689697266 0.35850861668586731 -0.14986652135848999
-0.369666576385498047 0.0746194124221801758 0.205574721097946167
-0.315744966268539429 -0.30498078465461731 0.122013852000236511
0.356586337089538574 0.0381440706551074982 -0.0742218643426895142
0.154032349586486816 0.0527004003524780273 0.0900280475616455078
0.252268284559249878 -0.244639173150062561 -0.0492374151945114136
-0.159847140312194824 -0.315692543983459473 0.0334415584802627563
0.0112076997756958008 -0.307816475629806519 0.182509839534759521
0.316983312368392944 -0.0990897491574287415 -0.189132213592529297
0.174532428383827209 -0.124829024076461792 0.0755877643823623657
0.330773800611495972 0.138221472501754761 -0.133516356348991394
0.364847958087921143 0.0715969204902648926 -0.10437406599521637
-0.23993450403213501 -0.989002108573913574 -0.185355663299560547
0.37225833535194397 -0.0354413166642189026 -0.269303560256958008
-0.330903679132461548 -0.072434253990650177 0.446805119514465332
0.373925536870956421 -0.153213039040565491 -0.308584690093994141
-0.278153836727142334 0.250510960817337036 0.401632547378540039
0.350156486034393311 0.0251458808779716492 -0.270014703273773193
0.285172253847122192 -0.257150530815124512 -0.289850354194641113
0.128329455852508545 0.178037181496620178 0.175536155700683594
0.373773097991943359 -0.173410385847091675 -0.306145906448364258
-0.421865880489349365 0.0939190685749053955 0.391076743602752686
-0.356730133295059204 -0.279309660196304321 0.234518289566040039
-0.344264715909957886 0.240220963954925537 0.403609097003936768
0.38286629319190979 0.0344941355288028717 -0.0995588600635528564
0.191535666584968567 0.0954400897026062012 0.0626285672187805176
0.215873122215270996 -0.273361235857009888 0.0279858037829399109
-0.172358721494674683 -0.321712404489517212 0.0366382822394371033
0.113442778587341309 -0.196608901023864746 0.162025749683380127
0.380769789218902588 -0.235711932182312012 -0.32396930456161499
0.333251923322677612 0.265855550765991211 0.0251253936439752579
0.355326831340789795 -0.0837646499276161194 -0.154166579246520996
-0.358760595321655273 0.17054438591003418 0.308352679014205933
0.373893618583679199 0.0148429917171597481 -0.13114185631275177
0.363096654415130615 0.129540786147117615 -0.0778175368905067444
-0.209494322538375854 0.237165480852127075 0.241961359977722168
0.150018960237503052 0.0537216663360595703 0.282491624355316162
0.188148915767669678 0.033895641565322876 -0.148656338453292847
0.352107316255569458 -0.0104482583701610565 -0.27974170446395874
0.33276018500328064 -0.220033109188079834 -0.334160655736923218
-0.315902888774871826 0.252318739891052246 0.385753124952316284
0.372962802648544312 -0.111737258732318878 -0.299055725336074829
0.135767877101898193 -0.24675518274307251 -0.165410310029983521
-0.405475229024887085 -0.159470796585083008 0.199352532625198364
-0.433711588382720947 0.249852642416954041 0.430808514356613159
0.0994985252618789673 0.0470561385154724121 0.296151846647262573
0.340096414089202881 -0.252208113670349121 -0.36885988712310791
0.375918120145797729 -0.0944249927997589111 -0.289058715105056763
0.348336994647979736 0.00129325594753026962 -0.208079740405082703
0.248795807361602783 -0.282488346099853516 -0.322422802448272705
-0.423790901899337769 0.0798126757144927979 0.338577568531036377
0.365484476089477539 0.119403868913650513 -0.207570075988769531
0.370044708251953125 -0.120888017117977142 -0.296710610389709473
-0.321830689907073975 -0.308090269565582275 0.158078312873840332
0.312266737222671509 0.159426227211952209 0.019904792308807373
-0.364416211843490601 0.018984498456120491 0.142845600843429565
0.271183818578720093 -0.145575731992721558 0.221747547388076782
-0.414717733860015869 0.0993222296237945557 0.204165399074554443
-0.136229917407035828 -0.168844789266586304 0.109179720282554626
-0.325673818588256836 -0.277800321578979492 0.0479157865047454834
0.338781446218490601 -0.204730182886123657 -0.267656624317169189
0.364982515573501587 0.0916300714015960693 -0.160836324095726013
0.403795868158340454 0.0996919870376586914 -0.19859015941619873
0.368109196424484253 -0.0720313489437103271 -0.275020867586135864
0.374203979969024658 0.0674372464418411255 -0.262986421585083008
0.309853196144104004 -0.193469792604446411 -0.260268211364746094
0.289743363857269287 -0.275962918996810913 -0.367340534925460815
-0.345716863870620728 -0.219098985195159912 0.194361940026283264
0.278985828161239624 -0.1722918301820755 -0.226827934384346008
-0.360446721315383911 0.0800540894269943237 0.146840423345565796
0.334655731916427612 0.0283652897924184799 0.03144088014960289
-0.237971231341362 -0.338924229145050049 0.076457291841506958
0.269808769226074219 -0.305939018726348877 -0.222984537482261658
-0.403379499912261963 -0.250876963138580322 0.187718629837036133
-0.264147043228149414 0.267257481813430786 0.341152369976043701
-0.325253486633300781 -0.305686354637145996 0.0541208721697330475
0.369993507862091064 0.0542517751455307007 -0.139763474464416504
0.17775397002696991 -0.184295356273651123 0.186934053897857666
-0.268002957105636597 0.125308692455291748 0.169953376054763794
-0.284094333648681641 0.00652424991130828857 0.356466442346572876
0.3685951828956604 -0.0129184015095233917 -0.23257841169834137
0.246281430125236511 -0.114133000373840332 -0.00314017012715339661
0.293865472078323364 -0.284919142723083496 -0.282493889331817627
0.371913611888885498 -0.0729704424738883972 -0.283641397953033447
0.244499966502189636 0.123726814985275269 0.158159568905830383
-0.365367233753204346 -0.256223350763320923 0.173955127596855164
-0.364928483963012695 -0.013390764594078064 0.366947948932647705
-0.390155434608459473 -0.20887342095375061 0.0482250899076461792
0.317549437284469604 0.0781715214252471924 -0.113273151218891144
-0.27486807107925415 0.128053456544876099 0.146390974521636963
0.270461350679397583 -0.200571224093437195 0.110490843653678894
0.3026866614818573 -0.286250591278076172 -0.139139339327812195
-0.419133514165878296 0.0278788283467292786 0.201068997383117676
-0.290029287338256836 -0.225580871105194092 0.109895646572113037
0.291080594062805176 -0.166447967290878296 -0.101734369993209839
-0.353874802589416504 0.279208749532699585 0.414242208003997803
0.316599607467651367 0.0449528992176055908 -0.153498619794845581
0.364230632781982422 0.0648397505283355713 -0.0624300763010978699
-0.412241756916046143 -0.133146986365318298 0.206591606140136719
0.349586367607116699 -0.0193926841020584106 -0.225074976682662964
0.174649953842163086 -0.409201443195343018 -0.068251289427280426
-0.403687715530395508 -0.18252013623714447 0.172537326812744141
-0.314430534839630127 -0.0809812173247337341 0.132076352834701538
-0.0236707627773284912 0.0270487666130065918 0.0844276249408721924
-0.168514490127563477 0.323800921440124512 0.202415183186531067
0.175430089235305786 -0.332579433917999268 -0.170776203274726868
0.2559623122215271 -0.322186380624771118 -0.311721920967102051
-0.311524271965026855 -0.325089693069458008 0.159691005945205688
-0.0995002090930938721 -0.0532329976558685303 0.114919558167457581
-0.298628628253936768 -0.260925829410552979 0.169487923383712769
0.336038678884506226 -0.0124867139384150505 0.242675304412841797
-0.380373477935791016 -0.122251495718955994 0.159387931227684021
0.185673773288726807 0.308068573474884033 -0.00123876333236694336
-0.0922553837299346924 0.390888869762420654 0.221918702125549316
0.24368014931678772 -0.166597291827201843 -0.185309156775474548
-0.42042580246925354 -0.0640550702810287476 0.308108687400817871
-0.406138122081756592 -0.0518838092684745789 0.235299527645111084
0.321560323238372803 -0.216036424040794373 -0.280209451913833618
0.291041553020477295 -0.268409162759780884 -0.363105177879333496
0.339779287576675415 -0.137835264205932617 -0.120279818773269653
-0.406567513942718506 -0.0372691899538040161 0.382019072771072388
0.365549176931381226 -0.153261452913284302 -0.281746268272399902
-0.353020071983337402 -0.187307491898536682 0.268902808427810669
0.25100061297416687 -0.250639379024505615 -0.330807954072952271
0.331762254238128662 -0.0697031542658805847 -0.00647889077663421631
-0.405569940805435181 0.185469016432762146 0.166110411286354065
-0.300653517246246338 0.285873085260391235 0.194150939583778381
-0.109078958630561829 -0.290969818830490112 0.143612921237945557
-0.41860353946685791 0.0625006407499313354 0.252189815044403076
-0.203964769840240479 -0.33790057897567749 0.0654127448797225952
-0.26716458797454834 0.0264884158968925476 0.346949011087417603
-0.384809374809265137 0.228921294212341309 0.417283892631530762
-0.308809280395507812 0.169435709714889526 0.158288329839706421
-0.421476274728775024 -0.0603161752223968506 0.187017202377319336
0.319438159465789795 0.0444906726479530334 0.0219731666147708893
0.241458848118782043 0.0561317801475524902 0.288746416568756104
0.297968924045562744 -0.0791021659970283508 0.0986381545662879944
-0.297147631645202637 -0.20151694118976593 0.364760518074035645
-0.280358046293258667 0.277672320604324341 0.16691744327545166
0.34110984206199646 -0.0665623694658279419 -0.272566318511962891
0.168413057923316956 0.128549188375473022 0.118862047791481018
-0.265340626239776611 -0.21590133011341095 0.100494459271430969
0.112108290195465088 -0.152556955814361572 0.231111764907836914
0.291800856590270996 -0.247374981641769409 -0.0854605287313461304
0.266339212656021118 -0.303922832012176514 -0.118382960557937622
0.364237338304519653 0.124178990721702576 -0.249840199947357178
-0.292721480131149292 -0.309537589550018311 0.102407976984977722
-0.379857093095779419 0.0780337005853652954 0.156942605972290039
0.285859107971191406 -0.262152731418609619 -0.289539426565170288
0.329994797706604004 0.244206786155700684 -0.112230151891708374
-0.325905829668045044 0.236729651689529419 0.164913654327392578
0.196689218282699585 0.192102164030075073 0.070475362241268158
0.16230657696723938 -0.184763044118881226 -0.145637199282646179
-0.242834776639938354 0.307665109634399414 0.289951086044311523
0.181327983736991882 -0.298897504806518555 0.0188058037310838699
0.0587333142757415771 -0.195138305425643921 0.280619800090789795
-0.261026173830032349 -0.146117731928825378 0.105131417512893677
0.088927149772644043 0.164712041616439819 0.0144918262958526611
0.199342608451843262 0.304526865482330322 0.103968344628810883
0.28574669361114502 -0.00283566676080226898 0.18162362277507782
0.262030184268951416 -0.14790266752243042 -0.120386458933353424
-0.280752420425415039 -0.249163046479225159 0.105537116527557373
0.0853986293077468872 0.374564260244369507 0.208642154932022095
0.356919854879379272 -0.0970650538802146912 -0.272800594568252563
0.138541385531425476 -0.0544122159481048584 0.209482088685035706
0.284697830677032471 -0.226994946599006653 -0.183644413948059082
0.248788654804229736 -0.277206391096115112 -0.047115720808506012
-0.322498440742492676 0.272152066230773926 0.43074914813041687
-0.429389208555221558 -0.143800467252731323 0.181595861911773682
0.354899793863296509 -0.00203502271324396133 -0.226433321833610535
0.347044765949249268 0.0905403047800064087 -0.219662070274353027
0.17349320650100708 -0.420092672109603882 -0.0738221928477287292
-0.409966558218002319 -0.170608595013618469 0.169744551181793213
-0.16616310179233551 0.34871828556060791 0.193181350827217102
0.3676300048828125 -0.155635595321655273 -0.297170490026473999
0.334452271461486816 0.153220444917678833 -0.0790061578154563904
-0.300948381423950195 -0.279162019491195679 0.0594553723931312561
-0.293289601802825928 0.278279602527618408 0.23033885657787323
-0.370932042598724365 -0.0873285606503486633 0.132435888051986694
-0.314006209373474121 0.262106716632843018 0.171126082539558411
-0.362538725137710571 0.159161359071731567 0.410020649433135986
-0.443787753582000732 -0.0333748236298561096 0.274440228939056396
0.301723599433898926 -0.264362454414367676 -0.345468968152999878
-0.372483670711517334 -0.0821984261274337769 0.176537960767745972
-0.420261174440383911 0.138076990842819214 0.329361975193023682
0.333657026290893555 -0.0559003129601478577 0.00956898927688598633
-0.4816322922706604 0.247228413820266724 0.267015218734741211
-0.320534497499465942 0.266834557056427002 0.192834392189979553
-0.328152209520339966 0.0126534830778837204 0.154429048299789429
0.362640112638473511 -0.0862101912498474121 -0.253564715385437012
0.287056803703308105 -0.271781265735626221 -0.272856950759887695
0.275302618741989136 0.0544567108154296875 0.184402972459793091
0.284080743789672852 0.0357119403779506683 -0.0746957361698150635
0.185560300946235657 0.0869183540344238281 0.145201191306114197
0.310580790042877197 -0.330657780170440674 0.208094671368598938
0.32497560977935791 -0.122421726584434509 -0.263160735368728638
0.128650113940238953 0.314813137054443359 0.180634438991546631
0.334180653095245361 0.202636241912841797 -0.144721120595932007
0.196172028779983521 0.238998323678970337 0.0738396644592285156
-0.417602598667144775 0.212952703237533569 0.178672775626182556
0.271004587411880493 -0.127008050680160522 -0.0094376755878329277
0.373109579086303711 0.0878452956676483154 -0.216332376003265381
0.2964363694190979 -0.19434414803981781 -0.112897537648677826
-0.413615584373474121 -0.151140868663787842 0.190708905458450317
0.351521521806716919 0.000561006367206573486 -0.23055480420589447
0.272791594266891479 0.257812947034835815 -0.0746613293886184692
-0.363499850034713745 0.0659324824810028076 0.364983022212982178
-0.408388376235961914 -0.176200449466705322 0.169037610292434692
-0.181786224246025085 -0.311700105667114258 0.0408227965235710144
-0.370901167392730713 -0.255159467458724976 0.0880083665251731873
-0.336538493633270264 -0.0610191859304904938 0.145382106304168701
-0.372817784547805786 -0.0384252183139324188 0.19970037043094635
-0.35813489556312561 0.184011995792388916 0.171040892601013184
-0.303942322731018066 -0.316027909517288208 0.129551708698272705
-0.389603704214096069 -0.211123630404472351 0.166649073362350464
0.19770793616771698 -0.140928089618682861 0.236492633819580078
0.31073153018951416 0.325101077556610107 -0.168440699577331543
-0.231026440858840942 -0.259870767593383789 0.0435059890151023865
-0.337997376918792725 -0.0767347812652587891 0.118639670312404633
0.27300947904586792 0.112974628806114197 0.0549387931823730469
0.420832335948944092 0.23833446204662323 -0.216302841901779175
-0.413126379251480103 -0.0569522827863693237 0.244866535067558289
-0.417178630828857422 -0.042573779821395874 0.191582918167114258
0.314773857593536377 -0.214704111218452454 -0.282998472452163696
-0.347956031560897827 0.0415794625878334045 0.166086941957473755
0.184529095888137817 0.3173503577709198 0.0840530097484588623
-0.393860340118408203 -0.205958932638168335 0.0451521426439285278
0.191537231206893921 -0.198588892817497253 0.108967304229736328
0.245821774005889893 -0.246291562914848328 -0.308160543441772461
-0.324927449226379395 0.263750284910202026 0.193727344274520874
0.305987834930419922 0.0625543445348739624 0.217723295092582703
0.233438014984130859 -0.244064360857009888 0.194915711879730225
-0.311139583587646484 0.206670626997947693 0.427547156810760498
0.0585095956921577454 0.0691933929920196533 0.0827312171459197998
-0.384815067052841187 -0.22800232470035553 0.088872373104095459
0.331735998392105103 -0.0850999727845191956 -0.189833998680114746
-0.301089644432067871 -0.0952463597059249878 0.178196966648101807
-0.317752838134765625 0.257746249437332153 0.29699358344078064
0.315595328807830811 0.00160808488726615906 0.226520687341690063
0.107855841517448425 0.0132581889629364014 0.212968587875366211
0.242733851075172424 -0.274853438138961792 -0.0749626308679580688
-0.336468905210494995 0.240163370966911316 0.355689585208892822
0.280262082815170288 -0.165288016200065613 -0.239302948117256165
-0.241817265748977661 -0.186206281185150146 0.340490937232971191
-0.282035380601882935 -0.305200338363647461 0.239942818880081177
0.34195256233215332 -0.0771808326244354248 -0.107711032032966614
0.394085407257080078 0.193655773997306824 -0.235774919390678406
-0.354359596967697144 -0.254766732454299927 0.0971445739269256592
0.221821203827857971 -0.278775274753570557 0.0580009371042251587
0.212664306163787842 -0.00368110835552215576 0.351530641317367554
0.183954209089279175 0.16082356870174408 0.218965858221054077
0.30475887656211853 0.152295947074890137 0.089365050196647644
-0.26881718635559082 0.100863158702850342 0.357600271701812744
0.259809017181396484 -0.24781818687915802 0.0107862204313278198
0.292055070400238037 0.243780359625816345 0.166664808988571167
-0.293397843837738037 0.288527816534042358 0.338306546211242676
0.296648681163787842 0.078682728111743927 0.247360736131668091
-0.389921367168426514 -0.0341800600290298462 0.387154608964920044
0.326553940773010254 0.0514603406190872192 -0.201853707432746887
-0.414584815502166748 0.0944671332836151123 0.312676131725311279
0.280379533767700195 -0.241440087556838989 -0.260684788227081299
0.292063653469085693 -0.264290511608123779 -0.354134082794189453
-0.31277310848236084 0.161744564771652222 0.155307084321975708
-0.362014591693878174 0.0658479556441307068 0.112621724605560303
0.170416682958602905 0.234207615256309509 0.0118621401488780975
0.236713394522666931 -0.186918824911117554 -0.151918500661849976
-0.330161929130554199 -0.192109078168869019 0.108237177133560181
-0.352852016687393188 0.0991107970476150513 0.296017318964004517
-0.418346375226974487 -0.127209991216659546 0.141346469521522522
-0.323346972465515137 0.26337742805480957 0.342553943395614624
-0.302027285099029541 -0.23712584376335144 0.0703168362379074097
0.303106158971786499 -0.0977629348635673523 0.230980962514877319
0.205378115177154541 0.0833274424076080322 0.0215564295649528503
-0.282005608081817627 -0.316369622945785522 0.0688076615333557129
0.0163265541195869446 0.077867656946182251 0.139798477292060852
-0.385909318923950195 -0.237287521362304688 0.339000523090362549
0.25637739896774292 -0.325411140918731689 -0.113689333200454712
-0.336426377296447754 0.231517091393470764 0.350786268711090088
0.292891323566436768 -0.185346394777297974 -0.167065292596817017
0.289811640977859497 -0.151511162519454956 0.219977915287017822
-0.320486962795257568 0.174086689949035645 0.257783472537994385
0.37416425347328186 -0.0123707260936498642 -0.128037601709365845
-0.370525091886520386 -0.253107637166976929 0.114166811108589172
0.159210041165351868 -0.110242731869220734 0.231415808200836182
-0.380929768085479736 0.0342549979686737061 0.356022119522094727
0.258491277694702148 -0.259990274906158447 0.0369056165218353271
0.106264024972915649 -0.106778621673583984 0.0894694700837135315
-0.267405271530151367 0.307641446590423584 0.30674511194229126
-0.329554378986358643 0.251128405332565308 0.325054466724395752
0.280769228935241699 -0.263582289218902588 0.236588761210441589
-0.367946505546569824 -0.0599685981869697571 0.395759165287017822
0.326116234064102173 0.0686424821615219116 -0.194268345832824707
-0.425840526819229126 0.0393697395920753479 0.289665520191192627
0.337290376424789429 -0.186108946800231934 -0.277803748846054077
0.2715606689453125 -0.258958935737609863 -0.355187058448791504
0.389633774757385254 -0.382775932550430298 -0.168431609869003296
0.20357900857925415 0.05423775315284729 -0.180144459009170532
-0.33515658974647522 0.264381349086761475 0.427216708660125732
0.267876505851745605 -0.268650561571121216 -0.336573690176010132
-0.324649661779403687 0.239197790622711182 0.295301616191864014
-0.407649099826812744 -0.156999140977859497 0.176987066864967346
-0.214053303003311157 0.306544601917266846 0.200562864542007446
0.427229464054107666 0.176530107855796814 -0.205958068370819092
0.325261205434799194 0.308193594217300415 -0.197599738836288452
-0.357610821723937988 -0.0894787460565567017 0.270907104015350342
-0.0127440467476844788 -0.291180014610290527 0.0276892110705375671
0.304803013801574707 0.336920469999313354 -0.132354602217674255
0.40531080961227417 0.255098462104797363 -0.223768055438995361
0.237042754888534546 -0.290350079536437988 -0.321528434753417969
0.369080603122711182 -0.166366428136825562 -0.303252160549163818
0.278303146362304688 -0.270882725715637207 -0.111413620412349701
-0.073900170624256134 -0.261336147785186768 0.00500440225005149841
0.322895467281341553 -0.154823943972587585 0.170057222247123718
0.368426531553268433 -0.285453289747238159 -0.326621055603027344
0.277875363826751709 -0.25363236665725708 -0.191941142082214355
0.290453940629959106 -0.225749731063842773 0.18375059962272644
-0.0479764491319656372 -0.356389105319976807 0.0675285980105400085
0.360354125499725342 -0.288251489400863647 -0.296429961919784546
-0.156063497066497803 -0.351584732532501221 0.0254202187061309814
-0.369387149810791016 -0.259774923324584961 0.0690495222806930542
-0.104198291897773743 -0.36342659592628479 0.057523772120475769
0.20089288055896759 -0.256447196006774902 -0.249259054660797119
-0.26300358772277832 -0.16863638162612915 0.0504613593220710754
0.311921030282974243 0.326241493225097656 -0.1635274738073349
0.369290769100189209 0.270084381103515625 -0.184120327234268188
0.146637976169586182 -0.372429937124252319 -0.0051786080002784729
0.292433112859725952 -0.254317045211791992 -0.318920373916625977
-0.308899343013763428 -0.323979437351226807 0.15557900071144104
-0.0191719159483909607 -0.242303818464279175 0.0197393521666526794
0.235433429479598999 -0.299086958169937134 -0.314182311296463013
0.368924379348754883 -0.0243731196969747543 -0.266069620847702026
0.30492478609085083 -0.234038203954696655 -0.34463202953338623
0.335880786180496216 0.135989904403686523 -0.263336539268493652
0.0217672735452651978 -0.0938040018081665039 0.216781020164489746
-0.390499114990234375 0.0342959538102149963 0.362655103206634521
0.140341773629188538 0.166199818253517151 0.309046149253845215
-0.359271764755249023 0.0341706797480583191 0.419877707958221436
-0.374501287937164307 -0.048762887716293335 0.20359349250793457
0.315518438816070557 0.0385319255292415619 -0.0730349496006965637
0.181726232171058655 0.128616243600845337 0.148500755429267883
-0.114454559981822968 -0.318011462688446045 0.0859598591923713684
-0.0413063541054725647 -0.326897948980331421 0.0426137670874595642
-0.29080626368522644 -0.185636311769485474 0.110715471208095551
-0.177722841501235962 0.362453043460845947 0.365641117095947266
0.225230276584625244 -0.0740569978952407837 0.21579056978225708
0.339975863695144653 0.160998314619064331 0.0173187963664531708
-0.410369127988815308 -0.0320934392511844635 0.316885381937026978
-0.277243584394454956 -0.298729777336120605 0.065259888768196106
0.179284095764160156 -0.157161980867385864 0.207355603575706482
-0.178795605897903442 -0.335518121719360352 0.0874953567981719971
0.352995961904525757 0.0742621719837188721 -0.205394700169563293
-0.335241138935089111 -0.0951004624366760254 0.165710091590881348
0.116172954440116882 -0.271504878997802734 0.222965434193611145
0.316386044025421143 -0.219599992036819458 -0.268462657928466797
0.375272005796432495 0.0678971260786056519 -0.210177570581436157
-0.379060357809066772 0.0646304190158843994 0.40325281023979187
0.331162154674530029 -0.155391767621040344 -0.253425091505050659
0.299350440502166748 -0.176479309797286987 -0.103620782494544983
0.178434163331985474 0.252736985683441162 -0.0424256883561611176
0.335913300514221191 -0.296887218952178955 -0.335854679346084595
0.367965996265411377 -0.28901362419128418 -0.315124839544296265
0.0564745813608169556 0.0643121004104614258 0.0898223519325256348
-0.071103215217590332 0.262244850397109985 0.345556318759918213
-0.331497818231582642 0.134007245302200317 0.392895936965942383
-0.360404342412948608 -0.0793341174721717834 0.189008861780166626
0.304052770137786865 0.0639884024858474731 -0.01374027319252491
-0.391239434480667114 0.181944429874420166 0.173087224364280701
0.108567632734775543 0.0907831490039825439 -0.011249251663684845
0.326959371566772461 -0.205494523048400879 -0.266009330749511719
-0.422174185514450073 -0.0960611402988433838 0.262502998113632202
-0.267965257167816162 -0.311652183532714844 0.0669092237949371338
0.396723568439483643 0.178148791193962097 -0.256182014942169189
-0.107352688908576965 -0.244344741106033325 0.267283082008361816
0.204173251986503601 0.230168327689170837 -0.161639600992202759
-0.319793283939361572 -0.0386137068271636963 0.359117329120635986
-0.0432494133710861206 -0.349320173263549805 0.0617266744375228882
-0.413685619831085205 0.0588977895677089691 0.248694360256195068
0.258111417293548584 0.00868186354637145996 -0.214448586106300354
0.384017735719680786 0.209723904728889465 -0.176361709833145142
0.236749783158302307 -0.121064990758895874 0.208044782280921936
0.300864517688751221 -0.270261794328689575 -0.339592128992080688
0.0216736197471618652 0.0308135747909545898 0.104493722319602966
0.247671142220497131 0.200222939252853394 0.177204370498657227
0.375792920589447021 -0.162953406572341919 -0.304818838834762573
0.225659102201461792 0.139982298016548157 0.234311193227767944
0.293026715517044067 -0.261359363794326782 -0.306945681571960449
0.292465448379516602 -0.281754046678543091 -0.332675337791442871
-0.126486480236053467 0.324271470308303833 0.230977237224578857
0.20942196249961853 0.228312954306602478 0.0312060490250587463
0.256977081298828125 -0.304163634777069092 -0.305870294570922852
0.221366986632347107 0.121310383081436157 -0.158132880926132202
-0.41245606541633606 -0.109300151467323303 0.360519826412200928
0.232370346784591675 0.262907922267913818 -0.127502471208572388
0.34700387716293335 0.0411553829908370972 -0.29056897759437561
-0.314817607402801514 -0.122838474810123444 0.100286379456520081
-0.436508327722549438 0.282084643840789795 0.408127486705780029
-0.19928586483001709 0.298579424619674683 0.193194538354873657
0.305237919092178345 -0.235868871212005615 -0.294021368026733398
0.365994542837142944 -0.145983189344406128 -0.290280580520629883
-0.40684807300567627 -0.13831782341003418 0.16467517614364624
0.323423445224761963 0.324968159198760986 -0.164396569132804871
-0.430613875389099121 0.232918426394462585 0.420964837074279785
0.365932703018188477 0.0878603085875511169 -0.26378902792930603
-0.38730350136756897 0.240083590149879456 0.443572759628295898
-0.0434142500162124634 -0.240881070494651794 0.0266333241015672684
-0.35422322154045105 0.0820681676268577576 0.127658799290657043
-0.36163794994354248 -0.0394667834043502808 0.415950298309326172
0.370731115341186523 -0.00611238926649093628 -0.287154227495193481
-0.341447740793228149 -0.286184757947921753 0.181637987494468689
-0.00670076906681060791 0.158987969160079956 0.362604916095733643
0.296229779720306396 -0.200368791818618774 -0.190028175711631775
0.328539073467254639 -0.233499273657798767 -0.342663168907165527
0.281284689903259277 0.298483461141586304 -0.159742251038551331
0.3836212158203125 0.0729985088109970093 -0.252394348382949829
-0.395459622144699097 0.216658622026443481 0.170913457870483398
0.308576107025146484 0.305540859699249268 0.037440665066242218
-0.323420226573944092 0.284343838691711426 0.192182764410972595
0.21524655818939209 -0.301926523447036743 -0.261448442935943604
-0.405042082071304321 -0.0248485077172517776 0.356841027736663818
-0.0467437058687210083 -0.311942398548126221 0.0321772210299968719
0.351891100406646729 -0.276735037565231323 -0.318551391363143921
0.30507582426071167 -0.292648494243621826 -0.337166517972946167
0.368553221225738525 -0.16449563205242157 -0.305693238973617554
0.29269370436668396 -0.274447500705718994 -0.318343758583068848
0.289757132530212402 -0.267256438732147217 -0.340642273426055908
0.369244515895843506 0.0316729769110679626 -0.0231703445315361023
0.0153073370456695557 0.0171436965465545654 0.220606580376625061
-0.380064994096755981 -0.16995510458946228 0.382622867822647095
-0.346494734287261963 -0.234722301363945007 0.115273512899875641
0.209565132856369019 -0.144000470638275146 -0.251528680324554443
