ply
format ascii 1.0
element vertex 739
property float x
property float y
property float z
end_header
-0.542995929718017578 0.447546422481536865 0.145356088876724243
0.166377022862434387 0.380644887685775757 0.248099595308303833
0.65640103816986084 -0.0342366993427276611 0.258890897035598755
-0.00838872045278549194 0.443717360496520996 0.0556813627481460571
-0.635850071907043457 0.268204092979431152 0.0749713927507400513
0.695152044296264648 -0.105086222290992737 -0.0399764329195022583
0.492850422859191895 0.390194177627563477 0.252247154712677002
0.506394684314727783 0.408739566802978516 0.0891980528831481934
0.232866555452346802 0.485032528638839722 -0.0013172738254070282
-0.493883430957794189 0.469016969203948975 0.12830662727355957
0.619806885719299316 -0.166304051876068115 -0.107594728469848633
-0.0990402847528457642 -0.461326062679290771 -0.173415824770927429
0.681784987449645996 0.214178219437599182 0.127250939607620239
-0.222257286310195923 0.542850375175476074 0.0247449874877929688
0.716896414756774902 -0.191965922713279724 -0.0216150134801864624
0.65848618745803833 0.363579332828521729 -0.0269723087549209595
-0.53217315673828125 -0.382939279079437256 -0.243125751614570618
0.670759618282318115 -0.165214255452156067 0.0811235755681991577
0.659953117370605469 -0.20119909942150116 -0.0629076361656188965
0.60903167724609375 -0.280170202255249023 -0.110383674502372742
0.646430253982543945 -0.29601171612739563 -0.0749317482113838196
-0.51904141902923584 -0.406429648399353027 -0.126452058553695679
0.69846343994140625 -0.300912708044052124 -0.0784391611814498901
0.400511384010314941 0.50827181339263916 0.200937420129776001
0.497029542922973633 0.419363737106323242 -0.0214496329426765442
0.692039310932159424 0.0275131352245807648 -0.0379713773727416992
-0.541402459144592285 0.383988440036773682 0.0745267868041992188
-0.680021047592163086 0.214733853936195374 0.229996934533119202
-0.325115054845809937 0.50681149959564209 0.0475202351808547974
-0.679350554943084717 -0.0628075599670410156 -0.00921189785003662109
0.354003012180328369 -0.470026373863220215 -0.0837969407439231873
-0.683712482452392578 -0.107617750763893127 0.168742060661315918
-0.48613893985748291 0.449711918830871582 0.275142759084701538
0.611373543739318848 -0.174175933003425598 0.244509831070899963
0.656937360763549805 0.218988269567489624 0.275882542133331299
-0.59941565990447998 0.0803291201591491699 -0.0245583802461624146
0.660434484481811523 -0.138861566781997681 -0.0624467283487319946
0.15611758828163147 0.451980233192443848 0.11859874427318573
0.621837913990020752 -0.408423423767089844 -0.174812719225883484
0.287678271532058716 0.424960553646087646 0.00451566651463508606
0.184093281626701355 0.432989656925201416 0.0874124914407730103
0.383046388626098633 0.508311212062835693 0.0323250666260719299
-0.593078255653381348 0.229576677083969116 -0.0185713768005371094
-0.642890572547912598 -0.215662896633148193 -0.0274229198694229126
-0.603874444961547852 -0.363000035285949707 0.134698718786239624
0.457007467746734619 0.463929861783981323 0.110655494034290314
-0.568161129951477051 -0.412386298179626465 -0.012552306056022644
0.164964467287063599 0.382456302642822266 0.0892629623413085938
-0.531510531902313232 -0.280585289001464844 -0.147685825824737549
0.276697427034378052 0.494417548179626465 -0.0150526650249958038
0.619132757186889648 -0.0230352561920881271 0.263720422983169556
0.65595322847366333 0.330838382244110107 0.0389337390661239624
0.525966823101043701 -0.447326779365539551 -0.243767708539962769
0.677698791027069092 0.0593159422278404236 0.197777032852172852
-0.630275070667266846 0.0645294263958930969 -0.020277366042137146
-0.439245522022247314 -0.429182976484298706 -0.237890720367431641
0.672449707984924316 -0.199769601225852966 0.131387561559677124
-0.55637657642364502 -0.368346095085144043 -0.0823258161544799805
-0.572878241539001465 0.314997732639312744 -0.00916776061058044434
0.196476355195045471 0.371224969625473022 0.298322826623916626
0.507689714431762695 0.467817485332489014 0.137786626815795898
-0.591130495071411133 0.39886474609375 0.169084981083869934
-0.361201316118240356 0.537912368774414062 0.0573426485061645508
-0.676540017127990723 -0.0274705886840820312 0.0299421548843383789
0.684568822383880615 0.187845990061759949 0.275205343961715698
0.53722989559173584 -0.380773633718490601 -0.226459890604019165
-0.680778384208679199 0.0141611695289611816 0.213036537170410156
0.679701447486877441 -0.113177582621574402 -0.0130274295806884766
0.726112484931945801 0.0680864155292510986 -0.0843932032585144043
-0.565929055213928223 -0.386300057172775269 -0.243805751204490662
-0.652656078338623047 -0.245364084839820862 -0.192360639572143555
0.54534149169921875 0.390701144933700562 0.285863906145095825
0.648175656795501709 -0.251194387674331665 0.0224136095494031906
0.266471207141876221 0.392202645540237427 0.339678466320037842
0.528071284294128418 -0.435760200023651123 -0.267410606145858765
-0.607027232646942139 -0.251073658466339111 -0.203754991292953491
0.700847744941711426 -0.0872726812958717346 -0.148161828517913818
0.698243498802185059 -0.0337702259421348572 -0.132842034101486206
-0.700137197971343994 -0.0705101191997528076 0.0557990968227386475
0.62553781270980835 -0.287923961877822876 -0.122010141611099243
0.411222547292709351 0.439854472875595093 -0.00664125476032495499
0.701279163360595703 -0.189044445753097534 -0.153922364115715027
-0.295325934886932373 0.538353681564331055 0.0385586321353912354
0.476392626762390137 0.428119510412216187 0.0123813264071941376
-0.571872234344482422 0.396880626678466797 0.243636131286621094
0.694203495979309082 -0.0236083809286355972 -0.0407414287328720093
-0.550716280937194824 0.419347971677780151 0.159480929374694824
0.658745288848876953 0.303905308246612549 -0.0263411104679107666
-0.46588936448097229 -0.341305673122406006 -0.232350394129753113
-0.608780026435852051 0.313912928104400635 -0.0347384363412857056
0.671490192413330078 -0.140321880578994751 0.120209649205207825
-0.551956713199615479 0.422564089298248291 0.0916091501712799072
0.681545794010162354 -0.106314986944198608 -0.0867940038442611694
-0.718969404697418213 0.107763916254043579 0.0475022792816162109
-0.391518354415893555 0.531759142875671387 0.0466988980770111084
0.707311332225799561 -0.209127068519592285 -0.153477996587753296
-0.400458693504333496 -0.42851528525352478 -0.206980809569358826
0.705551385879516602 -0.33586496114730835 -0.172326639294624329
-0.699486732482910156 0.0823945328593254089 -0.113373622298240662
-0.67584383487701416 0.178995698690414429 0.308182060718536377
0.689402759075164795 -0.355568766593933105 -0.147630274295806885
0.662679433822631836 -0.287751287221908569 -0.157432109117507935
0.61468660831451416 -0.351685106754302979 -0.106987185776233673
-0.665510714054107666 0.264426648616790771 0.15360569953918457
-0.582644104957580566 -0.348823577165603638 -0.190968155860900879
-0.700089573860168457 0.227220147848129272 0.264176815748214722
0.700094521045684814 -0.200701236724853516 -0.177008241415023804
0.714287698268890381 -0.137379884719848633 -0.0488734990358352661
0.667200684547424316 -0.201626896858215332 -0.0670535862445831299
0.674815356731414795 -0.348655343055725098 -0.116039112210273743
0.530319690704345703 -0.379605859518051147 -0.226927489042282104
0.400369644165039062 0.449086815118789673 -0.0222567319869995117
-0.642547070980072021 0.0163359027355909348 -0.0331944972276687622
0.652782082557678223 -0.262050747871398926 -0.107329070568084717
0.670759260654449463 0.105345472693443298 0.0479198470711708069
0.649338722229003906 0.121177434921264648 0.0178682059049606323
0.708545982837677002 -0.168617606163024902 -0.023045659065246582
0.55142509937286377 0.261230796575546265 0.34012901782989502
-0.65620499849319458 0.151784792542457581 0.214719876646995544
0.591900348663330078 -0.358590841293334961 -0.00621068105101585388
0.679930269718170166 -0.139544099569320679 -0.0068527907133102417
0.667061150074005127 -0.154134705662727356 -0.0617941319942474365
0.697498083114624023 -0.244670391082763672 0.0165404602885246277
-0.681543111801147461 0.104852646589279175 -0.0955246388912200928
-0.672403514385223389 -0.190339580178260803 -0.0316805392503738403
0.644861221313476562 -0.218358054757118225 -0.151266798377037048
0.649249374866485596 -0.355058044195175171 -0.191938638687133789
-0.683896243572235107 0.333243668079376221 0.233186259865760803
-0.653177201747894287 -0.132048219442367554 -0.180431336164474487
0.698387622833251953 -0.239506334066390991 -0.0626901984214782715
0.657948315143585205 -0.0337666347622871399 0.28914228081703186
0.719645321369171143 0.0114330276846885681 -0.0918805301189422607
0.604742050170898438 0.325658410787582397 0.0894829407334327698
0.740451037883758545 0.0208631008863449097 0.0742029100656509399
0.679565131664276123 0.104223288595676422 0.131977051496505737
0.674784064292907715 -0.104983873665332794 -0.0795987248420715332
0.714531362056732178 -0.0610017925500869751 -0.146259531378746033
0.673174262046813965 -0.328072577714920044 -0.109544545412063599
-0.68830561637878418 -0.0862875282764434814 -0.152400314807891846
-0.645673215389251709 -0.292538344860076904 -0.219547167420387268
-0.614298105239868164 -0.296143531799316406 -0.239747747778892517
-0.633729219436645508 0.319121807813644409 -0.00158712267875671387
0.68474578857421875 0.170533254742622375 0.151352345943450928
-0.462616831064224243 -0.453717142343521118 -0.19177699089050293
0.499794930219650269 -0.438504576683044434 -0.0304069854319095612
0.721676468849182129 -0.0577993616461753845 0.109206646680831909
0.216215357184410095 0.401961654424667358 0.274202823638916016
0.728468179702758789 -0.0910844802856445312 0.043091118335723877
0.719783782958984375 -0.128888338804244995 -0.04811115562915802
0.641024649143218994 0.119393914937973022 0.215129315853118896
-0.646133005619049072 0.291325688362121582 0.205082327127456665
-0.686908841133117676 0.212507307529449463 0.102375373244285583
-0.594743669033050537 0.316535919904708862 0.306086301803588867
0.620857477188110352 -0.313424080610275269 0.0325566567480564117
0.625671029090881348 -0.141139030456542969 -0.0466732978820800781
-0.684346020221710205 0.0421054437756538391 -0.133378773927688599
-0.69746631383895874 -0.169839277863502502 -0.0835066661238670349
0.716904878616333008 -0.246724411845207214 -0.142375409603118896
0.682275533676147461 -0.446998536586761475 -0.193015173077583313
-0.718097090721130371 0.307477116584777832 0.270437479019165039
-0.587390422821044922 -0.240328878164291382 -0.183342605829238892
-0.694680392742156982 -0.141264021396636963 0.183041766285896301
0.567676544189453125 -0.3501700758934021 -0.166245922446250916
-0.650214254856109619 -0.120568558573722839 -0.172140121459960938
0.574043691158294678 0.241966277360916138 0.194837957620620728
0.70100092887878418 -0.259303092956542969 -0.0738266706466674805
0.675864040851593018 0.0388520620763301849 -0.0136055946350097656
0.693634510040283203 -0.111893594264984131 0.106271311640739441
-0.637923002243041992 -0.0551989786326885223 -0.132593005895614624
0.674317240715026855 0.1001167893409729 0.226079508662223816
0.620640933513641357 -0.164186820387840271 -0.0976332873106002808
0.637227773666381836 -0.452158510684967041 -0.22161981463432312
-0.675214707851409912 -0.0744141638278961182 -0.105105221271514893
-0.674591064453125 0.000923544168472290039 0.198909908533096313
0.741981983184814453 0.196424543857574463 -0.0741930454969406128
-0.686044573783874512 0.0285470597445964813 -0.00404091179370880127
0.641837000846862793 0.290190428495407104 0.150368422269821167
-0.589180171489715576 -0.320476710796356201 -0.240394189953804016
-0.556172966957092285 -0.343580305576324463 -0.227609336376190186
0.63025134801864624 0.151386931538581848 0.24725341796875
-0.610283255577087402 0.208237677812576294 0.00430651009082794189
-0.618578493595123291 -0.113508611917495728 -0.0880840420722961426
0.654281735420227051 0.366022944450378418 -0.0183141976594924927
0.649014413356781006 -0.100108817219734192 -0.0692168250679969788
0.717000126838684082 0.0647980794310569763 -0.0923411101102828979
-0.506791949272155762 -0.371155351400375366 0.150357276201248169
0.537286520004272461 0.400576680898666382 0.280719578266143799
-0.703124344348907471 -0.0038032233715057373 -0.169369369745254517
0.254438579082489014 -0.485892504453659058 -0.131486207246780396
0.522279798984527588 -0.430455803871154785 -0.27126803994178772
-0.582867622375488281 -0.349092602729797363 -0.193465232849121094
-0.433969676494598389 0.53684079647064209 0.0817322582006454468
-0.422322899103164673 -0.439556121826171875 -0.226730823516845703
0.701037883758544922 -0.0780375450849533081 -0.139626353979110718
0.621760725975036621 0.390000432729721069 -0.0123355463147163391
-0.685349702835083008 0.351760447025299072 0.276002109050750732
-0.681553542613983154 -0.135790228843688965 -0.0988781377673149109
0.474661797285079956 0.431600630283355713 0.0130015425384044647
0.681954622268676758 -0.237155616283416748 -0.160753071308135986
0.0548000484704971313 0.440058708190917969 0.005146808922290802
-0.648353695869445801 -0.109089896082878113 -0.106665916740894318
-0.6515846848487854 0.0612562857568264008 0.0519668459892272949
0.28777313232421875 0.460532993078231812 -0.0116500146687030792
0.689686775207519531 0.0196626186370849609 0.14405466616153717
-0.626839101314544678 0.239099904894828796 0.0703117847442626953
0.656943082809448242 -0.383217453956604004 -0.168705448508262634
0.679969966411590576 -0.0802523195743560791 -0.143631651997566223
0.620589196681976318 -0.262579858303070068 -0.187779739499092102
0.641041755676269531 -0.250079631805419922 0.225448727607727051
-0.601170122623443604 0.333546817302703857 0.131375938653945923
0.672364234924316406 -0.136667415499687195 0.124241471290588379
-0.547091424465179443 0.418399393558502197 0.0967551171779632568
-0.647473692893981934 0.238132894039154053 0.272996872663497925
-0.700288474559783936 0.187862619757652283 0.188131868839263916
-0.690360486507415771 -0.122837722301483154 0.133302211761474609
0.62917858362197876 -0.411502718925476074 -0.174969717860221863
0.698706865310668945 -0.189043805003166199 -0.152659252285957336
-0.298786401748657227 0.540815234184265137 0.0368837714195251465
-0.447144031524658203 -0.392571449279785156 -0.235541030764579773
0.687781989574432373 -0.355560362339019775 -0.135191410779953003
0.179989606142044067 0.507289648056030273 0.309924423694610596
0.658179044723510742 -0.344126194715499878 -0.131304249167442322
-0.58057016134262085 -0.384661436080932617 -0.251441150903701782
-0.454128652811050415 -0.391039371490478516 -0.230225041508674622
0.642756879329681396 -0.23948967456817627 -0.0715031325817108154
0.690506458282470703 -0.356552243232727051 -0.152956977486610413
0.689254879951477051 -0.2977275550365448 -0.151530206203460693
-0.707233905792236328 -0.0812992900609970093 0.153302043676376343
0.680907726287841797 -0.26336979866027832 -0.159310713410377502
0.542285740375518799 0.248963266611099243 0.344075500965118408
-0.638594985008239746 0.322370409965515137 -0.0158807635307312012
-0.601693570613861084 0.274965435266494751 0.229423061013221741
0.740505993366241455 0.1960316002368927 -0.0772769004106521606
0.243954241275787354 0.416212499141693115 0.0485860109329223633
-0.365921199321746826 -0.519681870937347412 0.0709601640701293945
0.624648332595825195 0.194125235080718994 0.303249597549438477
0.664877891540527344 0.290603518486022949 -0.080413326621055603
-0.404258579015731812 0.505249321460723877 0.0601928085088729858
-0.461914658546447754 -0.214160948991775513 -0.117560729384422302
0.202823832631111145 0.444696784019470215 0.00170769914984703064
0.226524099707603455 0.391394644975662231 0.116941057145595551
0.67086714506149292 0.0894181802868843079 0.275897622108459473
0.376613199710845947 0.42639845609664917 0.275815367698669434
0.688549339771270752 -0.199731022119522095 -0.0791882574558258057
-0.647088170051574707 0.0226197503507137299 -0.091222718358039856
-0.696014285087585449 0.130439087748527527 -0.0953211709856987
-0.421829640865325928 0.526062488555908203 0.031915709376335144
0.582636415958404541 0.358837544918060303 0.100504957139492035
0.642328739166259766 0.253610044717788696 -0.0052649378776550293
-0.601957261562347412 0.369689345359802246 0.238494411110877991
-0.611513972282409668 0.163821280002593994 -0.0749418288469314575
0.637464404106140137 -0.395908474922180176 -0.22116321325302124
0.59251868724822998 0.370996862649917603 0.201418712735176086
-0.639752447605133057 0.252831429243087769 0.105532586574554443
-0.369426429271697998 0.52774345874786377 0.0550249963998794556
-0.678327798843383789 -0.305122464895248413 0.16890871524810791
-0.630326211452484131 -0.141755715012550354 -0.18092799186706543
-0.537123203277587891 -0.388858139514923096 -0.0121419727802276611
-0.653582394123077393 0.296129703521728516 -0.0547926872968673706
0.642267107963562012 -0.125380590558052063 0.236228242516517639
-0.449070274829864502 -0.0585664175450801849 -0.134493321180343628
-0.554015398025512695 0.508895277976989746 0.285766273736953735
0.211600705981254578 0.421879947185516357 0.0631560534238815308
0.690108180046081543 0.037852950394153595 0.087025277316570282
0.583976149559020996 0.310246765613555908 0.294999599456787109
0.665612101554870605 -0.203871116042137146 0.0209884457290172577
0.596787452697753906 0.0640836134552955627 0.260101586580276489
-0.673771917819976807 -0.212882786989212036 0.197900742292404175
-0.705986857414245605 0.0505176633596420288 0.212119966745376587
0.643258571624755859 -0.248504966497421265 -0.142918601632118225
-0.667864322662353516 -0.0110994502902030945 -0.125862628221511841
0.604488134384155273 0.0388481728732585907 0.320863783359527588
0.628263950347900391 -0.307822316884994507 0.0515450015664100647
-0.375424742698669434 0.561670362949371338 0.0124512761831283569
0.573463082313537598 0.361908584833145142 0.0932869389653205872
0.15718783438205719 -0.535026490688323975 -0.181453585624694824
-0.588754415512084961 0.248231306672096252 -0.0177887231111526489
0.652071833610534668 0.267149060964584351 0.0521838665008544922
-0.344089299440383911 0.506270349025726318 0.253107905387878418
-0.558937609195709229 0.328125476837158203 0.225807502865791321
-0.630302309989929199 0.255978286266326904 0.118304118514060974
0.718412220478057861 -0.0143554806709289551 -0.0625772476196289062
-0.392662763595581055 0.535123705863952637 0.043291926383972168
0.706818103790283203 -0.148895412683486938 -0.143387451767921448
-0.636353790760040283 -0.141043409705162048 -0.189863204956054688
-0.577832818031311035 -0.367122679948806763 -0.0206799954175949097
-0.653400599956512451 0.216934680938720703 -0.103314012289047241
-0.24517802894115448 0.506964802742004395 0.271032989025115967
0.700079798698425293 0.11467549204826355 0.191481083631515503
0.64885556697845459 0.361747175455093384 -0.0210598111152648926
0.674547791481018066 -0.140659868717193604 0.104480132460594177
-0.311651349067687988 0.462339520454406738 0.0409379750490188599
0.603603601455688477 0.375275701284408569 -0.00229521095752716064
-0.566652595996856689 -0.384854882955551147 -0.245851486921310425
0.621677160263061523 0.342235982418060303 0.181595146656036377
-0.637843310832977295 -0.17465229332447052 -0.0291049182415008545
-0.35064581036567688 0.553434848785400391 0.0275941938161849976
0.614040851593017578 -0.390369951725006104 -0.16309511661529541
-0.719893217086791992 0.102749615907669067 -0.0117826461791992188
0.452557027339935303 0.451342165470123291 -0.0540521442890167236
-0.638543307781219482 -0.34284597635269165 -0.226152092218399048
-0.308009356260299683 0.584002435207366943 0.03882579505443573
-0.438461840152740479 -0.393604665994644165 -0.227927044034004211
-0.677601337432861328 -0.37232169508934021 -0.253888338804244995
-0.548402667045593262 0.434172332286834717 -0.0212499499320983887
0.492096483707427979 0.428280115127563477 -0.0303979218006134033
-0.630625903606414795 -0.361184209585189819 0.128359496593475342
0.656979680061340332 -0.0170739255845546722 -0.187767565250396729
0.54456019401550293 0.414645254611968994 -0.0144126191735267639
0.687755346298217773 0.179917857050895691 -0.0296162813901901245
-0.562677145004272461 0.238027304410934448 -0.090121246874332428
0.575085461139678955 0.410809099674224854 -0.0312484651803970337
-0.700052857398986816 0.226891785860061646 0.267227768898010254
-0.295768141746520996 0.56043088436126709 0.0154099166393280029
-0.626241803169250488 -0.366003692150115967 0.135489314794540405
0.659010767936706543 0.301937997341156006 -0.0280763059854507446
-0.65804290771484375 0.363597691059112549 0.273026347160339355
-0.422763913869857788 0.52343064546585083 0.0258523374795913696
-0.394716918468475342 0.532857060432434082 0.0457004308700561523
0.713562607765197754 -0.199625864624977112 -0.146339565515518188
0.647539019584655762 0.304222077131271362 -0.0378234237432479858
-0.575702786445617676 -0.358982354402542114 -0.184185028076171875
-0.433912873268127441 -0.431277841329574585 -0.212495282292366028
-0.303421318531036377 0.538814544677734375 0.0349109768867492676
-0.647693753242492676 -0.289223253726959229 -0.0276845693588256836
0.718519449234008789 0.0652154237031936646 -0.0899631530046463013
-0.547635197639465332 -0.390411436557769775 -0.237671986222267151
0.648368179798126221 0.359722882509231567 -0.016480863094329834
-0.433011054992675781 0.533876001834869385 0.0810892730951309204
0.693762779235839844 -0.303110450506210327 -0.155235633254051208
0.748368263244628906 -0.119880065321922302 -0.0258304178714752197
0.195315927267074585 0.445006221532821655 0.00361732020974159241
-0.562793552875518799 0.497067570686340332 0.287860572338104248
-0.692711472511291504 0.0717649906873703003 0.06301097571849823
-0.667706727981567383 -0.195964068174362183 0.204943910241127014
-0.642224252223968506 -0.19844113290309906 0.0285748839378356934
0.445878148078918457 -0.441967129707336426 0.0578037910163402557
0.614946901798248291 0.363756060600280762 0.200246915221214294
0.352514088153839111 -0.468785792589187622 0.000413380563259124756
-0.667435288429260254 0.101731836795806885 0.00511141121387481689
-0.607465863227844238 -0.30413857102394104 -0.181030035018920898
-0.683765292167663574 -0.0273116119205951691 -0.136440262198448181
0.677605152130126953 -0.158608749508857727 -0.110174000263214111
0.165443927049636841 0.5396994948387146 -0.0115009620785713196
-0.645592451095581055 0.279315978288650513 0.162908792495727539
0.606033802032470703 -0.287907898426055908 0.10356602817773819
-0.681822061538696289 0.091217532753944397 0.200278863310813904
0.654769599437713623 -0.177064299583435059 0.26306462287902832
0.435474276542663574 0.19444487988948822 0.300965785980224609
0.702828645706176758 -0.204786524176597595 -0.0779870077967643738
-0.671173989772796631 -0.298927277326583862 -0.237972825765609741
0.634119391441345215 0.288811683654785156 0.151415348052978516
0.688521981239318848 0.117853268980979919 -0.0432434380054473877
-0.607895255088806152 -0.326370835304260254 -0.23865547776222229
0.689217865467071533 -0.253342330455780029 -0.0752313584089279175
0.657139301300048828 -0.185281336307525635 -0.080678895115852356
0.629563629627227783 -0.299625188112258911 -0.0756915807723999023
-0.567800939083099365 0.494279801845550537 0.279447257518768311
-0.71161198616027832 0.270801663398742676 0.268944293260574341
0.190035402774810791 0.389456629753112793 0.24866168200969696
-0.689677238464355469 -0.134227871894836426 0.140072911977767944
-0.412552922964096069 0.545181751251220703 0.0367303937673568726
0.713209271430969238 -0.0240962505340576172 0.100715219974517822
0.599383950233459473 0.329780012369155884 0.0755416452884674072
0.623345255851745605 -0.310215532779693604 0.097960054874420166
0.625272214412689209 -0.382602214813232422 -0.0873383283615112305
0.480272531509399414 0.222262546420097351 0.356717169284820557
0.693964123725891113 -0.0356179103255271912 -0.00469823181629180908
0.569407939910888672 0.00104618445038795471 0.271514624357223511
0.624703645706176758 -0.168709203600883484 0.105625301599502563
0.693197488784790039 -0.1118006631731987 -0.169844299554824829
-0.640334844589233398 0.268411040306091309 0.177914842963218689
-0.707224071025848389 0.104824505746364594 0.0597313046455383301
0.433635532855987549 0.462414652109146118 -0.067622654139995575
-0.613379836082458496 -0.1816253662109375 -0.184759616851806641
0.643743991851806641 0.286976993083953857 0.183717429637908936
0.677009224891662598 0.120325058698654175 0.0701635852456092834
-0.594510436058044434 -0.316216975450515747 -0.240331918001174927
0.477277398109436035 -0.0247778594493865967 0.258642256259918213
-0.637407660484313965 0.204539567232131958 -0.0839702486991882324
0.619487345218658447 -0.325417041778564453 -0.00266419723629951477
-0.418617010116577148 -0.466134428977966309 -0.221227377653121948
-0.556415855884552002 0.264091610908508301 -0.0814354568719863892
-0.648580729961395264 0.10418354719877243 0.258346140384674072
0.614028692245483398 -0.301568150520324707 0.037279035896062851
0.62066340446472168 -0.358626335859298706 -0.131311401724815369
0.240944132208824158 0.437986940145492554 0.282522976398468018
0.421222716569900513 0.443148642778396606 0.325120687484741211
-0.685853719711303711 0.385520875453948975 0.271017998456954956
0.115361437201499939 0.571826279163360596 0.0589056983590126038
0.0779003649950027466 0.547744810581207275 0.0398515015840530396
0.159293100237846375 0.409062892198562622 0.26141771674156189
-0.568156838417053223 0.399131953716278076 0.234030783176422119
0.646976351737976074 0.19936157763004303 0.262916058301925659
0.663236081600189209 0.370476722717285156 -0.00269317626953125
-0.628133833408355713 -0.337804138660430908 -0.0278340131044387817
-0.68415457010269165 0.0193379037082195282 -0.0592521652579307556
-0.636882662773132324 -0.171560794115066528 -0.0296454280614852905
0.411545097827911377 0.442602992057800293 -0.0672963857650756836
-0.705332100391387939 -0.0103567391633987427 0.040539965033531189
-0.607470929622650146 -0.249344855546951294 -0.204030632972717285
-0.644851386547088623 -0.334731072187423706 -0.228674620389938354
0.691730618476867676 -0.142862081527709961 -0.175216451287269592
-0.694648027420043945 0.273032784461975098 0.245434284210205078
-0.622776985168457031 -0.0738454535603523254 -0.122033648192882538
-0.668500781059265137 -0.0523500367999076843 0.208509102463722229
0.698662459850311279 -0.0328266322612762451 -0.129472345113754272
0.666924476623535156 0.334269076585769653 0.00743837654590606689
0.664944946765899658 0.234410077333450317 -0.0250995457172393799
-0.509559810161590576 -0.416077286005020142 -0.0692483484745025635
0.594585657119750977 -0.437782824039459229 -0.179557919502258301
0.581995606422424316 0.412887156009674072 -0.01879844069480896
0.708872973918914795 -0.142091467976570129 -0.161187544465065002
0.660215616226196289 -0.388305932283401489 -0.179474189877510071
0.460780203342437744 0.44958263635635376 0.00867500528693199158
0.626893043518066406 -0.353006243705749512 -0.187809020280838013
-0.689389824867248535 0.203079983592033386 0.238360568881034851
0.605362534523010254 -0.398129731416702271 -0.104022443294525146
0.689870238304138184 -0.143427297472953796 -0.169104710221290588
-0.701001584529876709 0.142508268356323242 0.0525583475828170776
0.67426764965057373 -0.0782871395349502563 -0.147836610674858093
-0.61344224214553833 0.0774437785148620605 -0.111444748938083649
-0.654474973678588867 0.360139638185501099 0.273184061050415039
-0.577727258205413818 -0.369171738624572754 -0.103420957922935486
0.706647992134094238 -0.198958292603492737 -0.156182646751403809
0.597394347190856934 -0.145428791642189026 -0.0613756030797958374
-0.704845130443572998 0.0850654393434524536 -0.110460922122001648
0.682295680046081543 -0.309797704219818115 -0.172929182648658752
0.66443932056427002 -0.264156430959701538 -0.166940748691558838
-0.64610898494720459 -0.292796909809112549 -0.0282102525234222412
-0.55808258056640625 -0.387153595685958862 -0.24033840000629425
0.533004641532897949 -0.435744524002075195 -0.266281932592391968
0.683503687381744385 -0.105264745652675629 -0.0877776145935058594
-0.696873724460601807 0.353372335433959961 0.273996710777282715
0.52758336067199707 -0.433218270540237427 -0.269537687301635742
0.69549793004989624 -0.301132917404174805 -0.151788458228111267
-0.631598532199859619 0.31127166748046875 -0.0104836374521255493
-0.685806751251220703 -0.0878134816884994507 0.0167077183723449707
0.255378454923629761 0.434793591499328613 0.0252784937620162964
-0.404295921325683594 0.547298073768615723 0.0392151772975921631
-0.69538724422454834 0.218871325254440308 0.255727559328079224
0.70831596851348877 -0.199613228440284729 -0.152707114815711975
0.713621973991394043 0.0631568804383277893 -0.094452977180480957
-0.560417115688323975 0.504623353481292725 0.286601990461349487
-0.681447684764862061 -0.0281120277941226959 -0.134286463260650635
-0.636871337890625 0.291272580623626709 0.164098978042602539
-0.682092547416687012 -0.0335870757699012756 0.158361643552780151
-0.627797365188598633 0.0973843634128570557 -0.119132272899150848
-0.681016921997070312 -0.0399626456201076508 0.143998414278030396
-0.736644387245178223 0.28353506326675415 0.261315405368804932
0.691617250442504883 -0.107685625553131104 -0.173122316598892212
-0.689614415168762207 0.385429859161376953 0.269005179405212402
-0.605775713920593262 0.268171757459640503 0.176810398697853088
-0.644822895526885986 0.208816125988960266 -0.0557484477758407593
0.444456219673156738 0.273690193891525269 0.424005836248397827
0.68032681941986084 0.0787259340286254883 0.255509346723556519
0.493569016456604004 -0.414955228567123413 0.0687453821301460266
0.65271306037902832 -0.205270826816558838 -0.0515802726149559021
0.535624027252197266 0.387962192296981812 0.273533552885055542
-0.687887191772460938 -0.0102935619652271271 0.0503517836332321167
-0.680855512619018555 -0.176198258996009827 -0.0675074681639671326
0.638868093490600586 0.388363361358642578 0.0989080742001533508
-0.671179890632629395 0.00102614983916282654 0.217039525508880615
-0.698887526988983154 -0.0242856070399284363 0.146199226379394531
0.526827812194824219 0.425935506820678711 0.176891237497329712
-0.684443891048431396 -0.278518170118331909 -0.12640950083732605
0.697624266147613525 -0.296135842800140381 -0.151547893881797791
0.59259110689163208 -0.425258010625839233 -0.238886535167694092
0.626142144203186035 0.35288122296333313 0.184059411287307739
0.390961766242980957 0.474043548107147217 0.0115229059010744095
-0.517160892486572266 -0.307593017816543579 -0.207306355237960815
-0.666893482208251953 -0.0713612288236618042 -0.110378384590148926
0.547676444053649902 -0.43046039342880249 -0.234679728746414185
0.712839484214782715 -0.196905583143234253 -0.158868566155433655
0.70674598217010498 -0.290822148323059082 -0.167371943593025208
-0.360136687755584717 0.556944131851196289 0.0166337192058563232
0.537054359912872314 -0.429591387510299683 -0.248541772365570068
0.70575559139251709 -0.0937709584832191467 -0.158788755536079407
0.666488170623779297 -0.366848468780517578 -0.233955740928649902
-0.0185401737689971924 0.49759519100189209 0.00636509060859680176
-0.549081563949584961 0.193741858005523682 -0.107054531574249268
-0.609793424606323242 0.288134872913360596 -0.0582823455333709717
0.694227993488311768 -0.18214726448059082 -0.163640663027763367
-0.583302855491638184 0.376198440790176392 -0.0488462150096893311
-0.368700653314590454 0.541725516319274902 0.0167660117149353027
-0.416428089141845703 0.524924993515014648 0.0408735275268554688
0.390609443187713623 0.434909284114837646 0.0492767766118049622
-0.707439422607421875 0.277941346168518066 0.252875566482543945
-0.125230088829994202 0.456393450498580933 0.0594816654920578003
-0.607874214649200439 -0.318479835987091064 -0.192608162760734558
-0.711681842803955078 0.22796022891998291 0.257339030504226685
0.669688999652862549 -0.283265054225921631 -0.0666964203119277954
-0.576179742813110352 0.272553682327270508 -0.0949343293905258179
0.698451697826385498 0.0628185570240020752 0.216809242963790894
-0.543807327747344971 -0.171059489250183105 -0.135712325572967529
0.695811629295349121 0.0741944685578346252 0.213845431804656982
0.70036768913269043 0.029872111976146698 -0.0926565080881118774
0.22793985903263092 0.46480831503868103 0.0241049714386463165
0.650939345359802246 -0.247147500514984131 0.0689792782068252563
0.618184447288513184 -0.384768694639205933 0.0945993885397911072
0.70381474494934082 -0.209539994597434998 -0.0416975319385528564
0.553845345973968506 0.407248586416244507 0.231628537178039551
-0.686042606830596924 0.00263818725943565369 0.177686840295791626
-0.675569355487823486 -0.100943960249423981 0.00956894457340240479
0.597059249877929688 0.407000929117202759 0.0786227285861968994
-0.695384979248046875 0.120421037077903748 0.2115582674741745
-0.685561835765838623 -0.180153623223304749 -0.0839943438768386841
0.411671817302703857 0.369233280420303345 0.367475748062133789
0.693391859531402588 -0.243368670344352722 -0.194583028554916382
0.570258378982543945 0.343417137861251831 0.335678815841674805
0.615966916084289551 -0.420604497194290161 -0.238285884261131287
0.578171074390411377 0.386414766311645508 0.170889288187026978
0.606651782989501953 -0.389752507209777832 -0.18329368531703949
0.262150943279266357 0.465305566787719727 0.0204983055591583252
0.717495918273925781 -0.0262705311179161072 -0.1033296138048172
-0.47796475887298584 -0.401466399431228638 -0.214155733585357666
-0.601527214050292969 -0.0991963893175125122 -0.0694650262594223022
-0.701588630676269531 0.165625393390655518 0.260275840759277344
0.591869711875915527 -0.433362662792205811 -0.239571809768676758
0.689714729785919189 -0.292240321636199951 -0.147437542676925659
0.634688436985015869 -0.349584639072418213 -0.20157739520072937
0.658763766288757324 0.166240900754928589 0.23737981915473938
0.572918176651000977 -0.389882475137710571 -0.221685260534286499
0.651418864727020264 -0.344972461462020874 -0.224773913621902466
0.670402050018310547 -0.334525078535079956 -0.176460355520248413
0.706916213035583496 -0.0388705357909202576 0.238405078649520874
-0.595335304737091064 0.267348289489746094 -0.019709855318069458
0.681689977645874023 -0.165704220533370972 -0.187197014689445496
-0.558163344860076904 -0.247486412525177002 -0.193660244345664978
-0.681037664413452148 -0.131139248609542847 -0.123975895345211029
-0.532764613628387451 0.403533458709716797 0.0444873571395874023
-0.384487271308898926 0.536660194396972656 0.0169242918491363525
-0.402838587760925293 0.497906267642974854 0.0958259105682373047
0.407294869422912598 0.443028658628463745 0.0515190623700618744
-0.566859722137451172 -0.355607926845550537 -0.195609286427497864
0.230218589305877686 0.397442042827606201 0.079255223274230957
0.663121342658996582 -0.346575260162353516 -0.135336175560951233
0.550182819366455078 -0.446056544780731201 -0.213539436459541321
0.659628152847290039 0.180690869688987732 0.204182922840118408
0.701497077941894531 0.1158619225025177 0.151202023029327393
0.180698364973068237 0.436897069215774536 0.124255001544952393
0.275889158248901367 0.450423091650009155 0.00298434682190418243
0.176398277282714844 0.341144829988479614 0.198666363954544067
-0.609133660793304443 0.437197417020797729 0.256101310253143311
-0.572166800498962402 -0.297624915838241577 -0.172791138291358948
-0.567367434501647949 -0.384574532508850098 -0.245284974575042725
-0.521356523036956787 -0.395713776350021362 -0.194345012307167053
-0.601571619510650635 0.302005469799041748 0.0907139480113983154
-0.649882972240447998 -0.245414286851882935 -0.188283547759056091
0.347905158996582031 -0.522692739963531494 -0.181915074586868286
-0.584145069122314453 -0.350235700607299805 -0.195059716701507568
0.583498954772949219 -0.348197579383850098 -0.206455200910568237
-0.538226127624511719 -0.402538001537322998 -0.248912975192070007
-0.444877803325653076 0.541173338890075684 0.0779207944869995117
-0.311532527208328247 0.582264304161071777 0.0348100960254669189
-0.445060193538665771 -0.394470453262329102 -0.235906898975372314
0.704833149909973145 -0.0886038541793823242 -0.144231006503105164
0.695822715759277344 -0.0353350266814231873 -0.130821719765663147
0.649269640445709229 0.0917512625455856323 -0.064516410231590271
0.312530040740966797 0.457819342613220215 -0.0154739208519458771
-0.695701539516448975 -0.231219202280044556 -0.144553840160369873
-0.621598720550537109 0.270043730735778809 0.0569311827421188354
-0.511186480522155762 -0.411928147077560425 -0.0698577165603637695
-0.711583852767944336 -0.0244224481284618378 0.0105630457401275635
0.36254805326461792 -0.48862805962562561 -0.232800677418708801
-0.662346959114074707 0.364532232284545898 0.27117311954498291
0.68284684419631958 -0.237787768244743347 -0.159450173377990723
-0.489590495824813843 0.424111485481262207 -0.0365679264068603516
-0.704894483089447021 0.227633684873580933 0.263351082801818848
-0.669487893581390381 0.207382991909980774 0.126813888549804688
0.262478053569793701 0.55817103385925293 0.0343359895050525665
-0.409200549125671387 -0.458504647016525269 -0.232015341520309448
0.625602424144744873 -0.351609110832214355 -0.191757276654243469
-0.688843011856079102 0.189190894365310669 0.257287979125976562
0.660003423690795898 0.299501985311508179 -0.0284835100173950195
-0.712125420570373535 0.0133862234652042389 -0.129487365484237671
-0.660771727561950684 -0.22163112461566925 -0.152294263243675232
0.0582279860973358154 0.624859333038330078 0.29296565055847168
-0.677524864673614502 0.419813990592956543 0.273332118988037109
0.708394110202789307 -0.19458577036857605 -0.156513288617134094
0.692014217376708984 -0.309396743774414062 -0.164712101221084595
-0.473816812038421631 0.452544867992401123 0.0594935417175292969
-0.546510696411132812 -0.391162961721420288 -0.235449954867362976
0.622533619403839111 -0.355853050947189331 -0.0928019210696220398
-0.691515088081359863 0.351310282945632935 0.279691606760025024
-0.705946207046508789 -0.00910530984401702881 0.0409347563982009888
-0.665784955024719238 0.368624091148376465 0.266447901725769043
-0.429421842098236084 -0.431396752595901489 -0.210715025663375854
-0.679488301277160645 -0.0296375714242458344 -0.135775476694107056
-0.582405567169189453 -0.31591150164604187 -0.0246637612581253052
-0.71822744607925415 0.27340930700302124 0.27223503589630127
0.41613614559173584 -0.471712172031402588 -0.235347062349319458
-0.613160610198974609 0.43348395824432373 0.258930325508117676
-0.661903262138366699 0.363856047391891479 0.271122723817825317
-0.691045165061950684 0.207460567355155945 0.22846086323261261
-0.699464797973632812 0.352988898754119873 0.274598449468612671
-0.682507157325744629 -0.0990564674139022827 0.0122583061456680298
0.619133234024047852 -0.42207789421081543 -0.238878056406974792
-0.595143914222717285 0.272261917591094971 -0.0168107897043228149
0.0958598703145980835 -0.499209463596343994 -0.172349423170089722
0.421506911516189575 0.424811333417892456 0.152521878480911255
0.238831683993339539 0.419791668653488159 0.250926196575164795
-0.578407883644104004 0.369879484176635742 -0.0333479791879653931
-0.615181863307952881 0.0791304260492324829 -0.132942080497741699
0.709311485290527344 -0.226166114211082458 -0.0711591392755508423
-0.364255189895629883 0.445729196071624756 0.0664402693510055542
-0.624380946159362793 0.0174190551042556763 -0.146670073270797729
-0.687459170818328857 -0.0946000963449478149 -0.100976221263408661
-0.532722115516662598 0.410008251667022705 -0.0364568978548049927
-0.659820497035980225 -0.178933247923851013 -0.185505777597427368
0.655544400215148926 -0.258275359869003296 0.0389786101877689362
-0.656852364540100098 -0.286245524883270264 -0.15598684549331665
-0.453515678644180298 -0.457906216382980347 -0.222010448575019836
0.258722752332687378 0.432776540517807007 -0.00390179082751274109
0.659430384635925293 -0.094401925802230835 0.239641860127449036
-0.658890008926391602 0.107550904154777527 -0.119678065180778503
0.709514796733856201 -0.215832650661468506 -0.0924394577741622925
-0.322031587362289429 -0.482845902442932129 -0.219252198934555054
0.642004668712615967 0.26580280065536499 0.15379786491394043
-0.586393833160400391 -0.309595108032226562 -0.0247891694307327271
0.690194904804229736 0.190563768148422241 -0.0376905426383018494
-0.68108069896697998 -0.0902629345655441284 0.19237200915813446
-0.495176166296005249 -0.388256490230560303 -0.163034945726394653
0.560476243495941162 0.418406754732131958 0.171646356582641602
0.328388869762420654 0.415317386388778687 0.2950095534324646
0.396289229393005371 -0.45798105001449585 -0.128379970788955688
-0.601714253425598145 -0.238328665494918823 -0.0264572054147720337
0.629768908023834229 -0.241076260805130005 -0.0370236337184906006
-0.643825531005859375 -0.047084461897611618 -0.122965402901172638
-0.430256843566894531 -0.418895095586776733 -0.204546362161636353
-0.70038151741027832 0.00427746027708053589 -0.0202380567789077759
0.055150449275970459 0.481110990047454834 0.328534543514251709
-0.683992087841033936 -0.133047744631767273 -0.194022491574287415
0.625651836395263672 -0.302840501070022583 -0.0135874636471271515
0.62845844030380249 -0.36897963285446167 -0.0654501020908355713
-0.674958765506744385 -0.181090489029884338 -0.104028336703777313
0.638701677322387695 -0.309949338436126709 -0.0596988797187805176
-0.524515986442565918 0.418580412864685059 -0.0449494868516921997
0.625948727130889893 -0.0837862342596054077 0.249461248517036438
-0.650419354438781738 0.0758977904915809631 -0.0911587178707122803
0.695563852787017822 -0.269734948873519897 -0.111718043684959412
-0.649110913276672363 0.16325649619102478 -0.102006390690803528
-0.69476318359375 -0.224253922700881958 -0.122692614793777466
-0.578798413276672363 -0.366131007671356201 -0.194163903594017029
0.659125208854675293 0.186320945620536804 0.291777282953262329
-0.37544173002243042 0.559258937835693359 0.0536399334669113159
0.59388267993927002 0.126281186938285828 0.0591157637536525726
-0.693428277969360352 0.174178063869476318 -0.106070250272750854
-0.694269180297851562 0.0104197282344102859 -0.0773268267512321472
-0.689603745937347412 -0.278217673301696777 -0.233856216073036194
-0.526546120643615723 -0.390950441360473633 -0.0662692040205001831
-0.3488616943359375 0.553517818450927734 0.0286193341016769409
-0.729162693023681641 0.0996810495853424072 -0.0174577534198760986
-0.57922673225402832 -0.357237696647644043 -0.18557758629322052
-0.535461544990539551 -0.401964843273162842 -0.247841209173202515
0.201151162385940552 0.495734333992004395 0.0198907740414142609
0.702471494674682617 -0.088667750358581543 -0.148044690489768982
0.691344141960144043 -0.0392382703721523285 -0.141578450798988342
-0.689701974391937256 -0.11569647490978241 -0.139216423034667969
-0.684105277061462402 -0.295452475547790527 -0.226225495338439941
0.67051994800567627 0.33051028847694397 -0.00203676521778106689
0.679012596607208252 -0.0168845169246196747 -0.0497314035892486572
-0.697544693946838379 -0.229757443070411682 -0.145479544997215271
-0.571027398109436035 -0.359316349029541016 -0.0303633809089660645
0.663467645645141602 -0.380862295627593994 -0.157577306032180786
-0.666525661945343018 0.195760831236839294 -0.0902761518955230713
-0.719058752059936523 0.438903212547302246 0.240196198225021362
0.646524906158447266 -0.35361713171005249 -0.134377762675285339
-0.669638931751251221 0.307241946458816528 -0.0249640792608261108
-0.46701088547706604 0.454407185316085815 -0.0297691524028778076
0.689050614833831787 -0.237303987145423889 -0.154965370893478394
-0.687856554985046387 0.00887080468237400055 -0.131293892860412598
0.641223013401031494 -0.409232199192047119 -0.233461350202560425
-0.689521551132202148 0.290329426527023315 0.222468644380569458
0.07123594731092453 0.615526437759399414 0.290196359157562256
0.680453121662139893 -0.256064146757125854 0.204317033290863037
-0.28814232349395752 0.557970523834228516 0.0196673125028610229
0.178036198019981384 0.544782161712646484 0.312048912048339844
0.71219325065612793 0.0214766561985015869 0.0187090486288070679
-0.67344963550567627 0.358237385749816895 0.253798454999923706
-0.564190864562988281 0.369226306676864624 -0.0493817627429962158
-0.705398678779602051 0.00502558983862400055 -0.130619972944259644
-0.365157485008239746 0.56572335958480835 0.0609842389822006226
0.703844070434570312 -0.190930619835853577 -0.154710844159126282
0.69973909854888916 -0.0429684743285179138 -0.0467668920755386353
-0.544896960258483887 -0.390596956014633179 -0.238652646541595459
-0.684067070484161377 0.349972069263458252 0.280091613531112671
-0.601736307144165039 0.365294337272644043 0.233931630849838257
-0.392210990190505981 0.53884589672088623 0.0436683148145675659
0.607504785060882568 0.333501636981964111 0.166308119893074036
-0.430123388767242432 -0.430448710918426514 -0.214774906635284424
-0.646177172660827637 -0.337558835744857788 -0.232871547341346741
-0.657213330268859863 0.362202107906341553 0.275344997644424438
-0.688987970352172852 0.203083619475364685 0.236005634069442749
-0.688277482986450195 -0.0744683891534805298 0.0158395320177078247
-0.484373718500137329 -0.32523152232170105 0.176303476095199585
0.560773909091949463 0.407312840223312378 0.240182206034660339
-0.412644356489181519 0.460127770900726318 0.0154859870672225952
0.251608788967132568 0.56777036190032959 0.0325971879065036774
-0.580039739608764648 -0.314509361982345581 -0.0192694813013076782
-0.611443996429443359 0.281723290681838989 -0.0641343891620635986
-0.585144400596618652 0.369357883930206299 -0.0387097671627998352
-0.591096162796020508 -0.312385261058807373 -0.025312468409538269
-0.610101759433746338 -0.245591297745704651 -0.039343029260635376
-0.690793752670288086 -0.0392944738268852234 -0.0251426100730895996
0.696364760398864746 -0.270373314619064331 -0.110953807830810547
-0.690438926219940186 -0.224134057760238647 -0.119290150701999664
-0.542059898376464844 -0.350891202688217163 -0.0200599581003189087
0.495097488164901733 0.394104301929473877 0.338047891855239868
0.44639858603477478 -0.475687563419342041 0.123904973268508911
0.539650440216064453 -0.413762867450714111 0.0894627273082733154
0.633142948150634766 -0.376145631074905396 -0.0962553322315216064
0.612458109855651855 -0.337450921535491943 0.199003621935844421
-0.530813694000244141 -0.393089324235916138 -0.14935600757598877
0.375001400709152222 0.366767227649688721 0.257932662963867188
-0.67378544807434082 0.12884974479675293 0.207091942429542542
0.601815581321716309 0.36812552809715271 0.0608321130275726318
0.286285758018493652 0.4160003662109375 0.105474948883056641
0.243846222758293152 0.407061278820037842 0.145175963640213013
0.713341236114501953 -0.0331961587071418762 -0.00328911095857620239
0.696046531200408936 -0.137573540210723877 -0.0666940510272979736
0.599956929683685303 -0.422407984733581543 -0.235356047749519348
0.702327966690063477 -0.0459659285843372345 0.0540783852338790894
0.54452282190322876 0.366249024868011475 0.249795883893966675
0.541045546531677246 -0.0454232171177864075 0.257802218198776245
0.700177311897277832 -0.179425925016403198 -0.142076462507247925
0.700234413146972656 0.108492620289325714 0.170554876327514648
0.131514638662338257 0.412096202373504639 0.308118253946304321
0.361249715089797974 0.41931837797164917 0.314867854118347168
-0.700887441635131836 -0.0508925914764404297 -0.0636633634567260742
0.315549731254577637 0.485978752374649048 -0.0709447786211967468
0.569873452186584473 -0.471563607454299927 0.066502593457698822
-0.603422164916992188 -0.17947271466255188 -0.12282455712556839
-0.59587407112121582 -0.113133460283279419 -0.0760881900787353516
-0.555948138236999512 -0.353127777576446533 -0.0249457955360412598
-0.61588519811630249 -0.251245498657226562 -0.144692331552505493
0.697791755199432373 0.0189234279096126556 0.164128974080085754
-0.683951616287231445 0.0652279332280158997 0.00815187394618988037
0.465560019016265869 0.414383381605148315 -0.0448710396885871887
