ply
format ascii 1.0
element vertex 743
property float x
property float y
property float z
end_header
0.276631712913513184 -0.297620952129364014 -0.354202747344970703
0.359312176704406738 -0.225749954581260681 -0.317854732275009155
0.339951395988464355 -0.0143129527568817139 0.184099242091178894
0.291931360960006714 -0.307341605424880981 -0.353314578533172607
0.388463824987411499 -0.154643312096595764 -0.316230595111846924
-0.391066282987594604 0.157092660665512085 0.264872878789901733
-0.364222258329391479 -0.317962169647216797 0.0479860715568065643
-0.356150686740875244 -0.322786688804626465 0.0562358275055885315
-0.28879818320274353 -0.278372615575790405 0.0574797503650188446
-0.469633400440216064 -0.0922202244400978088 0.224858015775680542
0.38395342230796814 0.320113539695739746 -0.183254271745681763
-0.393149495124816895 0.109925046563148499 0.156828537583351135
0.398288875818252563 -0.265053600072860718 -0.351797729730606079
-0.384552121162414551 -0.0954667925834655762 0.144349426031112671
0.314055263996124268 -0.271636009216308594 -0.343669414520263672
0.217221289873123169 -0.319012671709060669 0.120394349098205566
-0.403099805116653442 -0.274174213409423828 0.236314684152603149
0.337865382432937622 -0.239416658878326416 -0.181245550513267517
0.312635600566864014 -0.318399190902709961 -0.330441504716873169
-0.462151080369949341 -0.0898796990513801575 0.243523627519607544
0.287860125303268433 0.297461330890655518 -0.143380671739578247
-0.347622901201248169 0.298372775316238403 0.284485876560211182
-0.384584963321685791 -0.281792551279067993 0.064456745982170105
0.470914959907531738 0.17947755753993988 -0.246754080057144165
0.337096333503723145 0.312845110893249512 -0.171519964933395386
-0.426798254251480103 -0.139531493186950684 0.14844667911529541
0.416921645402908325 -0.256913274526596069 -0.343415409326553345
0.264669954776763916 0.442719578742980957 0.0459573045372962952
0.429010748863220215 -0.200991660356521606 -0.335882306098937988
-0.330083906650543213 -0.224914878606796265 0.300527781248092651
0.416322946548461914 -0.072343483567237854 -0.242060810327529907
-0.345532894134521484 -0.336441755294799805 0.30307692289352417
-0.447101593017578125 -0.138755097985267639 0.21310056746006012
0.357433557510375977 -0.200948283076286316 -0.287725925445556641
-0.308292984962463379 -0.353397011756896973 0.122647553682327271
0.416918933391571045 0.123665332794189453 -0.167157918214797974
0.356259614229202271 0.20874902606010437 -0.118189349770545959
0.478640168905258179 0.224820643663406372 -0.219439804553985596
0.255242466926574707 0.333474963903427124 0.39544069766998291
0.3910713791847229 -0.270597130060195923 -0.287899315357208252
-0.430573791265487671 0.0671781748533248901 0.35074162483215332
0.366078704595565796 -0.060364745557308197 0.215513497591018677
0.211117640137672424 -0.328408658504486084 0.0922208502888679504
0.415303528308868408 0.00895735993981361389 -0.297884553670883179
-0.456029146909713745 -0.0131335435435175896 0.295761704444885254
-0.426079034805297852 -0.0609877333045005798 0.371892929077148438
-0.492830634117126465 0.218205168843269348 0.238964051008224487
-0.454165041446685791 0.121501818299293518 0.344148069620132446
0.431333750486373901 -0.138829275965690613 -0.294995933771133423
0.426830708980560303 -0.0508824437856674194 -0.176619574427604675
-0.420707017183303833 0.0572526156902313232 0.126824066042900085
-0.35503724217414856 -0.313900232315063477 0.138545900583267212
-0.388678073883056641 0.15777134895324707 0.352920711040496826
0.359744399785995483 0.132392197847366333 -0.0921226367354393005
0.401555806398391724 -0.15548388659954071 -0.200609475374221802
0.351625204086303711 -0.101763054728507996 -0.073025725781917572
-0.448761045932769775 0.175236254930496216 0.415703713893890381
-0.47180861234664917 -0.171702280640602112 0.378142178058624268
0.329958885908126831 -0.0030293390154838562 0.226850897073745728
0.178883135318756104 0.100176513195037842 0.245323017239570618
-0.428771257400512695 0.187597081065177917 0.367221057415008545
-0.439886212348937988 0.302612721920013428 0.371847212314605713
0.32550889253616333 -0.252557992935180664 -0.146566718816757202
-0.449793487787246704 -0.0589557774364948273 0.327603191137313843
0.447324663400650024 0.247889801859855652 -0.0990970432758331299
-0.479623973369598389 0.277948081493377686 0.421908169984817505
-0.36392548680305481 -0.3144855797290802 0.0411228872835636139
0.449196904897689819 -0.0780917778611183167 -0.289787918329238892
-0.35913008451461792 -0.219371125102043152 0.0923487544059753418
0.384373366832733154 0.34886854887008667 -0.0932467058300971985
-0.355749636888504028 -0.321077078580856323 0.0552442222833633423
0.37894827127456665 -0.263461381196975708 -0.366967320442199707
0.475955337285995483 0.112496137619018555 -0.222388014197349548
0.404161304235458374 -0.265258848667144775 -0.357375085353851318
-0.45125231146812439 0.122879266738891602 0.404746741056442261
0.407189428806304932 -0.210145890712738037 -0.332464218139648438
-0.225900366902351379 -0.402338147163391113 0.0288079231977462769
-0.470309078693389893 -0.0692690536379814148 0.223738372325897217
-0.391605943441390991 -0.0142511874437332153 0.156320929527282715
0.34438169002532959 -0.312723159790039062 -0.250999093055725098
0.356971323490142822 -0.297023743391036987 -0.382472753524780273
0.432298600673675537 0.316370755434036255 -0.206789866089820862
-0.467457771301269531 -0.273957550525665283 0.336206197738647461
-0.340605080127716064 0.295103520154953003 0.27765008807182312
-0.374548792839050293 -0.281376540660858154 0.0642107650637626648
-0.41955101490020752 0.0688311159610748291 0.386086136102676392
-0.378606617450714111 -0.244032919406890869 0.0981002897024154663
-0.368235617876052856 0.0431520417332649231 0.404152899980545044
-0.127588629722595215 0.374967217445373535 0.215426176786422729
0.309708654880523682 0.36605536937713623 0.0532755851745605469
-0.43534514307975769 -0.17004096508026123 0.141216084361076355
0.317601561546325684 -0.309488147497177124 -0.33930891752243042
0.474316179752349854 0.179966911673545837 -0.247563183307647705
-0.43557053804397583 -0.0706823542714118958 0.36538967490196228
-0.429844021797180176 0.0629660859704017639 0.128782123327255249
-0.471421003341674805 -0.168649658560752869 0.38019213080406189
0.32973945140838623 -0.178075626492500305 -0.0244713164865970612
-0.389938414096832275 0.254516392946243286 0.41907346248626709
0.416124671697616577 -0.0433748215436935425 -0.285578012466430664
0.360570311546325684 -0.240230247378349304 -0.242448002099990845
0.370953112840652466 -0.0901729539036750793 0.125547543168067932
0.428697347640991211 0.124576695263385773 -0.117978192865848541
-0.263779342174530029 -0.362156033515930176 0.0661730766296386719
0.411618143320083618 -0.197509109973907471 -0.321610838174819946
-0.447045087814331055 -0.0726195722818374634 0.384857416152954102
-0.401885658502578735 0.232623711228370667 0.399500101804733276
0.346871614456176758 -0.246106594800949097 -0.230279386043548584
0.361218810081481934 -0.251456677913665771 -0.252945601940155029
0.298640549182891846 0.303663462400436401 0.251802533864974976
0.291446775197982788 0.379223942756652832 0.0434395074844360352
-0.0194465294480323792 0.41894233226776123 0.216988518834114075
-0.433096796274185181 0.187042832374572754 0.413160890340805054
0.37070891261100769 -0.316544830799102783 -0.380047887563705444
-0.171318873763084412 0.342519819736480713 0.284237980842590332
0.0985033288598060608 0.220082283020019531 0.103157632052898407
-0.426937282085418701 0.187285900115966797 0.42300182580947876
0.397572636604309082 -0.145787060260772705 -0.280462384223937988
-0.124947667121887207 0.338154494762420654 0.2069874107837677
-0.350675523281097412 0.185915485024452209 0.154597371816635132
0.305390387773513794 0.00133107975125312805 0.238800317049026489
-0.161139369010925293 0.388083010911941528 0.393854230642318726
0.130578085780143738 -0.366078943014144897 -0.0687828436493873596
0.418180346488952637 0.0344867408275604248 -0.105860017240047455
0.439842969179153442 -0.208901330828666687 -0.33806881308555603
-0.406851977109909058 0.297437995672225952 0.433826804161071777
-0.284392982721328735 -0.382776558399200439 0.0694460570812225342
-0.449722170829772949 -0.168469220399856567 0.391965925693511963
-0.479995787143707275 0.246391728520393372 0.399292558431625366
0.349429458379745483 -0.239301532506942749 -0.240358233451843262
0.305710136890411377 0.299470454454421997 0.00715540722012519836
0.362071961164474487 -0.136283278465270996 -0.092631116509437561
0.351384013891220093 -0.105589143931865692 -0.222176626324653625
0.308176755905151367 0.304557234048843384 0.0441753827035427094
0.36746707558631897 0.344487369060516357 -0.183283492922782898
0.230633288621902466 -0.304373085498809814 0.0250641759485006332
-0.423915982246398926 0.0390738621354103088 0.358051776885986328
0.353014111518859863 -0.321593403816223145 -0.385467231273651123
0.441213399171829224 0.243353769183158875 -0.0979659035801887512
-0.455437660217285156 -0.0604354590177536011 0.330357164144515991
-0.35251888632774353 -0.31188550591468811 0.0433733351528644562
0.440827488899230957 -0.0544181391596794128 -0.297463297843933105
-0.351571708917617798 -0.212180256843566895 0.096776813268661499
-0.173385500907897949 0.336844742298126221 0.259222984313964844
-0.325365006923675537 0.276339799165725708 0.152258902788162231
0.330572605133056641 0.0686577856540679932 0.227311685681343079
0.405120402574539185 -0.263491898775100708 -0.346328467130661011
0.421533584594726562 -0.0850421488285064697 -0.28721541166305542
0.416303366422653198 0.31855928897857666 -0.199954017996788025
-0.448401153087615967 0.0582441277801990509 0.167726665735244751
0.372659385204315186 0.324530720710754395 -0.152010887861251831
-0.405706226825714111 -0.027253786101937294 0.151753321290016174
-0.436336547136306763 0.29864916205406189 0.42164534330368042
-0.33668208122253418 -0.316482633352279663 0.299638509750366211
0.482725352048873901 0.232688426971435547 -0.237244516611099243
0.348777174949645996 -0.248393326997756958 -0.30004546046257019
0.400855511426925659 -0.186492919921875 -0.341726601123809814
-0.380756258964538574 -0.277744144201278687 0.0641742497682571411
-0.449640005826950073 0.0603234618902206421 0.327584981918334961
-0.471656441688537598 0.0213127508759498596 0.272578716278076172
0.47169417142868042 0.180005565285682678 -0.247806176543235779
-0.357194602489471436 0.280420869588851929 0.167930960655212402
0.436904728412628174 0.0602888129651546478 -0.132954731583595276
0.335910946130752563 -0.341625779867172241 -0.226084575057029724
0.422574013471603394 -0.125131562352180481 -0.303990066051483154
-0.307080626487731934 0.315696954727172852 0.183672964572906494
-0.322256714105606079 -0.343129575252532959 0.0415678992867469788
-0.39481043815612793 -0.269413501024246216 0.0715100020170211792
0.437711417675018311 0.107422642409801483 -0.279529213905334473
0.304513007402420044 -0.0195991173386573792 0.216060429811477661
0.468468040227890015 0.172464475035667419 -0.251761704683303833
-0.43391495943069458 -0.147151082754135132 0.148857861757278442
0.264016926288604736 0.420586138963699341 0.0411998480558395386
-0.485831528902053833 0.210170567035675049 0.239914059638977051
-0.477277845144271851 0.274547040462493896 0.423886001110076904
0.452770233154296875 -0.0764270126819610596 -0.290106683969497681
0.395867705345153809 -0.263629555702209473 -0.357367932796478271
-0.383169680833816528 -0.0138403596356511116 0.145129412412643433
0.235070124268531799 0.440441727638244629 0.0497252047061920166
0.402660191059112549 -0.0442214235663414001 -0.287024766206741333
-0.0172916054725646973 0.415584444999694824 0.210794210433959961
0.372579842805862427 -0.322595447301864624 -0.379849433898925781
-0.12396104633808136 0.336656302213668823 0.206387579441070557
0.404090970754623413 -0.239382296800613403 -0.3506011962890625
-0.438611656427383423 0.0442674681544303894 0.343323588371276855
0.360284328460693359 -0.326654344797134399 -0.387202024459838867
0.373112469911575317 0.247007042169570923 0.0543694458901882172
0.397608786821365356 0.0215285178273916245 -0.304115563631057739
-0.0291704684495925903 0.410453051328659058 0.209825336933135986
-0.467297285795211792 0.00470289494842290878 0.278651297092437744
0.398754358291625977 0.230415165424346924 -0.000413920730352401733
-0.0252999179065227509 0.435550093650817871 0.243657350540161133
-0.374113231897354126 0.20334288477897644 0.262909621000289917
0.395229041576385498 0.0648862719535827637 0.0673661231994628906
0.360177516937255859 0.0906725078821182251 0.18308626115322113
-0.350865274667739868 0.184178173542022705 0.407890409231185913
0.44121849536895752 0.0409724712371826172 -0.291702181100845337
0.0906315892934799194 0.10470917820930481 0.0659247860312461853
-0.431266158819198608 0.0614963993430137634 0.208781778812408447
0.414184272289276123 -0.105066753923892975 -0.281061708927154541
-0.331083983182907104 -0.250333994626998901 0.307716459035873413
-0.0688467621803283691 0.363689690828323364 0.421294838190078735
0.186354711651802063 0.336542636156082153 0.109080001711845398
0.375349849462509155 0.308931320905685425 -0.0744783282279968262
0.41871190071105957 -0.244242370128631592 -0.348065376281738281
-0.364606380462646484 0.0229961853474378586 0.118051022291183472
0.363098561763763428 0.201119586825370789 0.0567772611975669861
0.171893000602722168 0.283811867237091064 0.00753014162182807922
-0.418242394924163818 -0.260518819093704224 0.108237572014331818
-0.208193331956863403 0.417040884494781494 0.293274044990539551
0.3411063551902771 0.329951822757720947 -0.0621367543935775757
0.171141773462295532 0.284544467926025391 0.0150973834097385406
0.394796878099441528 0.132119014859199524 -0.217011690139770508
0.330383628606796265 -0.238942995667457581 -0.1740579754114151
-0.409265697002410889 0.0174167603254318237 0.37528693675994873
0.366128653287887573 -0.281738907098770142 -0.369276523590087891
-0.412625491619110107 0.211970239877700806 0.145128220319747925
-0.337934195995330811 -0.198262780904769897 0.137251973152160645
0.414497345685958862 -0.018579825758934021 -0.301168590784072876
0.349472522735595703 -0.137376606464385986 0.0961381644010543823
0.34676826000213623 -0.108894526958465576 0.0837529748678207397
-0.00461760908365249634 0.412900745868682861 0.203262075781822205
-0.028147377073764801 0.4018726646900177 0.208564475178718567
-0.462572336196899414 -0.0171926990151405334 0.308357656002044678
0.405400872230529785 0.224861681461334229 -0.0100275501608848572
0.367846190929412842 -0.0382352173328399658 0.0779457986354827881
0.362410217523574829 0.104987099766731262 0.159883856773376465
0.369574487209320068 -0.192988798022270203 -0.278887450695037842
-0.338120907545089722 0.253762871026992798 0.408866256475448608
-0.420938402414321899 0.125184774398803711 0.412776142358779907
0.426559478044509888 -0.106479808688163757 -0.257074087858200073
-0.424603939056396484 -0.10138317197561264 0.188663572072982788
0.193707093596458435 0.336095333099365234 0.0964680463075637817
-0.474649250507354736 -0.168352842330932617 0.369472086429595947
0.348990738391876221 -0.248928070068359375 -0.313773512840270996
-0.392555654048919678 -0.0698797106742858887 0.0966821908950805664
-0.381597965955734253 0.0732798278331756592 0.373137056827545166
0.183229416608810425 0.324109196662902832 0.00582666322588920593
-0.214459881186485291 0.335573047399520874 0.406265199184417725
-0.408624738454818726 -0.203323066234588623 0.150715187191963196
0.334738969802856445 0.221835434436798096 -0.123574085533618927
0.145455628633499146 0.26067054271697998 0.042940530925989151
0.417327255010604858 0.166483864188194275 -0.214838176965713501
-0.414453953504562378 -0.191453054547309875 0.157109767198562622
0.277688026428222656 -0.341048479080200195 -0.352905750274658203
-0.321275770664215088 0.185083150863647461 0.15416407585144043
-0.407106071710586548 -0.10664571076631546 0.149529159069061279
0.41965329647064209 -0.0163975842297077179 -0.295150458812713623
0.355757743120193481 -0.164040610194206238 0.0598655901849269867
0.324133425951004028 -0.132670924067497253 0.0936427786946296692
-0.458545386791229248 0.156541943550109863 0.401663154363632202
0.071858823299407959 0.0759758949279785156 0.0917510688304901123
-0.215869754552841187 0.286266177892684937 0.193474918603897095
-0.00370261818170547485 0.440768659114837646 0.226843535900115967
0.278968989849090576 0.166254490613937378 0.285252273082733154
0.387046247720718384 0.230770885944366455 -0.0132110444828867912
-0.465927541255950928 0.269995599985122681 0.433072775602340698
0.428190857172012329 -0.0411557778716087341 -0.28773769736289978
-0.386065393686294556 0.293670505285263062 0.424587041139602661
0.420335888862609863 -0.217085942625999451 -0.355171799659729004
-0.316215634346008301 0.263034939765930176 0.153283536434173584
0.377173930406570435 -0.114896953105926514 -0.279138088226318359
0.375774532556533813 -0.285692095756530762 -0.355780541896820068
0.409371882677078247 -0.268855631351470947 -0.347932159900665283
-0.466593891382217407 -0.00889358855783939362 0.201631158590316772
0.422035276889801025 -0.084105268120765686 -0.2820090651512146
0.391793102025985718 -0.16631472110748291 -0.330311387777328491
0.458313792943954468 -0.192889943718910217 -0.320807933807373047
-0.484009772539138794 -0.0571859925985336304 0.209307372570037842
0.403804153203964233 -0.0767721906304359436 -0.25895923376083374
0.479528605937957764 0.165636599063873291 -0.242394953966140747
0.35967707633972168 -0.315495133399963379 -0.376833885908126831
0.431543678045272827 0.083490327000617981 -0.293870270252227783
0.424133121967315674 -0.0866817161440849304 -0.300947606563568115
-0.351609915494918823 0.271934181451797485 0.160658031702041626
0.421491861343383789 -0.127852931618690491 -0.306085109710693359
0.417748898267745972 -0.250727385282516479 -0.353499263525009155
0.35537266731262207 -0.311724007129669189 -0.383751571178436279
0.218662559986114502 0.458291053771972656 0.328287810087203979
0.384641528129577637 0.254649549722671509 0.00653550028800964355
0.366702288389205933 0.322740167379379272 -0.0728030353784561157
-0.288232475519180298 0.360125184059143066 0.341480046510696411
0.148477509617805481 0.318307161331176758 0.271967858076095581
0.376970231533050537 0.238165333867073059 -0.106600180268287659
-0.360723137855529785 -0.335343837738037109 0.113140910863876343
0.418189644813537598 -0.0440881326794624329 -0.12840995192527771
0.397944509983062744 -0.10295017808675766 -0.300679028034210205
-0.454102486371994019 -0.161241307854652405 0.201879173517227173
0.413772881031036377 -0.0619664676487445831 -0.2532520592212677
-0.40886986255645752 -0.25340542197227478 0.069222375750541687
-0.339742898941040039 -0.301655888557434082 0.0182955898344516754
0.403609991073608398 -0.149338722229003906 -0.270009547472000122
0.306726396083831787 0.338745802640914917 0.195892304182052612
0.351587384939193726 0.117550760507583618 0.0449868142604827881
-0.398884475231170654 0.101125285029411316 0.0798917859792709351
-0.228328242897987366 0.396404415369033813 0.250147134065628052
0.320607095956802368 -0.29573899507522583 -0.370537996292114258
0.414505869150161743 -0.266360372304916382 -0.348896712064743042
-0.408739805221557617 -0.16503480076789856 0.148040995001792908
0.154056668281555176 0.353262603282928467 0.357031822204589844
0.355999767780303955 -0.279795080423355103 -0.256888926029205322
-0.404768973588943481 -0.253372550010681152 0.0778098702430725098
0.394912987947463989 0.0593098029494285583 -0.215838074684143066
0.289848923683166504 -0.334801852703094482 -0.368971347808837891
0.338844269514083862 -0.273486047983169556 -0.357717156410217285
0.441211342811584473 -0.137207403779029846 -0.286899328231811523
-0.258346199989318848 -0.347204744815826416 0.0221252962946891785
0.011811455711722374 0.294757962226867676 0.366118550300598145
-0.465350449085235596 -0.0386868491768836975 0.311794906854629517
0.162965044379234314 0.020692288875579834 0.22858874499797821
0.389518678188323975 0.23117576539516449 0.0246316716074943542
0.347185850143432617 -0.222867175936698914 -0.197691962122917175
-0.395914465188980103 -0.247782707214355469 -0.00645456463098526001
0.461487889289855957 -0.32019352912902832 -0.25758245587348938
-0.469911903142929077 -0.00190386734902858734 0.214680194854736328
0.299630224704742432 0.0443673431873321533 0.100137665867805481
0.406819701194763184 -0.209166228771209717 -0.187401726841926575
-0.349146276712417603 -0.252513408660888672 0.00877041369676589966
0.250984400510787964 0.159010589122772217 0.141946658492088318
-0.436239302158355713 -0.0232556574046611786 0.341962873935699463
-0.458232998847961426 0.146891176700592041 0.323911696672439575
0.431160658597946167 0.0164535138756036758 -0.295898169279098511
-0.374533623456954956 -0.258314758539199829 -0.018001168966293335
0.217855304479598999 -0.376787006855010986 -0.0128200612962245941
-0.371630668640136719 0.164597108960151672 0.330565571784973145
0.389952957630157471 0.341305255889892578 -0.167594790458679199
0.416488766670227051 -0.0193093307316303253 -0.299604505300521851
0.354873865842819214 -0.0993455871939659119 0.157125800848007202
-0.469993382692337036 0.186320990324020386 0.20708891749382019
0.436836361885070801 -0.0800238922238349915 -0.282222151756286621
0.276994407176971436 -0.266465306282043457 0.104263968765735626
0.376408159732818604 -0.0445543006062507629 0.229639902710914612
0.425112158060073853 -0.0804063975811004639 -0.268850237131118774
0.454701364040374756 0.0490012802183628082 -0.265825957059860229
0.1239638552069664 0.398590594530105591 0.187128737568855286
0.347849458456039429 -0.31255534291267395 -0.364838212728500366
0.433559030294418335 -0.0283586643636226654 -0.29033428430557251
0.258366525173187256 -0.356973707675933838 -0.071216389536857605
0.336806207895278931 -0.288269162178039551 -0.236019641160964966
-0.400323867797851562 0.267727792263031006 0.419104874134063721
0.439268201589584351 -0.176552951335906982 -0.316122889518737793
0.324336111545562744 0.372397273778915405 -0.1447724848985672
0.436462700366973877 -0.140859752893447876 -0.293708384037017822
0.370804429054260254 -0.29078403115272522 -0.333494693040847778
-0.0335997939109802246 0.41407129168510437 0.268820524215698242
0.328307449817657471 -0.193090468645095825 -0.148055016994476318
0.34155920147895813 0.274620801210403442 -0.0744124427437782288
0.242766484618186951 0.235277682542800903 0.192220762372016907
0.370341479778289795 -0.0675193369388580322 0.175667077302932739
0.430124938488006592 0.312825143337249756 -0.197568416595458984
0.389939874410629272 -0.160752356052398682 -0.113508790731430054
0.195904701948165894 -0.360973894596099854 -0.169966012239456177
-0.422007262706756592 0.0738406926393508911 0.242015749216079712
0.418639719486236572 0.0828671157360076904 0.23376898467540741
0.360132336616516113 0.268265426158905029 0.0112407319247722626
0.197654455900192261 0.0815785229206085205 0.218740403652191162
-0.50759512186050415 0.198517844080924988 0.279530525207519531
0.330146074295043945 -0.165609255433082581 -0.235442370176315308
0.364735186100006104 -0.112661868333816528 0.161827534437179565
0.393239408731460571 -0.107180744409561157 -0.112814828753471375
-0.395661026239395142 0.251728624105453491 0.410833507776260376
0.265960454940795898 0.137358665466308594 0.236715257167816162
-0.35617440938949585 -0.31970447301864624 0.128789186477661133
0.28377118706703186 0.316250473260879517 0.0084262751042842865
0.20684012770652771 -0.430451661348342896 -0.00734187290072441101
0.366950243711471558 0.290002584457397461 0.0912303924560546875
0.415107041597366333 -0.195886403322219849 -0.304143339395523071
-0.378063380718231201 -0.12096627801656723 0.176322847604751587
0.208305597305297852 -0.319930613040924072 -0.183844104409217834
0.349505245685577393 -0.195209980010986328 -0.268750220537185669
0.223637551069259644 -0.30172884464263916 -0.319871962070465088
0.375373184680938721 -0.182485073804855347 0.0833602696657180786
0.38454630970954895 0.326632201671600342 -0.101045720279216766
0.438893407583236694 0.25325930118560791 -0.22812652587890625
0.397740840911865234 0.213483080267906189 -0.11771751195192337
0.400343805551528931 0.11103077232837677 0.0937981456518173218
0.424563050270080566 0.208219245076179504 -0.0243506096303462982
0.389818370342254639 -0.103511989116668701 -0.311075389385223389
-0.380773365497589111 -0.305309921503067017 0.123338870704174042
-0.383697509765625 -0.253080427646636963 0.136718392372131348
-0.294813066720962524 -0.357561111450195312 0.132448166608810425
-0.338057935237884521 0.283339828252792358 0.209348410367965698
-0.394975036382675171 -0.248398765921592712 0.131401181221008301
0.285734295845031738 -0.183943271636962891 0.197039693593978882
0.333123385906219482 -0.295594513416290283 -0.270558357238769531
0.369787335395812988 0.359322667121887207 -0.146740064024925232
-0.370359718799591064 -0.289580106735229492 0.31404644250869751
0.4601002037525177 0.0414067171514034271 -0.268244564533233643
-0.377877473831176758 0.167384922504425049 0.179641097784042358
-0.34679865837097168 -0.341109395027160645 0.172112107276916504
0.215802028775215149 0.346854895353317261 0.0896693915128707886
0.157335951924324036 -0.239918053150177002 -0.150032415986061096
0.329353064298629761 -0.300564825534820557 -0.194969296455383301
-0.335699766874313354 -0.34990769624710083 0.127099588513374329
0.374330043792724609 -0.289005577564239502 -0.344312459230422974
0.364710897207260132 -0.253236681222915649 -0.272821903228759766
0.406704485416412354 -0.20101495087146759 -0.307618439197540283
0.320799916982650757 -0.24118979275226593 -0.140046507120132446
-0.448621511459350586 0.0282303895801305771 0.218475937843322754
-0.377275586128234863 0.164620682597160339 0.320552915334701538
0.416815489530563354 -0.0419383198022842407 -0.0522871948778629303
0.349601089954376221 -0.262365669012069702 -0.244949251413345337
-0.337631732225418091 -0.29269292950630188 0.014479372650384903
0.33044666051864624 -0.2556915283203125 -0.129084870219230652
0.457001358270645142 0.0307394638657569885 -0.271358966827392578
0.338754832744598389 -0.296976566314697266 -0.234421312808990479
0.239349260926246643 0.483261555433273315 0.129631161689758301
0.323558241128921509 0.372551083564758301 -0.144852235913276672
0.358400911092758179 -0.314077079296112061 -0.379352837800979614
0.366871893405914307 -0.296179413795471191 -0.335284948348999023
-0.338896125555038452 0.317797213792800903 0.436707556247711182
-0.460841327905654907 -0.021113349124789238 0.278147876262664795
0.377084940671920776 -0.149428173899650574 -0.102450460195541382
0.194507643580436707 -0.348196893930435181 -0.172040700912475586
0.294185221195220947 0.318134129047393799 -0.0447586588561534882
0.35837090015411377 -0.239951536059379578 -0.189709842205047607
-0.424946427345275879 0.0764610916376113892 0.234638378024101257
-0.500721871852874756 0.192785933613777161 0.283978372812271118
0.334265172481536865 0.337665677070617676 -0.0769896060228347778
0.118332043290138245 0.161306619644165039 0.229257658123970032
0.317678898572921753 0.103045731782913208 0.24413067102432251
0.214654400944709778 0.335789680480957031 0.0487797707319259644
0.261645138263702393 0.196243971586227417 0.154984205961227417
0.347416579723358154 0.120856665074825287 0.160944938659667969
-0.348367124795913696 0.299845367670059204 0.431956052780151367
0.449549496173858643 0.0952535420656204224 -0.0914313942193984985
-0.34343835711479187 0.0149198547005653381 0.189842164516448975
0.424261629581451416 0.102360919117927551 -0.0915213227272033691
-0.422725677490234375 0.10232098400592804 0.254084765911102295
0.406773149967193604 -0.236252516508102417 -0.356538921594619751
0.439095646142959595 -0.164814800024032593 -0.330616474151611328
0.349866420030593872 0.278969168663024902 0.0326168835163116455
0.340858370065689087 -0.250839710235595703 -0.20849686861038208
0.220636054873466492 0.365723967552185059 0.169960945844650269
0.175929591059684753 -0.294720828533172607 -0.142280742526054382
0.390185087919235229 -0.171543985605239868 -0.249530166387557983
-0.350190162658691406 -0.259162485599517822 0.144699156284332275
0.384894818067550659 0.183794617652893066 0.0641811415553092957
0.410538047552108765 -0.0185158848762512207 -0.311026871204376221
0.242914170026779175 0.276478767395019531 0.254838764667510986
-0.42889973521232605 0.077775903046131134 0.253342688083648682
0.367166280746459961 -0.221934989094734192 -0.299833059310913086
0.147992610931396484 0.139764219522476196 0.142238646745681763
-0.445720970630645752 0.170978724956512451 0.4133414626121521
-0.463120967149734497 0.223917499184608459 0.431640267372131348
0.366736650466918945 0.0960091501474380493 0.164195701479911804
-0.433480173349380493 0.0580321326851844788 0.375872880220413208
0.433945149183273315 -0.220883220434188843 -0.34698784351348877
0.475083351135253906 -0.0200184248387813568 -0.209848374128341675
0.361173540353775024 0.0714383572340011597 0.151426747441291809
0.0928335189819335938 0.265102207660675049 0.199229657649993896
0.402286767959594727 -0.237145662307739258 -0.348157912492752075
0.248704731464385986 0.20493045449256897 0.203960210084915161
-0.398339629173278809 0.14581771194934845 0.346582740545272827
0.250078737735748291 0.342523902654647827 0.0178791619837284088
-0.366798728704452515 0.262110799551010132 0.329338729381561279
0.128694921731948853 0.195418938994407654 0.23144085705280304
0.334144264459609985 0.194832652807235718 0.264147758483886719
0.142912209033966064 0.27904665470123291 0.142322137951850891
0.294196188449859619 0.249872520565986633 0.167409628629684448
0.30272558331489563 0.285308361053466797 0.221635594964027405
0.396111726760864258 0.316200107336044312 -0.0926541388034820557
0.303642898797988892 0.0589987598359584808 0.212271228432655334
-0.0726019293069839478 0.441694974899291992 0.433189868927001953
0.36707732081413269 0.360158920288085938 -0.144546106457710266
-0.421875506639480591 0.0807976424694061279 0.25697973370552063
0.33510124683380127 -0.27785801887512207 -0.345708787441253662
0.439980208873748779 -0.186761379241943359 -0.311065167188644409
0.367843836545944214 -0.273645073175430298 -0.260178595781326294
0.130086913704872131 0.199811458587646484 0.417107641696929932
0.327831059694290161 -0.170002728700637817 -0.205106452107429504
0.26543271541595459 -0.258796662092208862 0.0932940691709518433
0.35250091552734375 -0.0885959118604660034 -0.119757860898971558
0.26210552453994751 -0.208699971437454224 -0.190282642841339111
-0.398556530475616455 0.239748790860176086 0.412935703992843628
0.36226731538772583 -0.182412758469581604 0.080069810152053833
0.37571871280670166 -0.23406180739402771 -0.342715144157409668
0.417927443981170654 0.0537610054016113281 0.0932175442576408386
-0.35824739933013916 0.306558609008789062 0.430066943168640137
0.354391545057296753 -0.251635968685150146 -0.301429986953735352
0.184335336089134216 0.0923695117235183716 0.232056200504302979
-0.451573997735977173 0.298910617828369141 0.430361926555633545
-0.445051372051239014 0.168888092041015625 0.457271665334701538
0.364178180694580078 -0.243542060256004333 -0.365038752555847168
0.417914271354675293 -0.0319695435464382172 -0.180565774440765381
0.353120267391204834 -0.00676735304296016693 0.157751142978668213
0.0721886754035949707 -0.0600471198558807373 0.137093290686607361
-0.470246672630310059 -0.0360741056501865387 0.249928578734397888
0.324050605297088623 0.155930161476135254 0.0949150174856185913
-0.45347750186920166 0.153523713350296021 0.351902246475219727
0.260490983724594116 0.28312993049621582 -0.0400380156934261322
-0.426049530506134033 0.156237557530403137 0.295234143733978271
-0.418185621500015259 0.160552978515625 0.323229283094406128
-0.361819207668304443 -0.0282623209059238434 0.442280113697052002
0.235300928354263306 -0.30167001485824585 -0.207128018140792847
0.152661129832267761 -0.263297140598297119 0.229915618896484375
-0.340925514698028564 0.18052440881729126 0.158847630023956299
0.427747368812561035 -0.0618551149964332581 -0.187666147947311401
-0.34549027681350708 -0.254301726818084717 0.29014962911605835
-0.445616841316223145 0.0424788780510425568 0.195178359746932983
0.393524199724197388 0.118791490793228149 0.09408608078956604
0.327667236328125 0.0700799599289894104 0.231201604008674622
0.432410180568695068 0.0507610887289047241 0.031974107027053833
0.350689500570297241 -0.0969140604138374329 0.154380828142166138
-0.342359691858291626 0.287604629993438721 0.209220528602600098
-0.388685822486877441 -0.236589491367340088 0.0936996191740036011
0.424961745738983154 -0.142414391040802002 -0.304773390293121338
0.31400763988494873 -0.249188810586929321 -0.134439125657081604
0.338567048311233521 0.285958856344223022 0.232813760638237
0.286948561668395996 -0.186362460255622864 0.196494430303573608
-0.224084511399269104 -0.414591044187545776 0.0420120581984519958
0.376118868589401245 -0.260420352220535278 -0.302158534526824951
0.341175228357315063 -0.291120767593383789 -0.276968032121658325
0.376467794179916382 0.341117680072784424 -0.157620489597320557
0.349011510610580444 0.146542176604270935 0.149195596575737
-0.377753615379333496 -0.324992954730987549 0.0674567818641662598
-0.071488305926322937 0.412962198257446289 0.25980648398399353
0.347230404615402222 -0.279596149921417236 -0.252389997243881226
0.362898647785186768 0.0402320548892021179 0.196057692170143127
-0.413642555475234985 -0.283807098865509033 0.0912772119045257568
0.355541497468948364 -0.0607904940843582153 0.176652505993843079
0.340236514806747437 -0.271881192922592163 -0.354549765586853027
-0.392809838056564331 -0.262740135192871094 0.130606740713119507
0.425362169742584229 -0.148577287793159485 -0.289426743984222412
0.371794313192367554 -0.288038253784179688 -0.335808843374252319
0.35840877890586853 -0.251369297504425049 -0.275345951318740845
-0.452552437782287598 0.0291819367557764053 0.218963861465454102
0.411095321178436279 -0.0380392931401729584 -0.0492482036352157593
0.327910065650939941 -0.268268942832946777 -0.124391593039035797
-0.453584372997283936 0.296074718236923218 0.428044497966766357
0.364848107099533081 -0.242718875408172607 -0.364576101303100586
0.413301020860671997 0.0621575303375720978 -0.132330417633056641
0.348592251539230347 0.335629492998123169 0.020852942019701004
0.381314367055892944 -0.0219193156808614731 -0.0872900187969207764
0.31267392635345459 -0.0953248515725135803 0.177914932370185852
0.443440794944763184 0.158843129873275757 -0.246640771627426147
-0.431638956069946289 0.0956653207540512085 0.265288203954696655
0.369647622108459473 -0.125312402844429016 0.235592931509017944
0.168311595916748047 0.314306378364562988 0.01719660684466362
0.394972443580627441 0.318829208612442017 -0.191043108701705933
-0.314795255661010742 -0.334841370582580566 0.303405851125717163
0.425207436084747314 -0.268589794635772705 0.124204635620117188
-0.318891793489456177 -0.324091404676437378 0.283074855804443359
0.367789208889007568 -0.228129744529724121 0.216024398803710938
0.163539856672286987 0.299169719219207764 0.0361464284360408783
0.422372102737426758 0.24664643406867981 -0.176739007234573364
0.423059314489364624 0.163489535450935364 0.178058162331581116
-0.453237533569335938 -0.140690654516220093 0.177076622843742371
-0.381956130266189575 0.236014872789382935 0.410318106412887573
-0.454578518867492676 0.0700209364295005798 0.199935764074325562
-0.47961270809173584 -0.125789329409599304 0.31581801176071167
0.394476801156997681 -0.213453993201255798 -0.301250338554382324
0.345099359750747681 -0.289644479751586914 -0.185714051127433777
-0.477040946483612061 -0.164565280079841614 0.273385584354400635
0.415069252252578735 -0.123239181935787201 -0.293925195932388306
0.2874317467212677 -0.187335163354873657 0.194046884775161743
0.319307863712310791 -0.334412992000579834 -0.325356483459472656
-0.442562997341156006 -0.125127613544464111 0.321734994649887085
-0.428125888109207153 0.263783276081085205 0.445014357566833496
-0.439032614231109619 0.175403714179992676 0.40231168270111084
0.407558232545852661 -0.261532396078109741 -0.345911234617233276
-0.320839196443557739 -0.358567118644714355 0.057176642119884491
0.336695343255996704 -0.269769012928009033 -0.257122159004211426
-0.472266018390655518 0.249663129448890686 0.433773666620254517
0.430735468864440918 -0.171513259410858154 -0.318079143762588501
-0.0680155009031295776 -0.441840857267379761 0.0535956770181655884
0.433912873268127441 -0.140710711479187012 -0.296494871377944946
-0.455520778894424438 0.0269458368420600891 0.22229158878326416
-0.463021695613861084 0.206094980239868164 0.410255253314971924
-0.464836865663528442 0.30036124587059021 0.434254974126815796
0.454632759094238281 0.27463194727897644 -0.216690361499786377
-0.354163199663162231 0.187776386737823486 0.155695229768753052
-0.474343955516815186 0.0122045204043388367 0.272058308124542236
0.377802282571792603 -0.0872506424784660339 0.0508420355618000031
-0.307098448276519775 -0.186435848474502563 0.0938667654991149902
0.415537834167480469 -0.245027258992195129 -0.376416116952896118
0.363231092691421509 -0.310397833585739136 -0.383398830890655518
-0.401272714138031006 0.219081327319145203 0.158724024891853333
0.350802809000015259 -0.0686364546418190002 0.162116676568984985
-0.465126842260360718 0.227443516254425049 0.407195627689361572
-0.470184922218322754 0.00707329856231808662 0.271899789571762085
0.360086917877197266 -0.103058554232120514 0.0618405304849147797
0.418368250131607056 0.11659654974937439 -0.260962218046188354
0.246167480945587158 -0.322606384754180908 -0.00668937340378761292
0.40928041934967041 -0.26259082555770874 -0.354710996150970459
-0.449475139379501343 -0.0532760918140411377 0.323895812034606934
0.396751672029495239 -0.197668403387069702 -0.305711746215820312
-0.387602776288986206 -0.103165611624717712 0.178403019905090332
0.398346126079559326 0.00721739232540130615 -0.216527283191680908
-0.396509885787963867 0.159469813108444214 0.137217491865158081
0.424056112766265869 0.110476896166801453 -0.10651889443397522
-0.408136874437332153 0.0011010272428393364 0.139622330665588379
-0.409831583499908447 -0.273578882217407227 0.0735818743705749512
-0.338181585073471069 -0.223304897546768188 0.0913191735744476318
0.39518401026725769 0.11316121369600296 -0.28490370512008667
-0.378980398178100586 -0.266153305768966675 0.11639084666967392
-0.267538905143737793 0.267384499311447144 0.182943180203437805
-0.405322521924972534 -0.250220060348510742 0.131513506174087524
0.417925357818603516 0.0164052993059158325 -0.30263131856918335
0.432704299688339233 -0.121727786958217621 -0.301583141088485718
0.253156542778015137 0.213050991296768188 0.193835213780403137
-0.361397027969360352 -0.300834178924560547 0.314097166061401367
-0.00373826525174081326 0.325049787759780884 0.178136229515075684
-0.442554354667663574 0.0310252625495195389 0.366223037242889404
-0.36723288893699646 0.0535989776253700256 0.160041719675064087
-0.0703810155391693115 0.410166114568710327 0.259020626544952393
0.414211839437484741 -0.259491652250289917 -0.350622296333312988
0.414578169584274292 -0.164326131343841553 -0.317855954170227051
0.374560266733169556 0.35180199146270752 -0.159730136394500732
0.224504798650741577 0.324507415294647217 -0.0139103122055530548
0.117605037987232208 -0.374896258115768433 -0.0713829174637794495
-0.433683335781097412 -0.242640748620033264 0.188888072967529297
-0.404649525880813599 -0.234668925404548645 0.132675036787986755
-0.462808817625045776 -0.225242197513580322 0.339988112449645996
0.28972509503364563 0.454723984003067017 0.0645750313997268677
0.411932885646820068 -0.193750247359275818 -0.301667094230651855
0.415856838226318359 -0.19943217933177948 -0.270197153091430664
-0.233870521187782288 -0.398850470781326294 0.0383118726313114166
0.369720548391342163 0.358498871326446533 -0.154988288879394531
-0.460852056741714478 0.296525418758392334 0.424649924039840698
0.393739193677902222 -0.235848680138587952 -0.369081795215606689
0.349305659532546997 -0.298292696475982666 -0.372152209281921387
0.292172491550445557 0.321377187967300415 0.00552780833095312119
0.332912445068359375 -0.0646569058299064636 -0.130698725581169128
-0.388815581798553467 -0.042844526469707489 0.174964636564254761
-0.476459801197052002 -0.14886164665222168 0.212483137845993042
-0.391633898019790649 0.220592811703681946 0.398475855588912964
0.389669150114059448 0.153501808643341064 -0.107433781027793884
0.249267324805259705 0.31359553337097168 0.150717437267303467
0.320312142372131348 0.255446493625640869 -0.184620440006256104
0.140289708971977234 -0.254795610904693604 -0.15129457414150238
0.373971104621887207 -0.124860748648643494 -0.229563280940055847
0.113323584198951721 0.345704853534698486 0.318842053413391113
0.373417079448699951 -0.274017065763473511 -0.303762197494506836
0.123192913830280304 0.33544611930847168 0.164618507027626038
0.398340404033660889 0.233351826667785645 -0.0538418442010879517
-0.27985990047454834 -0.23345579206943512 0.0751378834247589111
-0.315326273441314697 -0.321381598711013794 0.0306853111833333969
0.247191548347473145 -0.295719712972640991 -0.186344385147094727
-0.360205411911010742 0.20261363685131073 0.369990438222885132
0.343337059020996094 -0.261695265769958496 -0.31965261697769165
0.306845813989639282 -0.130646392703056335 -0.268022745847702026
-0.355030834674835205 0.203075125813484192 0.169611752033233643
0.30191466212272644 0.380025714635848999 0.0355679914355278015
-0.473433881998062134 -0.098034687340259552 0.231049776077270508
0.344857275485992432 0.0932866707444190979 -0.0371151268482208252
-0.384162187576293945 0.0728038549423217773 0.116666026413440704
0.379878878593444824 0.143662482500076294 -0.0322698056697845459
0.322882682085037231 0.329413056373596191 -0.162678062915802002
0.383341282606124878 -0.262485712766647339 -0.316739648580551147
-0.458417654037475586 -0.138213887810707092 0.0925063639879226685
0.192393064498901367 0.379814267158508301 0.176559761166572571
0.118035785853862762 0.245408609509468079 0.293776035308837891
0.413259267807006836 0.204158514738082886 -0.0677513480186462402
-0.31672254204750061 0.247893989086151123 0.146554291248321533
-0.27131769061088562 -0.269164770841598511 0.0612075738608837128
0.0951031818985939026 0.319599956274032593 0.0888462290167808533
0.386750936508178711 0.170751795172691345 -0.24473823606967926
0.351668417453765869 -0.265589624643325806 -0.218893453478813171
0.114966563880443573 0.232900440692901611 0.240786924958229065
-0.286450296640396118 0.322650611400604248 0.280060023069381714
-0.458048552274703979 -0.0284097008407115936 0.192020401358604431
0.374727994203567505 0.113242700695991516 0.0978556200861930847
-0.403026819229125977 -0.215036869049072266 0.0783793702721595764
0.354139983654022217 0.178723528981208801 0.159895732998847961
-0.188724368810653687 -0.4015694260597229 0.044053252786397934
-0.43500828742980957 0.132750630378723145 0.131285160779953003
-0.35307544469833374 -0.295368969440460205 0.0586048029363155365
-0.305385768413543701 -0.334296166896820068 0.052618708461523056
-0.00473932642489671707 0.45801699161529541 0.414658665657043457
-0.39487650990486145 0.153502717614173889 0.137313157320022583
-0.458845198154449463 0.27562028169631958 0.196267783641815186
-0.405131042003631592 0.013057108037173748 0.131665140390396118
-0.342765986919403076 -0.329220116138458252 0.0675475150346755981
-0.320365399122238159 0.308769404888153076 0.264400869607925415
-0.30246850848197937 -0.348161369562149048 0.12888653576374054
0.363592475652694702 -0.272584974765777588 -0.253096789121627808
-0.383844912052154541 -0.234207600355148315 0.100141763687133789
-0.319120675325393677 0.174742132425308228 0.155897259712219238
-0.27344319224357605 -0.341429531574249268 0.0636743456125259399
0.404368281364440918 -0.0801719799637794495 -0.266468405723571777
-0.433241486549377441 0.101105421781539917 0.176307737827301025
-0.280477017164230347 -0.0186150744557380676 0.127042248845100403
-0.218727663159370422 0.302220344543457031 0.234772622585296631
0.428763926029205322 -0.0871673226356506348 -0.312248170375823975
-0.0818960964679718018 0.40299689769744873 0.250141412019729614
0.423680901527404785 -0.26043209433555603 -0.345045208930969238
0.364174187183380127 -0.296416431665420532 0.168168783187866211
0.407961040735244751 -0.013433016836643219 -0.306180179119110107
0.298658847808837891 0.284370243549346924 0.326813817024230957
0.394067764282226562 -0.219404608011245728 -0.310638457536697388
0.339502900838851929 0.364902377128601074 -0.156524389982223511
-0.363586187362670898 0.289200484752655029 0.174253761768341064
0.370141386985778809 0.0267476495355367661 0.19421665370464325
-0.319132894277572632 0.235765397548675537 0.254591196775436401
-0.233887612819671631 0.341065794229507446 0.277439504861831665
0.409984618425369263 0.00189872458577156067 -0.225410014390945435
0.349770665168762207 0.0480521023273468018 0.0971290841698646545
0.463405489921569824 0.220387980341911316 -0.2185496985912323
-0.465639948844909668 -0.228161647915840149 0.346331000328063965
0.408181369304656982 -0.00611357204616069794 -0.0322966352105140686
0.301645904779434204 -0.305239588022232056 -0.15158534049987793
0.236967742443084717 0.322324067354202271 -0.0118494238704442978
-0.426480889320373535 -0.142747774720191956 0.1494036465883255
-0.372223883867263794 -0.235284030437469482 0.368573516607284546
0.365441709756851196 -0.289297103881835938 -0.353015780448913574
0.284126490354537964 0.244311064481735229 -0.0464233122766017914
0.304576069116592407 -0.0880602076649665833 0.163846656680107117
0.403263270854949951 -0.239118397235870361 -0.364907622337341309
0.359185695648193359 -0.321763187646865845 -0.390270382165908813
-0.347936570644378662 -0.144996747374534607 0.0648893415927886963
0.181234762072563171 0.356129825115203857 0.169526666402816772
-0.390480965375900269 0.148604333400726318 0.138910859823226929
-0.323891639709472656 -0.194053217768669128 0.0920834094285964966
-0.0761650130152702332 0.421124279499053955 0.259370028972625732
-0.386910349130630493 0.150412976741790771 0.276694208383560181
-0.440538853406906128 0.129073739051818848 0.40196603536605835
-0.38619685173034668 0.0702080428600311279 0.123562745749950409
-0.460974603891372681 -0.0332361608743667603 0.327088922262191772
-0.361502885818481445 0.212871521711349487 0.382620751857757568
0.41199415922164917 -0.186873331665992737 -0.297870904207229614
0.349329471588134766 0.0756475552916526794 0.0919606983661651611
-0.381809353828430176 -0.0905025973916053772 0.128287822008132935
0.376820981502532959 -0.259641379117965698 -0.274969905614852905
0.26376640796661377 0.239793002605438232 0.111276954412460327
0.408736139535903931 0.347136020660400391 -0.182607799768447876
0.401163429021835327 0.256032228469848633 -0.194622993469238281
0.174317196011543274 -0.00437745451927185059 0.341959744691848755
0.308574259281158447 -0.136969685554504395 0.0430088341236114502
0.453109979629516602 -0.0391582213342189789 -0.274683296680450439
-0.314605385065078735 0.273028641939163208 0.41688266396522522
-0.420624673366546631 0.0924758315086364746 0.344436705112457275
0.334720224142074585 -0.32567480206489563 -0.349569916725158691
-0.506168663501739502 0.276418209075927734 0.270538628101348877
-0.44729912281036377 -0.0401075854897499084 0.297867476940155029
-0.365698784589767456 0.247626394033432007 0.411986112594604492
0.297922253608703613 -0.0125184189528226852 0.145707815885543823
-0.426948755979537964 0.288285166025161743 0.428444027900695801
0.113332599401473999 0.111944317817687988 0.0962082073092460632
-0.0990580469369888306 0.41417771577835083 0.248667865991592407
0.265984326601028442 -0.27290073037147522 0.126354604959487915
-0.451043426990509033 0.135258376598358154 0.439387261867523193
0.136057019233703613 0.211402535438537598 0.0942964032292366028
0.430445343255996704 -0.204316675662994385 -0.330490022897720337
