ply
format ascii 1.0
element vertex 742
property float x
property float y
property float z
end_header
-0.19277074933052063 -0.395777463912963867 -0.0440476834774017334
-0.430107176303863525 -0.275136888027191162 0.0146932043135166168
-0.144835770130157471 -0.452211767435073853 0.0018840935081243515
0.240558117628097534 -0.346488803625106812 -0.230655953288078308
-0.361031681299209595 -0.252502113580703735 -0.00302071869373321533
0.459963798522949219 0.336661338806152344 -0.0972956418991088867
0.500010132789611816 0.319585829973220825 -0.143869876861572266
0.179943382740020752 -0.492243736982345581 -0.0440306477248668671
0.380516737699508667 -0.332548975944519043 -0.291671127080917358
-0.339526772499084473 -0.362677723169326782 0.0966387316584587097
-0.0500286146998405457 -0.471969783306121826 0.0124603360891342163
0.300324141979217529 -0.35854676365852356 -0.311942875385284424
0.510577917098999023 -0.0641146451234817505 -0.242505133152008057
0.391250312328338623 -0.281394839286804199 -0.330737173557281494
0.429127544164657593 0.138577982783317566 -0.259345859289169312
0.188885852694511414 0.251120805740356445 0.22637629508972168
-0.467079281806945801 0.0641118958592414856 0.312611520290374756
0.191560417413711548 0.352467238903045654 0.372634470462799072
-0.45841062068939209 0.103007048368453979 0.380214005708694458
-0.449268430471420288 -0.0418764799833297729 0.181529700756072998
0.413972437381744385 0.0290063824504613876 -0.081416599452495575
0.237866699695587158 0.339697271585464478 0.204765677452087402
-0.200303792953491211 -0.436742842197418213 0.0283873304724693298
-0.0959615856409072876 -0.471615314483642578 0.00845428556203842163
-0.329655677080154419 -0.192129373550415039 0.0653156936168670654
-0.181955248117446899 0.477243423461914062 0.390915185213088989
0.292605757713317871 0.0737089067697525024 0.224909305572509766
0.42541155219078064 0.14410834014415741 0.0146530494093894958
-0.47938847541809082 -0.00694119464606046677 0.285376965999603271
-0.316146492958068848 -0.353215694427490234 0.0293172299861907959
0.381992638111114502 0.260451823472976685 0.211192429065704346
-0.20276796817779541 -0.346832573413848877 0.0345388874411582947
0.459978640079498291 0.227565214037895203 -0.161957770586013794
-0.440405964851379395 -0.29022747278213501 0.138572484254837036
0.154284179210662842 -0.373128503561019897 0.232385650277137756
0.414406090974807739 -0.267357438802719116 -0.283127248287200928
0.464861392974853516 0.0497747994959354401 -0.205795139074325562
-0.443357884883880615 0.0856381282210350037 0.373260438442230225
0.434830129146575928 -0.193897530436515808 -0.247659057378768921
0.40418851375579834 -0.207915589213371277 -0.100267872214317322
0.209561169147491455 0.391212612390518188 0.0200905650854110718
0.412902772426605225 -0.30967336893081665 -0.320581674575805664
0.456857204437255859 -0.343261688947677612 -0.315937042236328125
0.103711061179637909 0.181231871247291565 0.0938919931650161743
-0.0200203154236078262 0.408786147832870483 0.355454176664352417
-0.420762449502944946 0.159056678414344788 0.345595747232437134
-0.44351041316986084 -0.0659082084894180298 0.174187034368515015
0.387585282325744629 0.0629660561680793762 -0.0061479564756155014
-0.444883227348327637 0.187709018588066101 0.124173983931541443
0.189118251204490662 0.341226637363433838 0.0441449210047721863
0.438966959714889526 -0.253680557012557983 -0.269392102956771851
-0.479051142930984497 -0.0805856436491012573 0.19701087474822998
-0.289774477481842041 -0.323317855596542358 0.00615842454135417938
0.503526985645294189 0.177989885210990906 -0.22590211033821106
0.13647383451461792 0.273507624864578247 0.272106945514678955
0.285235553979873657 0.387590855360031128 -0.13753160834312439
-0.440784335136413574 -0.0379412509500980377 0.383716315031051636
-0.0987154841423034668 -0.474292665719985962 0.0210672616958618164
-0.461119472980499268 0.0786172002553939819 0.223577633500099182
0.235209986567497253 -0.311110556125640869 -0.178942933678627014
0.452321767807006836 0.25240480899810791 -0.133432954549789429
0.299312174320220947 -0.0023225247859954834 0.213685065507888794
0.410773396492004395 -0.363342255353927612 -0.320779740810394287
0.0990102067589759827 0.209938317537307739 0.106655150651931763
0.290659487247467041 0.381229877471923828 0.234175503253936768
0.448480516672134399 -0.188630804419517517 -0.31656569242477417
0.280720800161361694 0.309793323278427124 0.297747552394866943
0.370718657970428467 -0.303911447525024414 -0.297447681427001953
0.381341636180877686 -0.343278825283050537 -0.317888915538787842
-0.166316777467727661 0.360206097364425659 0.200926661491394043
0.238545268774032593 0.415972322225570679 0.0717230886220932007
0.335500329732894897 -0.374590247869491577 -0.285295546054840088
0.342662036418914795 0.341560840606689453 -0.142900988459587097
-0.510827124118804932 -0.104848131537437439 0.296556770801544189
0.290054589509963989 0.395189642906188965 -0.0702398568391799927
0.430003434419631958 0.0120538491755723953 -0.287753671407699585
-0.459279686212539673 -0.156322479248046875 0.0679210945963859558
-0.507788717746734619 0.32825198769569397 0.39802706241607666
-0.242782533168792725 0.33754962682723999 0.163765788078308105
0.396654248237609863 -0.286389529705047607 -0.280862480401992798
0.457811743021011353 -0.168116986751556396 -0.266929566860198975
-0.458707749843597412 -0.137813776731491089 0.138816803693771362
0.455138444900512695 0.353033602237701416 -0.105566360056400299
-0.507584095001220703 0.28337821364402771 0.389047682285308838
0.477243304252624512 0.0654243454337120056 -0.249732866883277893
-0.49641147255897522 0.298690974712371826 0.391945123672485352
-0.0890222489833831787 -0.450822949409484863 0.00784412212669849396
-0.386694133281707764 0.0915160924196243286 0.0894183441996574402
-0.484048128128051758 0.0353078544139862061 0.358893305063247681
0.448285937309265137 -0.035727720707654953 -0.28356248140335083
-0.392637252807617188 -0.322578102350234985 0.112382888793945312
0.0882578939199447632 0.382538080215454102 0.368232488632202148
0.417370915412902832 -0.237892910838127136 -0.185823917388916016
0.405677229166030884 -0.261114895343780518 -0.344843804836273193
0.371497869491577148 0.40114438533782959 -0.0979324430227279663
0.483059734106063843 0.0445335060358047485 -0.240056931972503662
-0.438455551862716675 0.240984365344047546 0.140604197978973389
0.384925365447998047 0.326004385948181152 0.0515959784388542175
-0.386912167072296143 0.31355583667755127 0.1591683030128479
0.272491723299026489 -0.388300895690917969 -0.262350976467132568
-0.513628721237182617 0.0356772541999816895 0.312758266925811768
-0.0953031182289123535 -0.471310436725616455 0.00713570043444633484
0.434722393751144409 -0.331433147192001343 -0.316828727722167969
0.402296602725982666 -0.357315719127655029 -0.322732239961624146
0.448568195104598999 -0.180744200944900513 -0.316330462694168091
0.379759103059768677 -0.361114054918289185 -0.318944960832595825
0.390741020441055298 -0.334653973579406738 -0.305915772914886475
0.452907264232635498 0.00506095308810472488 -0.00353482645004987717
0.153722286224365234 0.32706981897354126 0.232246249914169312
-0.513396322727203369 -0.177919045090675354 0.346514731645584106
-0.383347809314727783 -0.239904418587684631 0.0543610379099845886
0.228433132171630859 -0.327907443046569824 -0.216356188058853149
-0.292940884828567505 -0.383377969264984131 8.44281166791915894e-05
-0.324652254581451416 0.364251405000686646 0.23192286491394043
0.396153122186660767 0.0118084773421287537 -0.0132398158311843872
-0.46580350399017334 -0.00909153558313846588 0.283769458532333374
-0.485599130392074585 0.0697429850697517395 0.398604810237884521
0.3859519362449646 0.0785925090312957764 -0.227710485458374023
0.426671504974365234 -0.132215380668640137 -0.29222068190574646
-0.226169601082801819 0.414634853601455688 0.242142423987388611
0.227564424276351929 0.368297338485717773 0.0514097288250923157
0.470484644174575806 -0.0702138692140579224 -0.241894930601119995
0.3701915442943573 -0.187667474150657654 -0.0567503273487091064
-0.466962546110153198 -0.17905522882938385 0.105611652135848999
0.0556077286601066589 0.190764129161834717 0.150275766849517822
0.408043086528778076 0.302020549774169922 -0.0609070658683776855
0.224994033575057983 0.474825263023376465 0.0967532023787498474
0.2304534912109375 -0.321747183799743652 0.0108420215547084808
0.387659341096878052 -0.182691246271133423 -0.247431561350822449
-0.451930820941925049 -0.292802512645721436 0.217476189136505127
-0.504084765911102295 -0.00199437513947486877 0.324803262948989868
-0.380623340606689453 -0.16819918155670166 0.120390810072422028
-0.398614585399627686 0.0121138142421841621 0.122297659516334534
0.279313027858734131 0.317492306232452393 0.246745586395263672
-0.528590977191925049 0.159496396780014038 0.359318703413009644
-0.519698798656463623 -0.188932046294212341 0.26430317759513855
-0.399018526077270508 -0.283982068300247192 0.0264739245176315308
-0.198095917701721191 -0.427884459495544434 0.00676501356065273285
-0.344973266124725342 0.352205365896224976 0.234327226877212524
0.450559169054031372 0.129683345556259155 -0.16486687958240509
0.346495985984802246 -0.294150650501251221 -0.347811877727508545
0.324834883213043213 -0.105234399437904358 0.0675975680351257324
0.269202172756195068 -0.431172341108322144 -0.251771658658981323
-0.488655745983123779 0.0661709457635879517 0.377048373222351074
-0.371823340654373169 0.151701360940933228 0.306124627590179443
0.445990264415740967 -0.119063764810562134 -0.310186564922332764
-0.156368494033813477 0.439747631549835205 0.225281834602355957
0.455113470554351807 -0.0197604205459356308 -0.276043623685836792
0.405737102031707764 -0.0975896045565605164 -0.027487095445394516
0.210244074463844299 0.373091459274291992 0.0214919280260801315
-0.340309679508209229 0.381757438182830811 0.365054547786712646
-0.476075440645217896 -0.0343691259622573853 0.13368573784828186
0.271953076124191284 -0.338354706764221191 0.0118272732943296432
0.443178921937942505 -0.180463165044784546 -0.222522526979446411
0.436204046010971069 0.295076072216033936 0.0483831726014614105
-0.498508095741271973 0.1446533203125 0.321351349353790283
-0.47929808497428894 -0.090954117476940155 0.123217076063156128
-0.483105510473251343 -0.0268648248165845871 0.327177464962005615
0.382783472537994385 0.127655148506164551 -0.00296603608876466751
0.348232507705688477 -0.292185664176940918 -0.0373075380921363831
0.50382232666015625 0.203389972448348999 -0.133502274751663208
-0.414421677589416504 -0.0710187256336212158 0.094209425151348114
-0.402025997638702393 -0.0455636158585548401 0.115180917084217072
0.479291915893554688 -0.0890091806650161743 -0.271438866853713989
0.500135898590087891 0.292445957660675049 -0.154719308018684387
-0.420106828212738037 0.277936220169067383 0.378043800592422485
0.349745631217956543 -0.370803385972976685 -0.293203294277191162
0.469460934400558472 0.186370730400085449 -0.147790431976318359
-0.489743053913116455 0.0114780561998486519 0.155882999300956726
0.481707632541656494 0.0332589447498321533 -0.255807280540466309
-0.493175923824310303 0.153179317712783813 0.395319551229476929
-0.491758227348327637 -0.101610004901885986 0.336434900760650635
0.476065248250961304 0.0964507758617401123 -0.24580007791519165
0.463279604911804199 0.123190879821777344 -0.230376973748207092
-0.286288917064666748 0.33510163426399231 0.142368525266647339
0.56095421314239502 0.278716951608657837 -0.162195488810539246
-0.462609291076660156 -0.176507741212844849 0.111554890871047974
-0.453818738460540771 -0.102677904069423676 0.166406184434890747
-0.504749476909637451 -0.0959506258368492126 0.261130630970001221
-0.474394768476486206 -0.239772185683250427 0.0706887543201446533
0.260191261768341064 -0.355901896953582764 0.213537842035293579
-0.416747480630874634 -0.303003668785095215 0.0625939741730690002
-0.522634029388427734 0.341610521078109741 0.398047745227813721
-0.47768855094909668 -0.059550069272518158 0.333840519189834595
0.475499629974365234 0.0701961293816566467 -0.225362494587898254
-0.485028833150863647 0.186235874891281128 0.380153119564056396
-0.409838676452636719 0.0743404626846313477 0.0392228327691555023
-0.335907578468322754 0.296599298715591431 0.14976714551448822
0.173836037516593933 0.37936440110206604 0.18924616277217865
-0.390844732522964478 -0.326489388942718506 0.114088907837867737
-0.396853506565093994 0.218796700239181519 0.175327107310295105
-0.397024393081665039 0.302660763263702393 0.130139082670211792
0.415279358625411987 -0.281449288129806519 -0.339475363492965698
0.454532861709594727 -0.197881191968917847 -0.310260593891143799
-0.401881963014602661 -0.35291638970375061 0.115808412432670593
-0.379900187253952026 -0.262354880571365356 0.0503321774303913116
-0.201935470104217529 0.425384968519210815 0.24365583062171936
-0.49940142035484314 0.110636696219444275 0.351120024919509888
-0.320974737405776978 -0.356336116790771484 0.0245768073946237564
-0.402333736419677734 0.0606492236256599426 0.171693280339241028
-0.211550012230873108 0.42707747220993042 0.222947686910629272
-0.290165841579437256 -0.409097731113433838 0.039636518806219101
-0.244204521179199219 -0.367580562829971313 0.0257937833666801453
-0.442573875188827515 -0.0374816395342350006 0.146240249276161194
0.481477439403533936 -0.0287315510213375092 -0.207262337207794189
0.269288957118988037 0.216258704662322998 0.264568805694580078
0.282986372709274292 0.125908046960830688 0.230597004294395447
0.373134642839431763 0.171605527400970459 0.206973910331726074
-0.479741424322128296 0.0481639578938484192 0.197351515293121338
0.191416472196578979 0.375744134187698364 0.232877194881439209
-0.543334305286407471 0.074259050190448761 0.322362393140792847
0.430821120738983154 0.136792376637458801 -0.231496363878250122
0.432627171277999878 0.199952885508537292 -0.248786687850952148
-0.174807682633399963 0.423653662204742432 0.219299376010894775
-0.365795046091079712 -0.323546856641769409 0.077343866229057312
-0.293808460235595703 -0.342697381973266602 0.0266027078032493591
-0.499933123588562012 -0.147450074553489685 0.201263010501861572
0.316125333309173584 0.223768487572669983 0.282882124185562134
0.335570037364959717 -0.204885721206665039 0.189465314149856567
0.300139755010604858 0.228306666016578674 0.177483662962913513
0.343819707632064819 0.106995552778244019 0.205368638038635254
-0.061276506632566452 0.422029286623001099 0.178169593214988708
-0.492972046136856079 0.114945061504840851 0.196948841214179993
0.485225290060043335 -0.162189900875091553 -0.266501039266586304
0.329987525939941406 -0.353574991226196289 -0.312628448009490967
0.451795756816864014 -0.0332943946123123169 -0.19874301552772522
0.378948062658309937 -0.323940247297286987 -0.294569462537765503
-0.297502636909484863 -0.341705590486526489 0.0259434357285499573
0.473877787590026855 -0.180229097604751587 -0.281569510698318481
-0.454347610473632812 0.264905214309692383 0.40656319260597229
0.0562295913696289062 0.352440357208251953 0.150393217802047729
0.268390029668807983 0.35688626766204834 0.190699756145477295
0.11186768114566803 -0.410344243049621582 -0.118881963193416595
-0.393964797258377075 -0.328361421823501587 0.113794013857841492
0.259318530559539795 0.39700007438659668 0.132307305932044983
0.396381169557571411 -0.272503554821014404 -0.348128557205200195
0.199797242879867554 0.324934184551239014 0.0670164003968238831
0.452849149703979492 -0.220788046717643738 -0.330461740493774414
0.187883883714675903 0.391507208347320557 0.022032223641872406
0.445295184850692749 -0.179200440645217896 -0.303904563188552856
-0.232085555791854858 0.426522165536880493 0.255030721426010132
0.35326734185218811 -0.339727699756622314 -0.312847137451171875
-0.359636992216110229 -0.34062349796295166 0.110419854521751404
0.0460381060838699341 0.222213149070739746 0.0860576331615447998
-0.0987155884504318237 0.443770498037338257 0.208390772342681885
0.470161408185958862 0.0369814783334732056 0.00180339440703392029
0.130511492490768433 0.287848204374313354 -0.000291083008050918579
0.308029055595397949 0.408673733472824097 -0.000148192048072814941
-0.511494934558868408 0.00655034929513931274 0.275709003210067749
-0.515073537826538086 -0.276438653469085693 0.324642330408096313
0.180808901786804199 0.423302054405212402 0.34337124228477478
0.178925827145576477 0.369307458400726318 0.270148128271102905
0.288258492946624756 0.368863224983215332 -0.0364037118852138519
0.267883628606796265 0.264205574989318848 0.039548531174659729
0.3157692551612854 0.412378758192062378 0.0397778451442718506
-0.419971108436584473 0.337913036346435547 0.303343355655670166
0.391382753849029541 0.275007665157318115 -0.209075942635536194
0.127890631556510925 0.365494698286056519 0.0721917599439620972
-0.17604336142539978 0.473568141460418701 0.23695412278175354
-0.518670797348022461 -0.247467681765556335 0.243295222520828247
0.220725983381271362 0.371444344520568848 -0.0204178262501955032
0.222845941781997681 0.301114439964294434 -0.00848515518009662628
-0.519945263862609863 -0.287303715944290161 0.282646477222442627
-0.254125267267227173 0.276492953300476074 0.369689404964447021
0.153195828199386597 0.442238599061965942 0.371651411056518555
0.130623549222946167 0.244797796010971069 0.0705175399780273438
0.189916223287582397 0.401205241680145264 -0.00892006605863571167
0.496125072240829468 0.345070451498031616 -0.126365944743156433
-0.432297378778457642 0.304063081741333008 0.399878144264221191
0.335515052080154419 -0.373872756958007812 -0.283819675445556641
-0.0295006297528743744 -0.497602909803390503 0.0168753433972597122
-0.439647823572158813 -0.205876812338829041 0.124490164220333099
-0.456868529319763184 0.21498069167137146 0.39411810040473938
0.475622832775115967 0.115050248801708221 -0.229003891348838806
0.454761236906051636 0.0154674127697944641 -0.273467063903808594
-0.297653049230575562 -0.351530462503433228 0.0249984227120876312
-0.0649972856044769287 -0.372698068618774414 -0.00661509856581687927
-0.389022886753082275 -0.156750112771987915 0.0637944191694259644
0.485284805297851562 0.0197357125580310822 -0.12083917111158371
-0.462929427623748779 -0.159258916974067688 0.115393608808517456
-0.350869297981262207 -0.381402850151062012 0.0319564305245876312
0.404835999011993408 -0.040952928364276886 0.229569673538208008
-0.466444551944732666 0.0133541207760572433 0.271765083074569702
-0.295206516981124878 -0.376983344554901123 0.0243125595152378082
0.377072334289550781 -0.336019247770309448 -0.347440600395202637
-0.288177549839019775 -0.335930556058883667 -0.0113329272717237473
-0.243407309055328369 0.435381203889846802 0.26718980073928833
-0.407528728246688843 -0.332443296909332275 0.0526384264230728149
0.399070650339126587 -0.246348530054092407 -0.352676928043365479
-0.420035213232040405 0.231391996145248413 0.181690514087677002
0.437781065702438354 -0.229513570666313171 -0.337168455123901367
0.431194901466369629 -0.141229405999183655 -0.311627179384231567
0.339239835739135742 -0.355197429656982422 -0.291122585535049438
-0.498724400997161865 -0.027932237833738327 0.271546036005020142
-0.408692508935928345 0.337090015411376953 0.307247817516326904
-0.489783257246017456 0.046935446560382843 0.334392815828323364
-0.421880543231964111 0.00582893379032611847 0.163874208927154541
-0.255391776561737061 -0.379144549369812012 0.0341862626373767853
-0.199792295694351196 0.365493327379226685 0.130660861730575562
0.417556941509246826 0.272503465414047241 -0.131240785121917725
-0.375521600246429443 0.115808606147766113 0.114183530211448669
-0.369137823581695557 -0.204806193709373474 0.0831500142812728882
-0.426565766334533691 -0.264375239610671997 0.131434798240661621
0.215287744998931885 0.35018545389175415 0.273593634366989136
0.334756463766098022 0.119209498167037964 0.257935553789138794
0.4082527756690979 -0.162609279155731201 -0.284577161073684692
0.355103850364685059 -0.198876067996025085 -0.228794336318969727
0.45377659797668457 -0.216231301426887512 -0.281083464622497559
-0.414909809827804565 0.244189783930778503 0.132770121097564697
0.24060608446598053 0.254731655120849609 0.300506651401519775
-0.372653484344482422 -0.25674709677696228 0.321169167757034302
0.144168063998222351 0.224338293075561523 0.304369360208511353
0.385757863521575928 -0.238050207495689392 -0.13098028302192688
-0.493419229984283447 -0.0903875976800918579 0.203741580247879028
0.242491409182548523 0.230069518089294434 0.0619245432317256927
-0.459616273641586304 -0.109102629125118256 0.242166385054588318
-0.480070739984512329 0.112058311700820923 0.265804171562194824
0.507917642593383789 0.233937308192253113 -0.178742557764053345
-0.451605081558227539 -0.121862702071666718 0.131100922822952271
0.389882296323776245 0.000775748863816261292 -0.258129656314849854
0.431925714015960693 -0.166849002242088318 -0.200289487838745117
-0.518565177917480469 0.218247547745704651 0.262547850608825684
0.396450728178024292 0.286429554224014282 -0.0729577541351318359
0.310246855020523071 0.393951654434204102 0.146255716681480408
-0.437844514846801758 0.0097298547625541687 0.156922429800033569
-0.310523778200149536 -0.387140423059463501 0.0135850720107555389
0.44459223747253418 0.177560046315193176 -0.0484852418303489685
-0.406502127647399902 0.0885429754853248596 0.0966629683971405029
0.420833051204681396 0.221393018960952759 0.135417044162750244
0.33579939603805542 0.367095440626144409 0.277388423681259155
0.429746150970458984 0.209382593631744385 0.0563605502247810364
-0.417103052139282227 0.191096484661102295 0.305459737777709961
0.461330562829971313 -0.126657098531723022 -0.263748675584793091
-0.400003820657730103 -0.121619284152984619 0.1229357048869133
-0.299715578556060791 -0.26042446494102478 0.0523988232016563416
-0.408339947462081909 0.284156680107116699 0.166808545589447021
0.204706341028213501 0.181005463004112244 0.327856898307800293
-0.399353086948394775 0.185582429170608521 0.318796485662460327
-0.272803217172622681 -0.379977703094482422 0.00489068031311035156
0.432978987693786621 -0.235630899667739868 -0.1422901451587677
-0.0803560614585876465 0.440962493419647217 0.185395956039428711
-0.440307140350341797 -0.00630922336131334305 0.188897699117660522
-0.450806200504302979 -0.0841654613614082336 0.141942024230957031
0.421602129936218262 0.0702974498271942139 -0.266744554042816162
0.414471536874771118 -0.0795347839593887329 -0.165131926536560059
-0.217655465006828308 0.409895718097686768 0.212437450885772705
0.467534691095352173 0.143670797348022461 -0.227037429809570312
-0.451664119958877563 0.286530196666717529 0.343788653612136841
0.460744082927703857 0.0555238127708435059 -0.0311128050088882446
0.431688010692596436 -0.061999443918466568 -0.234062269330024719
0.435810506343841553 -0.106318384408950806 -0.222393408417701721
-0.508750438690185547 -0.191043242812156677 0.190962880849838257
0.355181753635406494 -0.36728021502494812 -0.28267592191696167
0.20274372398853302 0.361672580242156982 0.0220263712108135223
-0.465182065963745117 0.323215335607528687 0.393512547016143799
-0.51656651496887207 -0.142922073602676392 0.359452247619628906
-0.478212088346481323 0.149901032447814941 0.388323277235031128
0.282714933156967163 -0.370893210172653198 -0.33190000057220459
0.188912853598594666 0.198045328259468079 0.342558741569519043
0.246389925479888916 -0.33207780122756958 -0.158829718828201294
0.360361069440841675 -0.29327353835105896 -0.144209891557693481
0.453893601894378662 0.304554402828216553 -0.181827455759048462
0.536383748054504395 0.34936070442199707 -0.137460291385650635
-0.295436620712280273 -0.0358399823307991028 0.0779027789831161499
0.298664391040802002 0.229076400399208069 -0.141934245824813843
-0.258697390556335449 0.365694999694824219 0.144014537334442139
-0.0716366395354270935 -0.377573490142822266 -0.00899685174226760864
0.450298845767974854 0.144521236419677734 -0.129518449306488037
0.477132260799407959 -0.177493885159492493 -0.285161375999450684
-0.440796792507171631 0.198292568325996399 0.379500836133956909
0.214474976062774658 0.414950937032699585 0.052342832088470459
-0.572634220123291016 -0.24376361072063446 0.296958804130554199
0.358344167470932007 0.303676009178161621 0.0611296743154525757
0.220652312040328979 -0.503468096256256104 -0.17856934666633606
-0.326386094093322754 0.319509297609329224 0.173304378986358643
0.404737591743469238 0.155760049819946289 0.0904049873352050781
-0.344508856534957886 -0.0674108192324638367 0.0683920308947563171
0.0846590399742126465 0.128538936376571655 0.0705267637968063354
0.454442262649536133 0.356907129287719727 -0.141631156206130981
0.483686149120330811 0.0840337127447128296 -0.246468305587768555
0.257711499929428101 -0.339016497135162354 0.00342437811195850372
-0.38070032000541687 0.0843597352504730225 0.108059100806713104
0.354737669229507446 -0.290553450584411621 -0.324520528316497803
0.421000540256500244 -0.267807126045227051 -0.349014252424240112
0.438553512096405029 -0.12099882960319519 -0.299316585063934326
0.47049829363822937 0.133279740810394287 -0.23952387273311615
-0.507669270038604736 -0.0873510837554931641 0.249010741710662842
-0.0376073755323886871 -0.484046667814254761 0.0100767575204372406
0.432128489017486572 -0.185637712478637695 -0.274273425340652466
0.399303317070007324 -0.278099179267883301 -0.265728682279586792
0.397165119647979736 -0.277573645114898682 -0.346466779708862305
-0.430286914110183716 -0.177289128303527832 0.13141593337059021
-0.456501901149749756 0.209162086248397827 0.382802456617355347
-0.421423524618148804 0.0575965754687786102 0.343245238065719604
-0.475606054067611694 0.00831558834761381149 0.269589990377426147
0.384299308061599731 -0.329260736703872681 -0.34643825888633728
0.405808866024017334 -0.278636276721954346 -0.263108134269714355
0.436704277992248535 -0.22819964587688446 -0.336167573928833008
0.344903469085693359 -0.339389830827713013 -0.289776802062988281
0.366269320249557495 0.373393982648849487 0.121236003935337067
0.411804646253585815 -0.122892528772354126 -0.259092152118682861
-0.402090102434158325 0.245508730411529541 0.163826391100883484
-0.498547732830047607 -0.0919129252433776855 0.341044843196868896
-0.206741496920585632 0.384642452001571655 0.195295959711074829
0.357986032962799072 -0.310336321592330933 -0.254814237356185913
0.407293468713760376 -0.0937632471323013306 -0.179362714290618896
0.263276726007461548 0.410398274660110474 0.00907293427735567093
-0.0943684577941894531 0.428343445062637329 0.358311772346496582
0.439715653657913208 0.0506891123950481415 -0.274815112352371216
0.331126093864440918 0.423601746559143066 -0.164368033409118652
0.447035938501358032 0.101289153099060059 -0.0963481143116950989
0.412580490112304688 0.327338695526123047 -0.0446821041405200958
0.285598516464233398 -0.103254012763500214 0.240322083234786987
0.102465435862541199 -0.390366584062576294 -0.0465727075934410095
-0.00268031284213066101 0.389752477407455444 0.36903679370880127
-0.408570766448974609 -0.29157555103302002 0.121927529573440552
0.580420792102813721 0.33760419487953186 -0.0816501080989837646
0.345808804035186768 0.239950031042098999 0.310435354709625244
0.445937216281890869 0.0450756028294563293 -0.246236801147460938
0.402482151985168457 0.273978739976882935 0.0483126230537891388
0.487446516752243042 -0.143088370561599731 -0.320800602436065674
0.349393486976623535 -0.181622788310050964 0.013591911643743515
0.14911961555480957 -0.382127940654754639 -0.068059086799621582
-0.421847403049468994 -0.149596244096755981 0.135482639074325562
0.381799936294555664 -0.259423553943634033 -0.148792490363121033
-0.449426114559173584 0.209577709436416626 0.145846575498580933
0.157335728406906128 0.340454459190368652 0.116237975656986237
-0.386744946241378784 -0.0516576021909713745 0.112917691469192505
-0.341602116823196411 0.142186179757118225 0.106299906969070435
0.419605255126953125 0.00847384706139564514 -0.30345308780670166
-0.499391555786132812 0.221883028745651245 0.386658042669296265
-0.468696832656860352 -0.275457978248596191 0.0476528629660606384
0.108064979314804077 0.368629932403564453 0.137605011463165283
-0.12190188467502594 0.476394385099411011 0.360053777694702148
0.314194679260253906 0.051552310585975647 0.257472515106201172
-0.361212462186813354 -0.333369851112365723 0.298993736505508423
0.288877755403518677 0.352874815464019775 -0.186296150088310242
0.406242281198501587 0.153599917888641357 -0.209829151630401611
0.305109113454818726 0.373917549848556519 0.0546306334435939789
0.16498112678527832 0.361817032098770142 0.396091580390930176
0.359112024307250977 0.370484590530395508 -0.076575160026550293
0.139224708080291748 -0.386441558599472046 0.0176247991621494293
-0.251728594303131104 0.351116597652435303 0.186928167939186096
0.0544443875551223755 -0.366652905941009521 0.00407809950411319733
0.0996470972895622253 0.255297064781188965 0.0896039456129074097
-0.48164290189743042 -0.250895678997039795 0.100091695785522461
0.411465048789978027 0.313998818397521973 -0.13022284209728241
-0.328167527914047241 -0.330242931842803955 0.262386977672576904
0.0772765874862670898 0.409566044807434082 0.19220985472202301
0.336062252521514893 0.189714312553405762 0.287513405084609985
0.410612136125564575 0.187388956546783447 -0.116400949656963348
0.461379796266555786 0.0167731288820505142 -0.234381884336471558
0.392847180366516113 0.299121290445327759 0.031988970935344696
0.330668985843658447 -0.180909529328346252 0.183855146169662476
-0.0895385891199111938 -0.35682302713394165 0.0160006489604711533
-0.456492483615875244 -0.135063081979751587 0.144134968519210815
-0.439103811979293823 0.195249885320663452 0.117403902113437653
-0.475482046604156494 -0.299291461706161499 0.28070753812789917
0.379262596368789673 -0.2040606290102005 -0.144801676273345947
-0.437338978052139282 -0.127658605575561523 0.351113498210906982
-0.452003896236419678 -0.0862389951944351196 0.188828021287918091
-0.461622476577758789 0.179555535316467285 0.392331838607788086
-0.458081841468811035 0.0849032402038574219 0.385296851396560669
0.447238266468048096 -0.0150821907445788383 -0.283271729946136475
-0.473525494337081909 0.207412317395210266 0.357536017894744873
0.433519661426544189 0.331871002912521362 -0.166136711835861206
-0.312613785266876221 -0.0135141965001821518 0.113434188067913055
-0.154350847005844116 0.42609637975692749 0.234915584325790405
0.327428042888641357 -0.356250405311584473 -0.192021504044532776
-0.31915128231048584 0.369536042213439941 0.153587430715560913
0.527848482131958008 0.29477885365486145 -0.1028328537940979
-0.398454904556274414 0.102890729904174805 0.0866455957293510437
0.259525656700134277 0.460115343332290649 0.040069580078125
0.380538463592529297 0.404716908931732178 -0.101413711905479431
-0.518865227699279785 0.134056001901626587 0.233332812786102295
-0.388323754072189331 -0.0327226221561431885 0.0977166742086410522
-0.434289753437042236 0.194638937711715698 0.138734728097915649
0.541387498378753662 0.34562152624130249 -0.111763611435890198
-0.478634536266326904 -0.310307234525680542 0.157618105411529541
0.410910099744796753 0.168118029832839966 -0.211237579584121704
0.462573111057281494 0.356935083866119385 -0.144259512424468994
0.353112637996673584 0.087944328784942627 -0.215088903903961182
-0.444581061601638794 0.0728430226445198059 0.238080203533172607
0.362701594829559326 -0.361415266990661621 -0.311658173799514771
0.408218920230865479 0.131129547953605652 0.171215280890464783
-0.272262871265411377 -0.374374270439147949 -0.0102337682619690895
-0.516878008842468262 0.0551876313984394073 0.312155425548553467
0.481523215770721436 -0.170842826366424561 -0.289298653602600098
0.368957817554473877 0.282371342182159424 0.233895301818847656
0.510081887245178223 0.240166395902633667 -0.177856549620628357
0.409691572189331055 -0.2298441082239151 -0.287364959716796875
0.430665254592895508 -0.105572760105133057 -0.272717654705047607
-0.451341032981872559 0.314754664897918701 0.416684597730636597
0.414317995309829712 -0.279142469167709351 -0.32111319899559021
0.471345424652099609 -0.0694711953401565552 -0.233516797423362732
-0.414182454347610474 -0.267916828393936157 0.186622947454452515
-0.380971431732177734 0.330996841192245483 0.159717142581939697
0.329929053783416748 -0.353920429944992065 -0.274633586406707764
0.442749351263046265 -0.181761860847473145 -0.305467754602432251
0.421171456575393677 -0.0219341665506362915 -0.18888033926486969
-0.446243405342102051 0.206377863883972168 0.141831979155540466
-0.513724565505981445 -0.285381019115447998 0.218640714883804321
-0.480384320020675659 -0.163835585117340088 0.365759432315826416
0.522393584251403809 0.172553703188896179 -0.204525679349899292
0.3726387619972229 -0.230883091688156128 0.0477646030485630035
-0.486675560474395752 -0.12835538387298584 0.27198183536529541
-0.255470693111419678 -0.37831231951713562 0.0162879079580307007
0.390664815902709961 0.369814217090606689 0.0900769755244255066
0.361297667026519775 0.213780045509338379 0.0798294246196746826
-0.499407112598419189 -0.0615754388272762299 0.22183014452457428
0.333474159240722656 -0.273118138313293457 -0.334713578224182129
-0.526419281959533691 0.0451447479426860809 0.236749231815338135
0.353976964950561523 -0.199291840195655823 -0.312035679817199707
0.455416202545166016 -0.0594459474086761475 -0.257087349891662598
0.185791492462158203 0.371674299240112305 0.0493881888687610626
0.284063637256622314 0.330367386341094971 -0.148449704051017761
-0.396519660949707031 -0.0628053247928619385 0.0871563330292701721
0.467272311449050903 0.0646246299147605896 -0.193110853433609009
-0.386884003877639771 0.0698418095707893372 0.121149592101573944
0.415343225002288818 -0.319059699773788452 -0.212135612964630127
-0.515117764472961426 -0.249176025390625 0.191902577877044678
-0.380359500646591187 0.279977977275848389 0.377402245998382568
-0.45580291748046875 -0.153118640184402466 0.39263308048248291
0.360564857721328735 0.407403409481048584 -0.101940393447875977
0.461559325456619263 0.144342392683029175 -0.24095289409160614
0.39994281530380249 -0.123500585556030273 0.107212699949741364
-0.274400621652603149 -0.371628761291503906 -0.00792747735977172852
0.346214443445205688 0.283664494752883911 0.0819476917386054993
0.198580935597419739 -0.121057629585266113 0.135128825902938843
0.42641836404800415 -0.149372726678848267 -0.177376300096511841
0.252883672714233398 0.379972845315933228 -0.0150469094514846802
-0.460656940937042236 0.0258342772722244263 0.138230085372924805
0.398623883724212646 -0.123175926506519318 0.168899357318878174
0.363930404186248779 -0.216420188546180725 -0.228588253259658813
0.49163857102394104 0.168777614831924438 -0.214919790625572205
0.345897763967514038 0.312406092882156372 0.193618685007095337
-0.490272194147109985 0.0250740498304367065 0.205365955829620361
0.0738039389252662659 -0.353155374526977539 -0.114693321287631989
0.131204172968864441 -0.354467689990997314 0.0207603462040424347
0.0821922197937965393 0.23070862889289856 0.154303640127182007
-0.505246579647064209 0.218305140733718872 0.403877913951873779
-0.393686294555664062 0.0864736661314964294 0.0679405331611633301
0.493110418319702148 0.125569730997085571 -0.150072604417800903
0.279750347137451172 -0.380020439624786377 -0.0212816223502159119
0.16669948399066925 0.418771266937255859 0.36227041482925415
0.415597528219223022 -0.155531540513038635 0.0482066385447978973
-0.454947054386138916 -0.28706282377243042 0.108678288757801056
-0.450098305940628052 0.157881796360015869 0.126537427306175232
0.399199485778808594 -0.105945110321044922 -0.225984722375869751
-0.320212602615356445 0.324592918157577515 0.147110655903816223
0.38684612512588501 0.0813566744327545166 0.187895223498344421
0.190204799175262451 0.48700907826423645 0.203929618000984192
-0.158225476741790771 0.405844658613204956 0.211005330085754395
0.437492579221725464 -0.0473673343658447266 -0.274811506271362305
0.343649506568908691 0.393213093280792236 -0.0527495890855789185
0.363340049982070923 -0.344395697116851807 -0.293535798788070679
-0.445177316665649414 -0.0287779811769723892 0.123540580272674561
-0.452914655208587646 0.101842448115348816 0.134672552347183228
-0.402288347482681274 0.26765817403793335 0.180228859186172485
-0.194227084517478943 0.425831079483032227 0.247498437762260437
-0.518035888671875 -0.054720073938369751 0.228816896677017212
-0.253834336996078491 0.417766422033309937 0.202591389417648315
0.428004533052444458 0.367295920848846436 -0.11168292909860611
0.260997653007507324 0.402015715837478638 -0.0652547255158424377
-0.510990619659423828 -0.0274718739092350006 0.203722715377807617
-0.489450216293334961 -0.0541032776236534119 0.149810224771499634
-0.353021711111068726 0.17995096743106842 0.121525362133979797
-0.439524054527282715 0.201494932174682617 0.144761174917221069
-0.45047605037689209 0.211284816265106201 0.147223412990570068
-0.476150929927825928 0.295164793729782104 0.399466097354888916
0.331382483243942261 -0.353145062923431396 -0.078188285231590271
0.542275428771972656 0.182570338249206543 -0.189311712980270386
-0.47177278995513916 -0.240469366312026978 0.0906040817499160767
0.456691831350326538 0.234942838549613953 0.0401607751846313477
-0.268713176250457764 -0.382377147674560547 0.00171708688139915466
0.402415454387664795 0.38056337833404541 -0.112568765878677368
-0.396617382764816284 -0.102049320936203003 0.116774849593639374
-0.348105192184448242 0.174869239330291748 0.127358108758926392
-0.43695870041847229 0.274202138185501099 0.359458386898040771
-0.310480803251266479 0.398171067237854004 0.297016412019729614
0.48662915825843811 -0.00498468615114688873 -0.260296791791915894
0.434731572866439819 0.21973651647567749 -0.0378302596509456635
-0.50643843412399292 0.0803752914071083069 0.303003907203674316
0.181055396795272827 0.373418718576431274 0.174020394682884216
0.291170030832290649 0.210287213325500488 0.212365210056304932
-0.475766748189926147 -0.0900975391268730164 0.394551753997802734
-0.429857730865478516 -0.320605039596557617 0.105902284383773804
-0.420488804578781128 -0.0546950511634349823 0.159103542566299438
0.212697744369506836 0.226849019527435303 0.0982707291841506958
0.443182826042175293 0.275853991508483887 -0.128514304757118225
-0.404656946659088135 -0.30922466516494751 0.213419944047927856
-0.410984724760055542 0.329691499471664429 0.337042480707168579
0.316757380962371826 -0.359922528266906738 -0.291989713907241821
0.348209977149963379 -0.290825158357620239 -0.264098495244979858
0.248550593852996826 0.318250000476837158 0.388937503099441528
0.388873010873794556 0.221547141671180725 0.139449805021286011
-0.418269574642181396 -0.181073769927024841 0.124359361827373505
-0.373999446630477905 0.0769553780555725098 0.126220464706420898
0.393919050693511963 -0.13025781512260437 0.136645376682281494
-0.453642100095748901 0.0668855831027030945 0.350790470838546753
-0.26248621940612793 0.40003398060798645 0.208953022956848145
0.288547754287719727 0.319104790687561035 0.178276896476745605
-0.4911041259765625 0.132120475172996521 0.240545377135276794
0.451579362154006958 0.2121477872133255 -0.000995313283056020737
-0.460740566253662109 0.182388558983802795 0.170300304889678955
-0.397664636373519897 -0.262167423963546753 0.0417487584054470062
0.404819667339324951 -0.311072736978530884 -0.314734697341918945
-0.487165749073028564 0.117453813552856445 0.230468809604644775
-0.39403870701789856 -0.306987524032592773 0.0262100622057914734
0.296466052532196045 -0.367197126150131226 -0.333457916975021362
-0.459771454334259033 -0.152105748653411865 0.117797121405601501
0.441386878490447998 -0.156430378556251526 0.0517205893993377686
-0.461213469505310059 0.109745047986507416 0.164056628942489624
-0.481218576431274414 0.0628442168235778809 0.308231741189956665
-0.48897281289100647 0.00941595155745744705 0.294067025184631348
0.306962132453918457 0.375274151563644409 -0.0256705731153488159
0.280468910932540894 -0.363287985324859619 -0.338356465101242065
-0.431880742311477661 -0.110290020704269409 0.129146024584770203
-0.441107898950576782 0.0489690229296684265 0.103242054581642151
-0.37938380241394043 -0.323476314544677734 0.0136265084147453308
0.469644129276275635 0.278710424900054932 -0.129216581583023071
-0.439715653657913208 -0.260785669088363647 0.0781719759106636047
0.280233919620513916 -0.343939036130905151 -0.0317155681550502777
0.409389913082122803 -0.288580328226089478 -0.289943337440490723
-0.263175070285797119 0.393177539110183716 0.185887694358825684
-0.363827168941497803 0.202847346663475037 0.211649522185325623
-0.149630680680274963 -0.410713285207748413 -0.0104428306221961975
0.408418476581573486 -0.217168152332305908 -0.28776201605796814
-0.393854647874832153 -0.234816774725914001 0.0597908906638622284
-0.462764352560043335 0.0644530504941940308 0.142381027340888977
0.474510461091995239 -0.0678410008549690247 -0.251295208930969238
0.43227696418762207 -0.215355470776557922 -0.28745955228805542
-0.48772546648979187 -0.0594851262867450714 0.198692202568054199
0.390180498361587524 -0.24255053699016571 0.165536999702453613
-0.403999686241149902 -0.326282888650894165 0.0255089811980724335
0.310069859027862549 0.250935912132263184 0.148269027471542358
0.330533832311630249 -0.233285427093505859 0.164794579148292542
-0.0168834701180458069 -0.404678612947463989 -0.089895196259021759
0.174416333436965942 0.382441878318786621 0.341558009386062622
-0.446119815111160278 -0.309195190668106079 0.124751083552837372
0.365318894386291504 0.232583403587341309 -0.14409404993057251
0.396614164113998413 -0.0659596025943756104 0.108554355800151825
0.444519340991973877 0.370259195566177368 -0.110435605049133301
0.265322685241699219 0.381775707006454468 -0.0595830753445625305
-0.389358103275299072 -0.0900528430938720703 0.120230533182621002
0.513693809509277344 0.0201019980013370514 -0.251570850610733032
0.346401453018188477 -0.259528756141662598 0.08947773277759552
-0.439463824033737183 -0.094160228967666626 0.135321289300918579
0.157394081354141235 0.370972990989685059 0.114249423146247864
-0.288474112749099731 -0.391029924154281616 0.00231498805806040764
0.447103142738342285 0.225011453032493591 0.117516793310642242
0.260094761848449707 0.318913906812667847 0.0865561142563819885
0.362635254859924316 0.295569658279418945 0.163426727056503296
-0.442151248455047607 0.278440862894058228 0.401495814323425293
-0.456755220890045166 0.0132876485586166382 0.396112203598022461
0.334846764802932739 0.25838121771812439 0.381041556596755981
-0.296203106641769409 -0.126058891415596008 0.0921735614538192749
0.511046767234802246 0.250979393720626831 -0.189893767237663269
-0.466355085372924805 -0.10343749076128006 0.342381834983825684
0.330251425504684448 0.314256370067596436 -0.0237661655992269516
0.28315436840057373 0.218651264905929565 0.288113266229629517
-0.413922518491744995 -0.182362481951713562 0.103587530553340912
-0.150142878293991089 0.400780379772186279 0.200943261384963989
0.310975998640060425 0.286096155643463135 0.232443198561668396
-0.201787009835243225 -0.412626296281814575 0.0213264971971511841
0.392293810844421387 -0.113787621259689331 -0.048205934464931488
0.372929751873016357 0.259072750806808472 0.285874813795089722
-0.487346619367599487 0.121498361229896545 0.265366673469543457
0.427471786737442017 -0.297937333583831787 -0.338083386421203613
0.426741957664489746 -0.293012797832489014 -0.347141534090042114
-0.520684659481048584 0.119730144739151001 0.262184739112854004
-0.458575129508972168 0.26310575008392334 0.383804827928543091
0.429890245199203491 0.0730786621570587158 0.161161899566650391
0.335603237152099609 -0.333843022584915161 -0.323782056570053101
-0.429334759712219238 -0.270955294370651245 0.108663544058799744
0.456088215112686157 -0.170108780264854431 -0.299474805593490601
0.432127535343170166 0.123636297881603241 -0.113942757248878479
0.425187051296234131 -0.175955608487129211 -0.137866467237472534
-0.353083133697509766 0.0398263856768608093 0.350223779678344727
-0.304344236850738525 -0.273742347955703735 0.000327229499816894531
0.119131855666637421 -0.353762686252593994 0.0222602412104606628
0.122272856533527374 0.207435458898544312 0.110064029693603516
0.356158614158630371 -0.0123832374811172485 0.139909014105796814
0.381355762481689453 0.222906515002250671 0.157808318734169006
-0.499243378639221191 0.191644102334976196 0.384522110223770142
-0.454580426216125488 0.310500532388687134 0.397948622703552246
0.158145934343338013 0.443020075559616089 0.214249268174171448
-0.361915320158004761 0.309189468622207642 0.371574133634567261
0.404655724763870239 -0.131548970937728882 -0.148135378956794739
-0.30132719874382019 0.0141062475740909576 0.126584723591804504
0.126447036862373352 0.382381916046142578 0.151050999760627747
-0.244190797209739685 -0.399003177881240845 0.00321513041853904724
-0.350376665592193604 -0.289432883262634277 0.013686327263712883
0.340793997049331665 0.0523690171539783478 0.247276261448860168
0.465182095766067505 0.175972476601600647 -0.152883529663085938
-0.439610123634338379 0.166306167840957642 0.283721596002578735
0.380005180835723877 -0.312094926834106445 -0.204987943172454834
-0.361417055130004883 0.320880651473999023 0.325882136821746826
-0.441432297229766846 -0.182490065693855286 0.335282742977142334
0.303339779376983643 0.320854127407073975 0.0248772352933883667
0.352371960878372192 0.238629505038261414 0.289433300495147705
0.295829534530639648 0.0339821726083755493 0.230615168809890747
0.42913326621055603 -0.158705443143844604 -0.309325039386749268
-0.538975059986114502 -0.269855707883834839 0.312674641609191895
0.263062030076980591 0.354667484760284424 0.211910933256149292
-0.499023705720901489 0.183590546250343323 0.378279834985733032
-0.504761874675750732 0.211601302027702332 0.318058371543884277
0.476848721504211426 -0.173932731151580811 -0.298323243856430054
0.260365277528762817 0.228421986103057861 0.360676288604736328
-0.475598454475402832 0.107081837952136993 0.230186402797698975
0.379027664661407471 -0.269631028175354004 -0.272833526134490967
0.2099495530128479 0.274138987064361572 0.0724881887435913086
0.40797048807144165 -0.277651548385620117 -0.261488378047943115
-0.112850077450275421 -0.475223630666732788 0.0190330445766448975
-0.506684184074401855 0.0250285007059574127 0.200995743274688721
0.422384321689605713 -0.0576789304614067078 0.175593122839927673
0.346112519502639771 0.402100950479507446 0.0548920296132564545
0.444809287786483765 -0.283590197563171387 -0.337991535663604736
0.438722759485244751 -0.179751604795455933 -0.296151459217071533
0.434053152799606323 -0.115244761109352112 -0.0993615910410881042
-0.462040334939956665 -0.0868572071194648743 0.1894511878490448
-0.290693521499633789 -0.39190375804901123 -0.016221802681684494
-0.421581417322158813 -0.321574121713638306 0.0206024609506130219
0.378375709056854248 -0.263042032718658447 -0.200587883591651917
0.441841930150985718 0.288712978363037109 -0.0894446820020675659
-0.397728174924850464 0.266666263341903687 0.335960328578948975
0.307464718818664551 -0.215855836868286133 -0.260415732860565186
0.177001118659973145 -0.614075303077697754 -0.131846755743026733
-0.439543008804321289 -0.270785212516784668 0.0216067209839820862
0.353341966867446899 -0.312852919101715088 -0.183282092213630676
0.423431634902954102 -0.0942347794771194458 -0.206102758646011353
0.141957193613052368 -0.715335845947265625 -0.129886969923973083
0.469944000244140625 0.0802427977323532104 -0.139541894197463989
0.405120491981506348 -0.285070687532424927 -0.348838210105895996
-0.467007309198379517 -0.241780772805213928 0.0839874148368835449
-0.251122623682022095 0.444087982177734375 0.255377620458602905
0.405209571123123169 -0.113473162055015564 -0.13058769702911377
-0.395726263523101807 -0.320085823535919189 0.210147082805633545
0.327578723430633545 0.392732739448547363 -0.069378584623336792
0.303325891494750977 -0.358038067817687988 -0.325412213802337646
-0.382573544979095459 -0.0471993535757064819 0.101729907095432281
0.500238418579101562 0.17597275972366333 -0.203196942806243896
