ply
format ascii 1.0
element vertex 739
property float x
property float y
property float z
end_header
0.539018392562866211 0.381177753210067749 -0.0944825336337089539
-0.604920268058776855 -0.126096636056900024 0.042342454195022583
-0.609899759292602539 0.369746804237365723 0.333068877458572388
-0.55886918306350708 -0.208980172872543335 -0.00220912694931030273
0.450312644243240356 -0.394024431705474854 -0.120560161769390106
-0.499775946140289307 -0.342252254486083984 -0.0773624032735824585
0.54472041130065918 -0.331358790397644043 -0.226474612951278687
-0.246420145034790039 -0.390319228172302246 -0.0535669177770614624
0.507834196090698242 -0.328632444143295288 -0.265872001647949219
0.552314877510070801 -0.229361146688461304 -0.229184702038764954
0.558754205703735352 0.370029091835021973 -0.072045549750328064
0.528912961483001709 -0.401532948017120361 -0.276765614748001099
0.543465912342071533 -0.128702893853187561 -0.253725647926330566
0.554032683372497559 -0.0662607476115226746 -0.226643413305282593
0.590052962303161621 -0.158753901720046997 -0.229636028409004211
0.343020975589752197 0.277654707431793213 -0.116800554096698761
0.647183656692504883 0.0893742591142654419 -0.1657390296459198
-0.51276099681854248 0.311967015266418457 0.308940976858139038
-0.509021878242492676 -0.142375022172927856 0.0700432881712913513
-0.457630902528762817 0.427375048398971558 0.242853283882141113
0.44028821587562561 -0.386505663394927979 -0.246203422546386719
-0.398428380489349365 -0.367478728294372559 0.0186315476894378662
0.38082924485206604 -0.46373063325881958 -0.0430272072553634644
0.502507686614990234 -0.307393699884414673 -0.305290758609771729
-0.337449640035629272 -0.436577945947647095 -0.120460979640483856
-0.605040013790130615 0.0552354417741298676 0.143521577119827271
-0.381462156772613525 -0.347232669591903687 -0.0217858627438545227
0.242385432124137878 -0.52909398078918457 -0.129269257187843323
0.466646075248718262 -0.420531749725341797 0.185257196426391602
0.260677456855773926 0.390349656343460083 0.0721022039651870728
0.396700352430343628 0.431292533874511719 -0.0246560573577880859
-0.616014063358306885 0.0532150380313396454 0.224480286240577698
-0.617383480072021484 0.375106394290924072 0.340773016214370728
-0.298363447189331055 -0.407189667224884033 -0.124153599143028259
0.406518340110778809 0.453634381294250488 -0.022943452000617981
-0.518400251865386963 -0.0661950409412384033 0.0143908411264419556
0.471997588872909546 -0.105116017162799835 0.217100813984870911
-0.54050755500793457 -0.277622371912002563 -0.104005254805088043
0.330631434917449951 0.387122988700866699 0.332062125205993652
-0.408777058124542236 -0.346652328968048096 -0.0503093600273132324
-0.598143875598907471 -0.0239170268177986145 0.272158592939376831
-0.534932732582092285 0.335941404104232788 0.321766853332519531
-0.438818097114562988 0.175614789128303528 0.00990518927574157715
-0.35181659460067749 -0.391967833042144775 0.0898430347442626953
-0.516738831996917725 -0.330132812261581421 0.17685401439666748
-0.338455766439437866 0.461960554122924805 0.178284585475921631
-0.345151901245117188 -0.407719910144805908 -0.136381044983863831
0.346868276596069336 0.50405573844909668 0.122316449880599976
0.627823889255523682 0.353363156318664551 -0.0458132624626159668
-0.424273401498794556 -0.25594627857208252 0.0334670320153236389
-0.405120134353637695 -0.375148922204971313 -0.00732509046792984009
-0.606076836585998535 0.340392708778381348 0.230668902397155762
0.376152276992797852 -0.431235134601593018 0.18324202299118042
0.559924423694610596 -0.307319819927215576 -0.316076278686523438
0.442558020353317261 -0.4022064208984375 -0.247859999537467957
-0.481320828199386597 -0.200899228453636169 0.0306555554270744324
-0.301087617874145508 0.453978896141052246 0.32557600736618042
0.537907838821411133 -0.339109808206558228 -0.235632717609405518
0.562348365783691406 -0.396951675415039062 -0.275850534439086914
0.580294549465179443 -0.114844143390655518 -0.210599109530448914
0.578637003898620605 -0.141232281923294067 -0.214273914694786072
0.522092819213867188 -0.261557817459106445 -0.315486311912536621
-0.126901760697364807 0.501048862934112549 0.091370701789855957
-0.0113521963357925415 -0.553338587284088135 -0.0931172072887420654
-0.576543271541595459 0.201565489172935486 0.302142977714538574
-0.154171943664550781 0.526705145835876465 0.118973910808563232
0.57185286283493042 -0.170690149068832397 0.0404527038335800171
0.100016988813877106 0.514904618263244629 0.347855597734451294
-0.25942307710647583 -0.389268398284912109 -0.0645133405923843384
0.215853631496429443 0.449143916368484497 0.356218874454498291
0.484511673450469971 0.118073485791683197 -0.0577850714325904846
0.158148214221000671 0.358475685119628906 0.0859611630439758301
0.263009607791900635 0.440590947866439819 0.0411003902554512024
0.441940486431121826 0.425952017307281494 0.0231856517493724823
0.28309515118598938 0.364346921443939209 0.232136785984039307
0.401536226272583008 0.422902315855026245 0.105018407106399536
-0.429902195930480957 -0.399029999971389771 -0.0374622195959091187
0.152945935726165771 0.329903364181518555 0.0982251614332199097
-0.459085702896118164 -0.231353715062141418 -0.0409471802413463593
0.540872573852539062 -0.173309221863746643 0.0786351561546325684
-0.278019309043884277 -0.391170978546142578 -0.0221219025552272797
0.550296306610107422 -0.210890471935272217 -0.230930417776107788
0.439525634050369263 -0.386785298585891724 -0.161500096321105957
0.114092186093330383 0.512064635753631592 0.313669800758361816
0.372572839260101318 0.375155001878738403 0.131477922201156616
0.460815638303756714 -0.373990893363952637 -0.160868853330612183
-0.447274446487426758 -0.24108278751373291 0.00704781711101531982
0.533487200736999512 0.255174577236175537 -0.0399186760187149048
0.442717850208282471 -0.36959192156791687 -0.151295572519302368
0.551631152629852295 -0.108851596713066101 -0.228131979703903198
0.550703465938568115 -0.247629895806312561 -0.241103649139404297
-0.195441484451293945 0.32755202054977417 0.386381477117538452
0.417437136173248291 -0.379112839698791504 -0.00732342340052127838
0.544090449810028076 0.102319858968257904 0.214548081159591675
-0.0699038133025169373 -0.50457000732421875 -0.0906642228364944458
0.518851935863494873 -0.13105301558971405 0.118290245532989502
-0.29834100604057312 -0.411517322063446045 -0.0837003961205482483
0.576026320457458496 0.0245814789086580276 0.0610678195953369141
0.555198371410369873 -0.110705815255641937 -0.200619697570800781
0.16447409987449646 0.413204938173294067 0.367125481367111206
0.517796695232391357 0.120922207832336426 -0.109334282577037811
0.20931631326675415 0.479993313550949097 0.0317591316998004913
0.559185922145843506 -0.105445384979248047 -0.215249955654144287
0.105041831731796265 0.49918055534362793 0.177191376686096191
-0.424984961748123169 0.0830329954624176025 0.1086239293217659
-0.425412595272064209 0.0287646092474460602 0.0323207452893257141
-0.397727847099304199 -0.377477705478668213 -0.122480630874633789
0.332835584878921509 0.395367056131362915 0.108737602829933167
0.464501321315765381 0.330771893262863159 -0.100454136729240417
-0.466943532228469849 -0.413694232702255249 -0.0959055200219154358
-0.589780688285827637 0.115545421838760376 0.23869815468788147
0.240774795413017273 0.428230047225952148 -0.00103095173835754395
-0.598724365234375 0.251422584056854248 0.276587456464767456
0.233567878603935242 0.517272531986236572 0.0415553338825702667
0.588338971138000488 -0.203845605254173279 -0.225156247615814209
-0.167038857936859131 0.442232191562652588 0.11303284764289856
-0.418420523405075073 0.344531327486038208 0.205969482660293579
0.588385879993438721 0.332433253526687622 -0.114645957946777344
0.154239341616630554 0.393012166023254395 0.313778012990951538
-0.205573052167892456 0.48200911283493042 0.103166200220584869
0.484640657901763916 -0.310654163360595703 -0.144016027450561523
0.592705488204956055 0.0364772379398345947 -0.19484555721282959
-0.478413850069046021 -0.223233833909034729 -0.00684193149209022522
0.546544790267944336 -0.0528053566813468933 -0.211078807711601257
0.392279148101806641 0.178552478551864624 0.265384376049041748
0.566246628761291504 0.232609376311302185 -0.0726129263639450073
-0.550020992755889893 0.261427015066146851 0.269441694021224976
0.524968862533569336 0.325549513101577759 -0.0504188984632492065
0.590327084064483643 -0.0461855307221412659 -0.21185949444770813
-0.4194621741771698 -0.345011442899703979 0.0677239000797271729
-0.411206930875778198 -0.35842442512512207 -0.0642889738082885742
0.536916851997375488 -0.255798310041427612 -0.222975671291351318
-0.620357036590576172 -0.131369471549987793 0.046047702431678772
0.536762118339538574 -0.154620721936225891 0.207907140254974365
0.238811194896697998 -0.518702864646911621 -0.124090984463691711
-0.53438490629196167 -0.260299086570739746 0.0647717863321304321
0.562786340713500977 -0.0449757874011993408 -0.222637519240379333
0.393432527780532837 0.433472812175750732 0.0336708575487136841
0.545231401920318604 0.175381958484649658 0.292517036199569702
-0.253456771373748779 -0.470610082149505615 -0.113686949014663696
-0.604570269584655762 -0.100049987435340881 -0.090878702700138092
-0.489899039268493652 -0.377525418996810913 0.0353234186768531799
0.451405823230743408 0.0489919222891330719 0.259253978729248047
-0.0265542566776275635 -0.574092984199523926 -0.127880021929740906
0.560830116271972656 0.0428178012371063232 -0.0580860376358032227
-0.574866175651550293 -0.00226903706789016724 0.0776266008615493774
0.484069764614105225 0.359476566314697266 0.0423418581485748291
-0.44956517219543457 -0.279966771602630615 -0.000982843339443206787
-0.418940931558609009 0.185725599527359009 0.0665805414319038391
-0.466935396194458008 -0.136757999658584595 -0.0562106519937515259
0.465627104043960571 0.26021122932434082 0.28904193639755249
-0.526096880435943604 0.0287038702517747879 0.0976584479212760925
-0.54626089334487915 -0.146251276135444641 0.109799489378929138
-0.325585871934890747 0.429412543773651123 0.108226239681243896
-0.14569970965385437 0.537879288196563721 0.0993375852704048157
-0.427543938159942627 -0.327512085437774658 0.0339887216687202454
0.43528449535369873 -0.231941744685173035 -0.229245513677597046
-0.510496735572814941 -0.242163136601448059 -0.0128694400191307068
-0.270954519510269165 0.442223787307739258 0.335086941719055176
0.388566642999649048 -0.386007636785507202 -0.158368617296218872
0.5852317214012146 0.2383432537317276 -0.0862474739551544189
0.329467475414276123 0.441922932863235474 0.028252430260181427
0.325683027505874634 0.400614798069000244 0.349707692861557007
0.166604727506637573 0.486027836799621582 0.0330678708851337433
-0.460030049085617065 -0.150622546672821045 -0.0184269510209560394
-0.459853887557983398 0.0233429372310638428 0.0538068562746047974
0.527295529842376709 0.145684614777565002 -0.0439377278089523315
0.141079559922218323 0.395302146673202515 0.0786933600902557373
-0.375699013471603394 -0.27121397852897644 -0.0347693189978599548
0.337661683559417725 0.386402010917663574 0.286775201559066772
0.587525367736816406 -0.0826551914215087891 -0.196799039840698242
0.452431976795196533 -0.259604394435882568 0.0545892119407653809
-0.467451304197311401 -0.0987063795328140259 0.011569783091545105
-0.551706850528717041 0.131737977266311646 0.306370824575424194
0.364370465278625488 -0.251506656408309937 -0.222690224647521973
-0.354519635438919067 -0.321483373641967773 -0.0565160214900970459
0.551588237285614014 -0.103759773075580597 -0.136495262384414673
0.119591183960437775 0.518344998359680176 0.354195445775985718
-0.367286860942840576 -0.355866968631744385 -0.131369829177856445
-0.41938936710357666 0.232157975435256958 0.0613013394176959991
0.539744317531585693 0.382685959339141846 -0.0433897301554679871
0.388587355613708496 0.390665948390960693 0.237084090709686279
0.439899742603302002 0.0214977040886878967 0.259086430072784424
-0.490361392498016357 0.15771782398223877 -0.0115513652563095093
0.239410832524299622 0.409603685140609741 0.0479273907840251923
0.539456188678741455 -0.310309231281280518 -0.235838174819946289
0.625048220157623291 0.0330779142677783966 -0.165809109807014465
0.3598288893699646 0.439352810382843018 -0.0159570984542369843
0.327693849802017212 0.420053869485855103 0.325284272432327271
0.112956970930099487 0.506432294845581055 0.0594773590564727783
-0.495650231838226318 0.0720047056674957275 0.103226751089096069
-0.501739442348480225 0.0835503339767456055 0.128801703453063965
0.475007951259613037 -0.161730483174324036 -0.110798582434654236
0.425304174423217773 -0.381103426218032837 -0.164581373333930969
0.439726650714874268 -0.409964084625244141 -0.263333946466445923
-0.633887529373168945 0.0998086705803871155 0.227235153317451477
0.274909019470214844 0.418440461158752441 0.370218545198440552
0.353754520416259766 0.414720773696899414 0.211601793766021729
0.527710497379302979 -0.253410995006561279 -0.216675132513046265
-0.475016206502914429 -0.316637158393859863 -0.0672627687454223633
-0.320757597684860229 -0.354783326387405396 -0.0902666002511978149
-0.432369440793991089 0.185456499457359314 0.050920635461807251
0.558595180511474609 0.111070401966571808 -0.0609930604696273804
0.464512407779693604 0.363259017467498779 -0.0670210272073745728
0.485469251871109009 0.298029124736785889 0.279082775115966797
-0.017991282045841217 -0.549877822399139404 -0.12477700412273407
0.571168065071105957 0.141404509544372559 0.0153081128373742104
0.568310916423797607 0.137239947915077209 -0.0140686817467212677
-0.607318639755249023 0.17685253918170929 0.233939185738563538
-0.5068473219871521 0.0991358831524848938 0.0390892475843429565
0.54022902250289917 -0.249292388558387756 -0.258985728025436401
0.503206551074981689 -0.159161671996116638 -0.0599901899695396423
0.404876410961151123 0.418868184089660645 -0.0103799104690551758
-0.466108232736587524 0.238547936081886292 0.333011806011199951
-0.386828362941741943 0.39310184121131897 0.0314012765884399414
0.343931257724761963 0.389349043369293213 0.198357805609703064
-0.500470221042633057 -0.015077739953994751 -0.00309260189533233643
0.554362297058105469 -0.198916852474212646 -0.235346317291259766
-0.62353515625 -0.100595548748970032 -0.0405092686414718628
-0.473546206951141357 -0.250436633825302124 -0.0329146310687065125
-0.0644034668803215027 -0.562516093254089355 -0.120715275406837463
-0.464338928461074829 -0.178960710763931274 -0.0199625156819820404
-0.505279421806335449 0.34326702356338501 0.188911765813827515
-0.61252439022064209 0.312436282634735107 0.29419398307800293
0.519673466682434082 -0.353070855140686035 -0.257194429636001587
-0.445152819156646729 0.318328678607940674 0.0684312582015991211
-0.419749617576599121 -0.398338139057159424 -0.0562981292605400085
0.547902405261993408 0.156275093555450439 0.292161792516708374
-0.607969760894775391 -0.105241194367408752 -0.077734045684337616
0.526794075965881348 -0.254078984260559082 -0.276276290416717529
-0.630609512329101562 -0.0281008314341306686 0.194438040256500244
0.369537234306335449 -0.34988778829574585 0.10020233690738678
-0.462433397769927979 0.246854811906814575 0.11581045389175415
0.603870689868927002 -0.182964637875556946 0.0885297209024429321
-0.536994755268096924 -0.138351917266845703 0.096698373556137085
-0.462230980396270752 -0.355023831129074097 -0.0141272395849227905
-0.595808148384094238 0.0103440545499324799 0.260127663612365723
-0.469172477722167969 0.254503607749938965 0.0915023833513259888
0.532384276390075684 -0.0886893346905708313 0.0726006850600242615
0.377127707004547119 0.448677361011505127 -0.0690990537405014038
-0.590138673782348633 0.00501193851232528687 0.2261485755443573
-0.435173779726028442 -0.383545398712158203 0.21652492880821228
0.394669234752655029 0.375974267721176147 -0.0169466771185398102
-0.504427313804626465 -0.333859741687774658 -0.0718145221471786499
0.331734418869018555 -0.381500452756881714 -0.0117779411375522614
0.536923825740814209 0.301411896944046021 -0.0770268440246582031
0.44050869345664978 -0.413195937871932983 -0.240721017122268677
0.425733953714370728 -0.336448311805725098 -0.22629469633102417
0.552343308925628662 -0.201337307691574097 -0.237013176083564758
0.537816524505615234 -0.166965574026107788 -0.0323641411960124969
0.432583898305892944 -0.395216584205627441 -0.230853661894798279
-0.373320192098617554 -0.40926051139831543 0.00905400514602661133
-0.61532127857208252 0.181583598256111145 0.115612730383872986
0.433247625827789307 0.208561941981315613 0.276864081621170044
-0.594823718070983887 0.19241681694984436 0.292890697717666626
0.633438348770141602 0.0708062201738357544 -0.139259397983551025
0.548017978668212891 -0.118145555257797241 -0.238182604312896729
0.54252326488494873 -0.292538851499557495 -0.213822036981582642
0.552458703517913818 -0.224286168813705444 -0.260091394186019897
0.539743542671203613 -0.399262011051177979 -0.268269777297973633
-0.437259972095489502 -0.250074386596679688 0.0179807841777801514
-0.381829261779785156 -0.381525665521621704 0.0511567145586013794
0.521745443344116211 -0.241060823202133179 -0.133806288242340088
-0.416892081499099731 0.0632036849856376648 0.0275775939226150513
0.210478454828262329 -0.476170957088470459 -0.252690315246582031
-0.301563948392868042 0.448391199111938477 0.318202316761016846
-0.310330659151077271 -0.402494043111801147 -0.0841975659132003784
0.601414680480957031 -0.0832452476024627686 -0.198914706707000732
0.458191156387329102 -0.378154724836349487 -0.170467883348464966
0.507052600383758545 -0.357003450393676758 -0.237643256783485413
0.588179528713226318 0.0202829614281654358 -0.179430931806564331
-0.498922854661941528 -0.275838375091552734 0.00928343832492828369
-0.452093750238418579 -0.0626194179058074951 0.0188778750598430634
-0.599519073963165283 -0.0358160622417926788 0.222645103931427002
0.464291155338287354 0.387703627347946167 -0.0546344220638275146
-0.527588248252868652 0.128518953919410706 0.0678694769740104675
-0.388700008392333984 -0.365984886884689331 -0.0406025946140289307
0.626286029815673828 0.00432302895933389664 -0.0161483399569988251
0.306465685367584229 0.375776290893554688 0.102997027337551117
0.371533006429672241 -0.391916215419769287 -0.0832392275333404541
-0.240672275424003601 -0.469088494777679443 -0.134675294160842896
0.321562379598617554 0.393312513828277588 0.228221267461776733
0.537757635116577148 -0.175951495766639709 -0.163422122597694397
0.422769695520401001 0.395281165838241577 0.124685510993003845
0.542319893836975098 0.107312485575675964 -0.0671562105417251587
0.626173615455627441 0.0474931895732879639 -0.04916401207447052
0.488936543464660645 0.366326779127120972 -0.0998681485652923584
0.623928248882293701 -0.0999737977981567383 -0.200730234384536743
-0.542030215263366699 0.0450417585670948029 0.309091925621032715
0.597831845283508301 -0.21342623233795166 -0.264454513788223267
-0.446357548236846924 0.370095551013946533 0.276747286319732666
0.58720475435256958 -0.0544909350574016571 -0.239758029580116272
0.457791060209274292 -0.355140566825866699 -0.208395987749099731
0.154127329587936401 0.417779654264450073 0.168020874261856079
0.598131656646728516 -0.240037038922309875 -0.23382905125617981
-0.611597597599029541 0.201700568199157715 0.313191056251525879
-0.459780693054199219 -0.33780941367149353 0.111675471067428589
-0.52048105001449585 0.35828813910484314 0.306758373975753784
0.602298855781555176 0.00217952672392129898 -0.0388321354985237122
0.353598475456237793 0.444821208715438843 0.0974398106336593628
0.305024027824401855 -0.452874988317489624 -0.0170739330351352692
-0.24717414379119873 -0.47024989128112793 -0.149820446968078613
0.41266244649887085 0.369784086942672729 0.187951758503913879
0.544398069381713867 -0.248108148574829102 -0.235910981893539429
0.483260124921798706 0.395998388528823853 0.0630769133567810059
0.567201852798461914 -0.111654780805110931 -0.100457318127155304
-0.500802099704742432 0.205540776252746582 0.179621338844299316
0.558375954627990723 -0.00583566818386316299 -0.0906679928302764893
0.525013506412506104 0.271589756011962891 0.0392824634909629822
-0.295281857252120972 0.294801324605941772 0.110161185264587402
0.285942763090133667 0.373824000358581543 0.306421220302581787
0.441778004169464111 0.401603877544403076 -0.0357008576393127441
0.559110045433044434 -0.0661700963973999023 -0.229325681924819946
0.551625192165374756 -0.273409008979797363 -0.252706140279769897
-0.495815247297286987 0.361053466796875 0.264372646808624268
0.590893745422363281 -0.161415457725524902 -0.253727555274963379
0.20911070704460144 -0.436032414436340332 -0.261070936918258667
-0.56752622127532959 -0.164332151412963867 0.0643747001886367798
-0.61123812198638916 0.345625460147857666 0.328666210174560547
0.200904697179794312 0.429562568664550781 0.343480765819549561
0.51348578929901123 -0.306289494037628174 -0.299091190099716187
0.562595605850219727 -0.155066847801208496 -0.241891145706176758
0.57470548152923584 -0.0061488049104809761 -0.116721853613853455
0.432661861181259155 -0.392782986164093018 -0.243065983057022095
-0.602338910102844238 0.144290760159492493 0.229561328887939453
0.601462960243225098 0.232619926333427429 -0.0977858901023864746
0.507775604724884033 -0.182912677526473999 -0.22741033136844635
-0.380445241928100586 -0.409838467836380005 0.0183968618512153625
0.479047030210494995 0.384288549423217773 0.0840206742286682129
-0.511114299297332764 0.0439717546105384827 -0.0302507355809211731
0.549600958824157715 -0.184764266014099121 0.201899990439414978
-0.581692218780517578 0.152332723140716553 0.0870321691036224365
-0.369249463081359863 -0.405529439449310303 -0.0514895468950271606
-0.446736067533493042 -0.317249715328216553 -0.153083622455596924
0.57031548023223877 -0.24840177595615387 -0.184821039438247681
0.54539942741394043 0.0683907493948936462 -0.059594273567199707
0.631851613521575928 0.0678503736853599548 -0.121827103197574615
0.56560671329498291 -0.118369981646537781 -0.231965258717536926
0.59074866771697998 0.0201534032821655273 -0.174118369817733765
0.536191225051879883 -0.25886237621307373 -0.191106736660003662
0.569744229316711426 -0.387699663639068604 -0.274959266185760498
-0.448991924524307251 -0.24277573823928833 0.0375787317752838135
0.486054301261901855 -0.241826429963111877 -0.151162058115005493
-0.495133012533187866 0.0902990028262138367 0.00388114899396896362
0.556601524353027344 -0.00341849448159337044 0.0450456887483596802
-0.306452095508575439 -0.420146644115447998 -0.0933088809251785278
0.450971543788909912 -0.373393326997756958 -0.16429901123046875
-0.537963747978210449 -0.272556781768798828 0.0333340466022491455
-0.370104342699050903 0.339314818382263184 0.234170973300933838
-0.366756170988082886 -0.361637353897094727 -0.0828644484281539917
0.57755589485168457 0.215988039970397949 -0.0463181659579277039
0.495489656925201416 0.239038571715354919 0.215284287929534912
-0.37478029727935791 0.152755185961723328 0.0153892189264297485
-0.595120549201965332 -0.0409620180726051331 0.264484763145446777
0.553535223007202148 -0.0769735798239707947 -0.137599438428878784
0.484226047992706299 0.392167806625366211 -7.71880149841308594e-05
0.45160830020904541 -0.329523414373397827 -0.206512033939361572
0.557265102863311768 -0.115633569657802582 -0.251952439546585083
0.436669647693634033 0.326245427131652832 0.243299573659896851
-0.504178464412689209 -0.287919670343399048 0.0147064998745918274
-0.571944832801818848 0.0725562423467636108 0.2656211256980896
-0.533274710178375244 -0.290757089853286743 -0.136589899659156799
0.540448427200317383 0.285124272108078003 -0.0110891163349151611
-0.379902839660644531 0.1545582115650177 0.000302627682685852051
0.524632096290588379 -0.24787786602973938 0.125307574868202209
0.579879522323608398 -0.123252339661121368 -0.106565162539482117
-0.557694017887115479 0.0847981423139572144 0.095946088433265686
-0.383824199438095093 -0.418669670820236206 -0.0370185337960720062
0.4871482253074646 -0.202311933040618896 -0.0516770780086517334
-0.524775266647338867 0.375066936016082764 0.33131331205368042
0.560057997703552246 0.308720439672470093 -0.0595415309071540833
0.4640541672706604 0.255594313144683838 -0.0613744631409645081
-0.620152771472930908 -0.116028942167758942 0.0496319979429244995
0.567040741443634033 -0.05152854323387146 -0.129741907119750977
0.259932756423950195 -0.527738094329833984 -0.126050591468811035
-0.50079500675201416 -0.178842157125473022 0.023049578070640564
-0.413593530654907227 -0.0793551206588745117 0.0311798714101314545
0.134764328598976135 0.380709826946258545 0.086954362690448761
-0.306998491287231445 0.414357960224151611 0.0699047744274139404
0.25660550594329834 -0.495753318071365356 -0.222912997007369995
0.42647668719291687 -0.388155609369277954 -0.228167206048965454
-0.384764194488525391 -0.409076958894729614 0.0165471285581588745
-0.391756623983383179 -0.373679667711257935 -0.0654958337545394897
-0.503219246864318848 -0.311089217662811279 0.0133180581033229828
0.539612352848052979 -0.00402228441089391708 0.247311502695083618
-0.527921080589294434 -0.0867679938673973083 0.00907685607671737671
0.278706938028335571 0.523308038711547852 0.0382549725472927094
-0.238711744546890259 0.500084459781646729 0.115899555385112762
0.370897769927978516 -0.465357989072799683 -0.193654716014862061
-0.56593477725982666 -0.0437733307480812073 0.167070001363754272
-0.517495334148406982 -0.0317716933786869049 0.105391070246696472
0.55729365348815918 -0.27994149923324585 -0.216964155435562134
0.507536590099334717 -0.366595476865768433 -0.288175314664840698
0.575683236122131348 -0.198329925537109375 -0.0955427885055541992
-0.60906529426574707 0.0655348971486091614 0.249086454510688782
0.56109309196472168 -0.111209481954574585 -0.222487688064575195
-0.510926008224487305 -0.195559754967689514 0.122956335544586182
0.388360202312469482 -0.296192049980163574 -0.247389182448387146
0.533152997493743896 -0.123823277652263641 0.0105262398719787598
-0.453844964504241943 0.183737829327583313 0.04106951504945755
-0.417198210954666138 0.414836347103118896 0.0754967108368873596
0.254792779684066772 0.460621863603591919 0.162843525409698486
-0.509961545467376709 0.0767688453197479248 0.13157355785369873
-0.256417721509933472 -0.431719809770584106 -0.118551567196846008
-0.603891313076019287 -0.0236383527517318726 0.27701270580291748
-0.541814208030700684 0.343488842248916626 0.329833567142486572
-0.410411030054092407 0.200441271066665649 0.0241076350212097168
-0.538407206535339355 -0.0246504954993724823 0.0793221443891525269
0.503618299961090088 0.027296924963593483 0.00142228975892066956
0.392286926507949829 0.375417649745941162 0.344537585973739624
0.538381636142730713 -0.105853751301765442 0.114933498203754425
-0.456495404243469238 -0.30958259105682373 0.224350675940513611
-0.405464291572570801 0.382862269878387451 0.0703662708401679993
0.522734642028808594 0.0366545133292675018 -0.17906324565410614
0.381206363439559937 0.503422319889068604 0.182958275079727173
-0.369102239608764648 -0.24901619553565979 -0.0726955682039260864
0.36396375298500061 0.301122128963470459 0.23772113025188446
0.500023603439331055 -0.305399775505065918 -0.0668485313653945923
0.457613915205001831 -0.385499507188796997 -0.0838143602013587952
0.585473120212554932 0.0840987414121627808 -0.178751438856124878
-0.383857518434524536 -0.383330106735229492 -0.0690371990203857422
-0.511058390140533447 0.0834040194749832153 0.0123166218400001526
0.538874030113220215 -0.339902967214584351 -0.224416643381118774
0.512003004550933838 0.336031109094619751 -0.0404953137040138245
-0.454008519649505615 0.315750390291213989 0.025911279022693634
0.294747978448867798 0.449914425611495972 0.0884010344743728638
0.422658085823059082 0.254202485084533691 -0.14358094334602356
-0.329648405313491821 0.413578689098358154 0.216221749782562256
0.1757783442735672 -0.519372999668121338 -0.118011325597763062
0.323553621768951416 0.335859239101409912 0.291727721691131592
-0.474020928144454956 -0.174978345632553101 0.00961698777973651886
0.183324635028839111 0.544418931007385254 0.0676662474870681763
0.302522987127304077 0.527126133441925049 0.140124499797821045
0.513278841972351074 -0.0518176145851612091 0.206176504492759705
0.440134942531585693 0.199924290180206299 -0.119501806795597076
-0.398261487483978271 -0.26028028130531311 -0.0380456410348415375
-0.0388529300689697266 0.529424905776977539 0.0705856978893280029
0.566159248352050781 -0.153337731957435608 -0.228613048791885376
0.367383897304534912 0.388918280601501465 0.221882924437522888
0.474787056446075439 -0.306555479764938354 -0.143378973007202148
0.458869010210037231 -0.35533219575881958 -0.0654289200901985168
-0.504423618316650391 0.381143808364868164 0.32283395528793335
-0.614902019500732422 -0.141194373369216919 0.0346728712320327759
0.557855904102325439 -0.0301020108163356781 -0.138440549373626709
0.570089459419250488 0.0772996246814727783 -0.119446247816085815
0.251506596803665161 -0.520289599895477295 -0.128955811262130737
-0.525405645370483398 -0.163728252053260803 0.0238158926367759705
-0.319902956485748291 0.440990865230560303 0.0646036490797996521
0.580102443695068359 -0.211467534303665161 -0.225426346063613892
0.542468667030334473 0.127702906727790833 -0.0246414467692375183
-0.378090858459472656 -0.319523215293884277 -0.0949506387114524841
-0.415588527917861938 0.361104518175125122 0.100094780325889587
-0.566593289375305176 -0.0564360395073890686 0.00995720922946929932
-0.431531429290771484 0.32806888222694397 0.0294535160064697266
-0.557791411876678467 0.235639065504074097 0.299026131629943848
-0.597263038158416748 0.00501894578337669373 0.167564094066619873
0.464028656482696533 -0.313003182411193848 -0.270389258861541748
-0.495396912097930908 -0.0441597141325473785 0.0405142903327941895
-0.575561046600341797 0.173974320292472839 0.202641487121582031
0.577103555202484131 -0.10130704939365387 -0.0149881541728973389
-0.61709892749786377 0.318613022565841675 0.141485542058944702
-0.51023566722869873 0.332517653703689575 0.0271817892789840698
-0.432120174169540405 0.00880754925310611725 0.0197267383337020874
0.617306530475616455 -0.151802241802215576 -0.173020631074905396
0.445145308971405029 -0.337518692016601562 -0.225524008274078369
0.491168588399887085 0.256507903337478638 0.264154970645904541
0.503557324409484863 0.014986715279519558 -0.0539359934628009796
0.363244801759719849 0.415623366832733154 0.206084758043289185
0.467373490333557129 -0.21104152500629425 0.219813689589500427
0.533282935619354248 -0.182064950466156006 -0.202066391706466675
0.0182404071092605591 0.473452776670455933 0.0619514286518096924
0.550890624523162842 0.179856777191162109 -0.00983515381813049316
0.293807744979858398 0.4234810471534729 0.0968049466609954834
-0.539793074131011963 0.252450793981552124 0.0838322639465332031
0.551325201988220215 -0.172125935554504395 0.0052705155685544014
0.616863250732421875 0.313457280397415161 -0.118411444127559662
0.501646757125854492 -0.260680079460144043 -0.0897911041975021362
-0.61031043529510498 -0.125008046627044678 0.0222804248332977295
0.567651987075805664 -0.0267042610794305801 -0.119884632527828217
0.421131610870361328 0.479297459125518799 -0.030924694612622261
-0.563624143600463867 0.14850364625453949 0.283552289009094238
-0.523096323013305664 -0.169512316584587097 0.0237669199705123901
-0.252191513776779175 -0.413854479789733887 -0.122056469321250916
-0.509168505668640137 -0.276389122009277344 -0.0564988404512405396
-0.472422510385513306 -0.0248038731515407562 0.0330821722745895386
-0.503077805042266846 -0.00251829624176025391 0.0865775942802429199
-0.495687216520309448 0.201774060726165771 0.0207717567682266235
-0.395493775606155396 -0.401171684265136719 -0.0535019189119338989
-0.508240044116973877 -0.190246105194091797 0.0129453986883163452
0.488555103540420532 0.379468381404876709 0.280414462089538574
0.52469182014465332 0.330826550722122192 -0.0304019376635551453
-0.337580859661102295 -0.397395551204681396 -0.139037549495697021
-0.514047861099243164 -0.0938453227281570435 -0.0133930742740631104
0.463910579681396484 0.385713458061218262 0.0772339552640914917
0.643440485000610352 0.200792580842971802 -0.124172762036323547
-0.519452691078186035 -0.0439807474613189697 0.118192493915557861
-0.614426672458648682 -0.0182211585342884064 0.0374046564102172852
0.555592596530914307 -0.27717214822769165 -0.210299581289291382
-0.443596184253692627 0.0534420013427734375 0.0212405025959014893
0.188846230506896973 0.548959732055664062 0.0670744478702545166
-0.527458488941192627 -0.289698272943496704 -0.125075936317443848
0.299345552921295166 -0.431709259748458862 0.05227656289935112
0.392887800931930542 -0.292151033878326416 -0.230049073696136475
-0.429722607135772705 0.329076200723648071 0.058955654501914978
0.537943243980407715 0.0242579393088817596 0.195135116577148438
0.391531050205230713 -0.408582866191864014 0.150912851095199585
-0.505770683288574219 0.316999286413192749 0.301689505577087402
0.11887766420841217 0.315016746520996094 0.0641957223415374756
-0.513634681701660156 -0.234745129942893982 -0.0625837743282318115
0.558491349220275879 -0.102500021457672119 -0.153836831450462341
-0.579191088676452637 -0.177722781896591187 0.0153544098138809204
-0.428831368684768677 0.336793839931488037 0.175549596548080444
0.586529314517974854 -0.0487412475049495697 0.218722164630889893
0.304042160511016846 0.417156368494033813 0.230896323919296265
0.413286268711090088 -0.419805973768234253 -0.094685778021812439
-0.494576126337051392 0.321705758571624756 0.25268399715423584
0.470321476459503174 -0.202650859951972961 -0.162570521235466003
-0.365562170743942261 -0.326117932796478271 0.224759578704833984
-0.366458624601364136 -0.369310617446899414 0.0800309032201766968
0.567825436592102051 -0.0846397802233695984 -0.0805510580539703369
0.60929560661315918 0.330520719289779663 -0.116050839424133301
-0.551208794116973877 -0.334579795598983765 -0.0921667963266372681
0.426095575094223022 -0.36120140552520752 0.0432362332940101624
0.304245829582214355 0.221908122301101685 0.371341198682785034
0.324911952018737793 0.407640963792800903 0.247735932469367981
0.505825579166412354 0.104532822966575623 0.0759403705596923828
-0.54961472749710083 0.114952817559242249 0.300527334213256836
0.508704543113708496 -0.329407393932342529 0.0131362639367580414
0.431208789348602295 0.383266538381576538 0.221247270703315735
-0.366279691457748413 0.322728633880615234 0.243992447853088379
0.539793193340301514 0.0778668001294136047 0.240638077259063721
-0.576801538467407227 0.0359608083963394165 0.261000961065292358
0.506069958209991455 0.184582546353340149 -0.0776747167110443115
-0.567785561084747314 0.129603549838066101 0.18535161018371582
0.522508025169372559 -0.309013336896896362 -0.203465104103088379
0.503005385398864746 -0.367259681224822998 -0.284552931785583496
-0.409322291612625122 0.190139979124069214 0.0162290483713150024
-0.470414906740188599 0.078494928777217865 0.0470961928367614746
0.196221798658370972 0.424403220415115356 0.0396115332841873169
0.525229334831237793 -0.294038683176040649 -0.122872576117515564
-0.487876415252685547 -0.195859327912330627 -0.0207761339843273163
-0.495047092437744141 0.126365780830383301 0.159808933734893799
-0.619152188301086426 -0.14050447940826416 -0.0077182278037071228
-0.492315590381622314 0.328454971313476562 0.20904812216758728
-0.396671324968338013 -0.251169145107269287 -0.0689008012413978577
0.523661315441131592 -0.1141229048371315 0.200156822800636292
0.39579281210899353 0.418719589710235596 0.0810484886169433594
-0.330790162086486816 -0.392975330352783203 -0.0749967023730278015
0.0502071157097816467 0.417636334896087646 0.0908959284424781799
-0.542262256145477295 -0.335269510746002197 0.189678162336349487
0.428623974323272705 -0.385344713926315308 -0.0808623954653739929
-0.494550257921218872 0.320628046989440918 0.244494497776031494
0.49420398473739624 -0.22969500720500946 -0.104223199188709259
0.527361750602722168 -0.192647442221641541 0.192550748586654663
-0.411947757005691528 0.200749009847640991 0.119194865226745605
0.569921433925628662 -0.0359688326716423035 -0.0577499493956565857
-0.541983842849731445 -0.317180335521697998 -0.0499178133904933929
0.192149028182029724 -0.0324627980589866638 0.247182652354240417
-0.609865128993988037 0.0673734620213508606 0.247593820095062256
0.463552922010421753 -0.327152013778686523 0.0259094126522541046
0.331566333770751953 0.372779667377471924 0.117251008749008179
-0.377029359340667725 0.415082365274429321 0.184726938605308533
-0.446752160787582397 0.322457730770111084 0.182052120566368103
0.57223665714263916 -0.0483952686190605164 0.256470918655395508
-0.615133821964263916 0.00100099667906761169 0.267140477895736694
0.50312042236328125 0.147262781858444214 -0.0924938172101974487
-0.57870781421661377 0.072934374213218689 0.17431853711605072
0.560412466526031494 -0.249918311834335327 -0.193544819951057434
0.452809154987335205 -0.330181032419204712 -0.274968087673187256
0.557958722114562988 -0.379970699548721313 -0.107407942414283752
0.467829883098602295 0.42765691876411438 -0.0586813390254974365
-0.506083309650421143 0.37341618537902832 0.329867929220199585
0.436167776584625244 -0.388226091861724854 -0.248140126466751099
-0.436152547597885132 0.289497941732406616 0.174341738224029541
-0.532047867774963379 -0.161506816744804382 0.0322714224457740784
-0.333867311477661133 0.421077489852905273 0.06113453209400177
0.635544955730438232 0.237464338541030884 -0.10503871738910675
0.549528717994689941 0.276259899139404297 -0.0690265744924545288
-0.589957177639007568 -0.112325005233287811 0.1398354172706604
0.00325965136289596558 -0.565558493137359619 -0.130201131105422974
0.490380227565765381 0.358103334903717041 -0.0364220812916755676
0.643733084201812744 0.221717745065689087 -0.123652830719947815
0.430206775665283203 -0.403378874063491821 -0.272311151027679443
0.599378287792205811 -0.225034728646278381 -0.235341072082519531
0.419140517711639404 -0.34280771017074585 -0.099491313099861145
-0.100131750106811523 -0.473790377378463745 -0.0765635818243026733
0.570070624351501465 -0.198571562767028809 0.149817883968353271
0.61565697193145752 -0.365764051675796509 -0.268331944942474365
0.496393501758575439 -0.303504735231399536 -0.110797397792339325
0.516842365264892578 -0.286219537258148193 0.187859475612640381
-0.0850667357444763184 -0.551720142364501953 -0.0972067937254905701
0.532401204109191895 -0.368706166744232178 -0.277963459491729736
-0.228917062282562256 -0.440347880125045776 -0.173648759722709656
-0.493977248668670654 -0.281888782978057861 -0.0904927253723144531
-0.182367965579032898 -0.499118238687515259 -0.143929839134216309
0.354256093502044678 -0.441106319427490234 -0.27381858229637146
-0.453559517860412598 -0.276753425598144531 -0.0904776379466056824
0.523372888565063477 0.327474921941757202 -0.0354842692613601685
0.584036827087402344 0.326506197452545166 -0.0861935093998908997
0.203428909182548523 -0.586419582366943359 -0.133940041065216064
0.471814483404159546 -0.360860705375671387 -0.243425503373146057
-0.354281783103942871 -0.41408112645149231 0.00870377570390701294
0.0026925206184387207 -0.572371006011962891 -0.126398086547851562
0.432354182004928589 -0.404120147228240967 -0.273467481136322021
0.620582818984985352 -0.0864736288785934448 -0.188014298677444458
0.486294269561767578 -0.323268473148345947 -0.278146356344223022
0.556205630302429199 0.110647216439247131 -0.207043498754501343
0.244516804814338684 0.432242810726165771 0.225526124238967896
-0.580326080322265625 0.0911260545253753662 0.246601149439811707
0.184382066130638123 0.419544607400894165 0.332920104265213013
-0.543705105781555176 0.148498058319091797 0.316692769527435303
-0.557621955871582031 -0.0287294909358024597 0.0847531333565711975
0.612366616725921631 -0.00948815140873193741 -0.0342736616730690002
0.285156309604644775 0.413945913314819336 0.185817047953605652
-0.234052225947380066 -0.467439532279968262 -0.102456405758857727
-0.0897800996899604797 -0.534417271614074707 -0.12358054518699646
-0.386120736598968506 -0.220135316252708435 -0.0364748015999794006
-0.290395975112915039 0.529622316360473633 0.307450860738754272
0.367836534976959229 0.118304893374443054 0.247025817632675171
0.492140352725982666 0.119727492332458496 -0.000195097178220748901
-0.556418001651763916 -0.00026609376072883606 0.209312111139297485
-0.365492641925811768 -0.436986416578292847 -0.107058219611644745
0.436791986227035522 0.363922953605651855 0.220025599002838135
-0.253573864698410034 -0.378163129091262817 -0.0882590115070343018
0.588290691375732422 0.244458004832267761 -0.0960853546857833862
-0.494002223014831543 -0.361776083707809448 0.0448107197880744934
0.252990663051605225 -0.442753195762634277 0.162688374519348145
0.588789105415344238 -0.291917860507965088 -0.222221657633781433
0.592557787895202637 0.0436418652534484863 -0.117929227650165558
-0.565625190734863281 0.136720925569534302 0.313277125358581543
0.544267654418945312 -0.213792428374290466 -0.195839688181877136
0.509009480476379395 -0.224461778998374939 -0.0442072600126266479
0.222210690379142761 0.42826390266418457 -0.00240624789148569107
0.504398524761199951 -0.338020980358123779 -0.259759128093719482
0.560789048671722412 -0.371691972017288208 -0.278432488441467285
0.135634243488311768 0.293560028076171875 0.0595326200127601624
-0.0531563088297843933 0.48525199294090271 0.353355050086975098
-0.514261066913604736 0.187587320804595947 0.273392319679260254
-0.5291481614112854 -0.0658663883805274963 0.0680677667260169983
0.517687201499938965 0.0408116541802883148 0.0223674643784761429
-0.501418471336364746 0.196520581841468811 0.0390985459089279175
0.177190184593200684 0.394057512283325195 0.0143384411931037903
0.566090643405914307 -0.269685685634613037 -0.198328256607055664
-0.532960593700408936 -0.0480201467871665955 0.122624099254608154
-0.335779905319213867 -0.358733922243118286 -0.104825422167778015
0.618036627769470215 0.165500804781913757 -0.142833292484283447
0.193237587809562683 0.413398385047912598 0.282161802053451538
0.380503714084625244 0.43843376636505127 -0.0707998126745223999
-0.55171126127243042 0.00579267367720603943 0.268316119909286499
-0.0904898792505264282 -0.547783851623535156 -0.125846967101097107
-0.509619951248168945 0.0756602436304092407 0.135660767555236816
0.292683303356170654 -0.378191143274307251 -0.177425146102905273
0.561305522918701172 0.238125026226043701 -0.081925220787525177
0.410393238067626953 0.0322734229266643524 0.241223707795143127
0.52512204647064209 -0.408925056457519531 -0.275685042142868042
0.0938499420881271362 0.419101148843765259 0.0406263917684555054
0.355029582977294922 0.390762686729431152 0.220056772232055664
0.561140060424804688 -0.200200796127319336 -0.258465319871902466
0.356746256351470947 0.353528320789337158 0.308618605136871338
0.461931228637695312 -0.32971721887588501 -0.243626803159713745
0.495207279920578003 -0.415108442306518555 -0.283680230379104614
-0.244653984904289246 0.409328669309616089 0.113703981041908264
0.256806164979934692 0.432747155427932739 0.0505480319261550903
0.436547070741653442 -0.412453830242156982 -0.259454131126403809
0.413709729909896851 0.420887172222137451 -0.0620718821883201599
-0.624122023582458496 -0.0950902998447418213 0.207618653774261475
0.334375649690628052 0.44792097806930542 -0.0501871034502983093
0.543882250785827637 -0.016636943444609642 -0.237122386693954468
-0.596029281616210938 -0.14510643482208252 -0.0896510332822799683
-0.602315425872802734 0.375579416751861572 0.348974108695983887
-0.317722409963607788 0.400230914354324341 0.0526441857218742371
0.481896698474884033 -0.310466617345809937 -0.236082881689071655
0.549251139163970947 -0.175807654857635498 -0.205726653337478638
-0.497474700212478638 -0.131548658013343811 0.0632479563355445862
0.529350697994232178 0.357998847961425781 -0.0447865724563598633
-0.608657002449035645 0.322323262691497803 0.323382169008255005
0.586860895156860352 0.0378547459840774536 -0.192743360996246338
-0.57314985990524292 0.351807355880737305 0.337569236755371094
-0.109142452478408813 -0.497086197137832642 -0.117515124380588531
-0.484826058149337769 0.128359660506248474 -0.0176123231649398804
-0.56125640869140625 0.0563477985560894012 0.306616246700286865
0.582980513572692871 -0.0766417086124420166 -0.23541732132434845
-0.438640505075454712 -0.344842314720153809 0.0204546302556991577
0.086777709424495697 0.443141430616378784 0.370739877223968506
0.527599990367889404 -0.241797879338264465 -0.118322856724262238
0.489395797252655029 -0.289029031991958618 -0.314032465219497681
0.430063545703887939 0.406266868114471436 -0.044195517897605896
0.599949955940246582 0.0243234522640705109 -0.171250790357589722
-0.47838255763053894 0.244772866368293762 0.068335801362991333
0.490899771451950073 0.305045127868652344 0.0801289454102516174
-0.468219518661499023 0.350361913442611694 0.0610253587365150452
0.379533827304840088 -0.443456560373306274 -0.255619794130325317
-0.628004610538482666 0.061092868447303772 0.224351823329925537
-0.0884557366371154785 -0.539340317249298096 -0.123961791396141052
0.532304644584655762 -0.353495180606842041 -0.279867202043533325
0.523232758045196533 -0.398266524076461792 -0.286432921886444092
0.557928323745727539 -0.202870860695838928 -0.270475834608078003
0.4971579909324646 -0.421467721462249756 -0.27590295672416687
0.480461239814758301 -0.373219311237335205 -0.249290242791175842
0.592604398727416992 -0.0276617966592311859 0.0185627974569797516
0.146285578608512878 0.311570674180984497 0.225460588932037354
-0.634468019008636475 -0.189940303564071655 0.234095335006713867
-0.440479278564453125 -0.235492005944252014 -0.037505708634853363
0.30176118016242981 -0.424767404794692993 -0.26048704981803894
-0.34061199426651001 -0.448083400726318359 -0.138935893774032593
-0.421806544065475464 0.425983965396881104 0.123750455677509308
0.515542805194854736 -0.0297296419739723206 0.0112412050366401672
-0.588617026805877686 0.0107405465096235275 0.205386370420455933
-0.644127964973449707 0.116174042224884033 0.284507155418395996
0.503145098686218262 0.0619091764092445374 -0.163894638419151306
0.550297260284423828 -0.161329180002212524 -0.229561835527420044
-0.230768933892250061 0.38634076714515686 0.173609048128128052
0.253428995609283447 0.438233554363250732 0.0207777246832847595
0.588739156723022461 -0.0950842499732971191 -0.199690908193588257
0.519121706485748291 -0.224862128496170044 -0.0371664911508560181
-0.539797842502593994 -0.185257464647293091 0.0382752679288387299
0.0737974941730499268 0.39592975378036499 0.0946577638387680054
0.496095180511474609 0.305979460477828979 -0.00909141078591346741
0.203830510377883911 0.471765697002410889 0.0213602334260940552
0.33660656213760376 -0.400683283805847168 -0.0509267598390579224
0.48108208179473877 -0.193066865205764771 -0.182585731148719788
-0.473280787467956543 -0.33544883131980896 0.143211886286735535
-0.603387773036956787 0.0137676708400249481 0.258742392063140869
-0.459122061729431152 -0.170191019773483276 0.0429370775818824768
-0.459703803062438965 0.0128218373283743858 0.0182031244039535522
0.30997854471206665 0.422126799821853638 0.264748811721801758
-0.605637431144714355 0.187573641538619995 0.29992753267288208
-0.624639987945556641 -0.172076255083084106 0.17225310206413269
-0.46062082052230835 -0.287127822637557983 -0.0604004785418510437
-0.240899443626403809 -0.464952170848846436 -0.126291751861572266
-0.437532365322113037 0.437776267528533936 0.141622692346572876
0.554322004318237305 0.150365233421325684 -0.104426726698875427
0.453020602464675903 -0.330808937549591064 -0.296150952577590942
0.426541388034820557 -0.120872318744659424 0.0700602158904075623
0.337172329425811768 -0.456994235515594482 -0.266580849885940552
-0.597452402114868164 0.101420208811759949 0.282699823379516602
-0.486203312873840332 0.195076733827590942 0.245874583721160889
0.564192771911621094 -0.137956246733665466 -0.246410101652145386
-0.20605112612247467 0.452015668153762817 0.117405295372009277
