ply
format ascii 1.0
element vertex 742
property float x
property float y
property float z
end_header
0.100029915571212769 0.234881237149238586 0.114420376718044281
-0.267016857862472534 0.133485004305839539 0.15556885302066803
-0.356353431940078735 0.219917014241218567 0.164931073784828186
0.382767021656036377 -0.0983422175049781799 -0.313846051692962646
-0.325522005558013916 0.279046893119812012 0.181029528379440308
-0.0704746618866920471 0.388401597738265991 0.245802730321884155
-0.15951208770275116 0.389660000801086426 0.268381029367446899
0.228318095207214355 0.175061509013175964 0.0413412600755691528
-0.413293153047561646 0.157422646880149841 0.392477095127105713
-0.0947398319840431213 0.109068155288696289 0.143839776515960693
-0.339719802141189575 -0.292018711566925049 0.105019539594650269
-0.413426399230957031 0.141390442848205566 0.402915328741073608
0.324152886867523193 -0.175428792834281921 -0.251721322536468506
-0.306445002555847168 0.200063154101371765 0.143855810165405273
0.346816480159759521 0.115577578544616699 0.133708924055099487
-0.302448749542236328 -0.170421838760375977 0.120980784296989441
0.355283975601196289 0.101812675595283508 0.103559136390686035
0.412017732858657837 0.043400987982749939 -0.255778014659881592
0.200414955615997314 0.303069114685058594 0.0452154055237770081
0.255690217018127441 -0.159633398056030273 -0.00842688232660293579
0.340872585773468018 -0.234816357493400574 0.110615380108356476
0.349348604679107666 -0.142475634813308716 -0.109740868210792542
0.282532691955566406 0.23912164568901062 0.153704360127449036
-0.388808846473693848 -0.063300594687461853 0.385012209415435791
-0.424414634704589844 -0.13203766942024231 0.257779061794281006
0.317067474126815796 0.0988104939460754395 -0.00407076254487037659
-0.426440954208374023 0.00710656121373176575 0.3733692467212677
-0.449883103370666504 -0.135615944862365723 0.145584538578987122
0.180628284811973572 0.0193268358707427979 0.354758203029632568
0.385860621929168701 -0.169236019253730774 -0.324339151382446289
0.329889535903930664 0.0693692862987518311 0.264459490776062012
0.300369411706924438 -0.304527729749679565 -0.36471104621887207
0.253211766481399536 0.0783589482307434082 0.0577055811882019043
0.288562625646591187 -0.275545954704284668 -0.356577605009078979
0.126673236489295959 0.0869774818420410156 -0.0128598138689994812
0.403260171413421631 0.0400917194783687592 -0.276956558227539062
-0.256397753953933716 -0.333467602729797363 0.0831447392702102661
-0.34955248236656189 -0.0901723653078079224 0.192290246486663818
-0.379035621881484985 0.0687370523810386658 0.375378966331481934
0.285516709089279175 -0.29025152325630188 -0.351926028728485107
0.370830684900283813 -0.204964771866798401 -0.315430641174316406
0.362351685762405396 -0.257448136806488037 -0.337958395481109619
0.387049615383148193 0.0804742127656936646 0.143200337886810303
0.287773758172988892 -0.308742821216583252 -0.345515161752700806
0.345049113035202026 -0.259820401668548584 -0.374886840581893921
0.340049624443054199 -0.254422456026077271 -0.343246698379516602
0.284774243831634521 0.003094526007771492 0.122015893459320068
-0.359768390655517578 0.194004401564598083 0.205198347568511963
0.381812363862991333 -0.0868033096194267273 -0.306520253419876099
-0.279311239719390869 -0.230369240045547485 0.106592327356338501
-0.400382339954376221 -0.147262111306190491 0.1605520099401474
-0.299962610006332397 0.302707284688949585 0.265517175197601318
-0.106679506599903107 0.385759800672531128 0.251072704792022705
-0.199111014604568481 0.402924537658691406 0.296572506427764893
0.19362640380859375 0.0802231132984161377 0.0419384017586708069
-0.312833994626998901 -0.321429133415222168 0.10307013988494873
0.133575916290283203 0.13963887095451355 0.106423638761043549
0.313104093074798584 -0.221175312995910645 -0.287558615207672119
0.252098560333251953 -0.31197047233581543 -0.319240182638168335
0.3186187744140625 0.199739187955856323 0.105335451662540436
0.363606303930282593 0.162243396043777466 0.0642133951187133789
-0.0806882977485656738 -0.271393358707427979 0.141533344984054565
0.184028387069702148 0.232048317790031433 -0.0259134415537118912
0.0212476998567581177 -0.0181198716163635254 0.221630781888961792
-0.371939092874526978 0.263462275266647339 0.40891304612159729
-0.321741729974746704 -0.289543658494949341 0.0752418562769889832
-0.309808015823364258 -0.332918077707290649 0.0609682202339172363
-0.29228663444519043 -0.333337485790252686 0.105966806411743164
-0.34986579418182373 0.190296322107315063 0.282729208469390869
-0.374265551567077637 -0.231179103255271912 0.103338316082954407
0.15667000412940979 -0.280336976051330566 -0.0565341711044311523
-0.35234108567237854 -0.296322613954544067 0.0751978456974029541
0.306160807609558105 -0.258373349905014038 -0.354959547519683838
-0.286142259836196899 -0.339673906564712524 0.0588434301316738129
-0.207472354173660278 0.400902926921844482 0.295228689908981323
-0.067951008677482605 0.406570672988891602 0.249592453241348267
-0.247881442308425903 -0.349641203880310059 0.0506427772343158722
0.381480693817138672 -0.00452628172934055328 -0.265699893236160278
0.393771469593048096 0.0282243378460407257 -0.273184418678283691
0.349137872457504272 0.156575411558151245 -0.234304904937744141
0.227847933769226074 0.243683949112892151 -0.0818267464637756348
-0.417223900556564331 -0.201599866151809692 0.149166405200958252
-0.357315361499786377 0.178611531853675842 0.275095313787460327
-0.335049152374267578 -0.321366488933563232 0.187790513038635254
-0.443598955869674683 -0.0649328455328941345 0.195691764354705811
0.168385833501815796 -0.334121942520141602 -0.18248903751373291
-0.396194249391555786 0.223991557955741882 0.405427873134613037
0.374775469303131104 -0.162710711359977722 -0.281808555126190186
-0.248479112982749939 0.297800302505493164 0.187602013349533081
-0.40767475962638855 0.130165725946426392 0.399925470352172852
-0.393385112285614014 0.120844706892967224 0.30693507194519043
0.193758606910705566 0.294334173202514648 -0.0123204849660396576
-0.219675332307815552 -0.380883604288101196 0.0572387725114822388
0.325452804565429688 -0.243362113833427429 -0.364300817251205444
-0.421969830989837646 0.106456167995929718 0.384603232145309448
0.373698920011520386 0.309009641408920288 -0.202078342437744141
-0.415801733732223511 -0.0319347307085990906 0.157794341444969177
-0.39182204008102417 -0.225952893495559692 0.126493841409683228
0.0621026158332824707 0.246263816952705383 0.33877110481262207
-0.417158365249633789 0.273448169231414795 0.416119694709777832
0.387921690940856934 -0.124458692967891693 -0.290394783020019531
0.344556301832199097 -0.227415457367897034 -0.330438673496246338
-0.247441530227661133 0.308928728103637695 0.26148223876953125
-0.309470713138580322 -0.329726427793502808 0.0587368309497833252
0.295772045850753784 -0.262328356504440308 -0.186256632208824158
-0.4121532142162323 0.245698645710945129 0.424229919910430908
-0.450278997421264648 -0.0727413445711135864 0.247754186391830444
-0.395556032657623291 0.226987048983573914 0.40367436408996582
-0.223620623350143433 -0.348715364933013916 0.0746134445071220398
-0.381020963191986084 -0.0607149936258792877 0.154740422964096069
-0.358163326978683472 -0.26996147632598877 0.232510209083557129
-0.426962316036224365 0.156046360731124878 0.406825780868530273
0.185543745756149292 -0.305719554424285889 -0.192635998129844666
-0.371928483247756958 0.270232558250427246 0.413410604000091553
-0.397313892841339111 0.224716171622276306 0.406178832054138184
-0.419240325689315796 0.107365131378173828 0.384751260280609131
-0.411488652229309082 0.249524563550949097 0.421917617321014404
-0.435795247554779053 -0.124018490314483643 0.248621761798858643
0.300796866416931152 -0.305462807416915894 -0.365493685007095337
-0.364142745733261108 0.208578988909721375 0.20549929141998291
0.100671246647834778 -0.292001903057098389 0.0106051303446292877
0.300570428371429443 0.209945306181907654 0.0938168913125991821
0.0627566277980804443 -0.0200635194778442383 0.259657204151153564
-0.304000586271286011 0.284312546253204346 0.17232707142829895
-0.362148672342300415 0.0581739172339439392 0.12240232527256012
0.346342474222183228 -0.158371686935424805 -0.194484233856201172
-0.148577302694320679 0.296095490455627441 0.260464191436767578
-0.354199886322021484 0.0183426067233085632 0.143282949924468994
-0.402083516120910645 -0.106937259435653687 0.170689105987548828
-0.286441445350646973 0.274493187665939331 0.16582876443862915
-0.359507292509078979 -0.16429254412651062 0.0602374933660030365
0.271354377269744873 -0.161699622869491577 -0.0473550558090209961
-0.386398494243621826 -0.247095018625259399 0.134365573525428772
-0.245924964547157288 -0.377515822649002075 0.0629451200366020203
0.0879735052585601807 0.0421373844146728516 -0.0226692445576190948
0.335552573204040527 -0.0573794692754745483 0.219166040420532227
-0.375270992517471313 0.0780572071671485901 0.159486189484596252
0.362248837947845459 -0.128493279218673706 -0.25340619683265686
-0.145644128322601318 -0.409464538097381592 0.052905648946762085
0.328875750303268433 0.0673633217811584473 0.0461249910295009613
-0.357876121997833252 -0.261984080076217651 0.232474997639656067
0.39114832878112793 0.0835679918527603149 -0.151325047016143799
-0.425487816333770752 -0.115068376064300537 0.36185726523399353
-0.295234560966491699 -0.322063326835632324 0.102693796157836914
0.268086254596710205 0.225606456398963928 0.156733915209770203
0.201231405138969421 0.187624230980873108 0.279331803321838379
0.216114968061447144 -0.299973189830780029 -0.0576550886034965515
-0.384030729532241821 -0.225628107786178589 0.202384680509567261
0.282747119665145874 -0.17474617063999176 -0.145656093955039978
-0.370772302150726318 -0.0685477331280708313 0.154156208038330078
-0.223646193742752075 -0.367269605398178101 0.0673255994915962219
-0.43880346417427063 -0.0758440420031547546 0.201966211199760437
0.0924917757511138916 0.265259206295013428 0.379310101270675659
-0.395951807498931885 -0.109915882349014282 0.0630048885941505432
0.286337614059448242 -0.224893301725387573 -0.0663979053497314453
0.311599820852279663 -0.275141924619674683 -0.115489885210990906
-0.380462229251861572 -0.201505661010742188 0.168911099433898926
0.299563407897949219 -0.204163879156112671 -0.191644176840782166
-0.280790209770202637 0.30006563663482666 0.174426749348640442
0.311766892671585083 -0.0718284770846366882 0.214044034481048584
-0.379960864782333374 0.0529651455581188202 0.1810169517993927
0.37108728289604187 -0.219853013753890991 -0.275944411754608154
-0.375412553548812866 0.12237238883972168 0.16293826699256897
-0.42100226879119873 -0.202367961406707764 0.160124450922012329
-0.339592307806015015 -0.302188694477081299 0.0914832353591918945
0.247558817267417908 -0.148124024271965027 0.207355156540870667
-0.122494444251060486 0.409196615219116211 0.266729563474655151
0.259594947099685669 0.17837253212928772 0.00807714462280273438
-0.403372287750244141 0.11222955584526062 0.144435882568359375
-0.430849611759185791 0.0199989322572946548 0.172889024019241333
-0.38423532247543335 -0.248021140694618225 0.0869057923555374146
-0.333005189895629883 -0.312683820724487305 0.190115764737129211
-0.100817136466503143 0.395846366882324219 0.236575424671173096
-0.427171498537063599 -0.00957742705941200256 0.160224229097366333
-0.378236323595046997 -0.311952382326126099 0.0830476582050323486
-0.288663983345031738 -0.335567384958267212 0.0573563426733016968
0.20191076397895813 0.31647375226020813 0.046507764607667923
0.381829112768173218 -0.0083121955394744873 -0.269577980041503906
0.395121335983276367 0.0206604897975921631 -0.279268413782119751
-0.370011180639266968 -0.142039850354194641 0.137314319610595703
-0.392348170280456543 -0.267237424850463867 0.0912969112396240234
0.355825811624526978 0.234031334519386292 -0.170250833034515381
0.390959560871124268 0.031256161630153656 -0.204301536083221436
-0.416299760341644287 -0.20122113823890686 0.149874418973922729
-0.352949321269989014 -0.286864429712295532 0.240901201963424683
0.315616250038146973 -0.275022655725479126 -0.309759765863418579
-0.390253603458404541 0.156710103154182434 0.140058130025863647
-0.4447307288646698 0.308663338422775269 0.415506511926651001
0.306947946548461914 -0.270728647708892822 -0.255323559045791626
-0.446687608957290649 0.249941453337669373 0.204838782548904419
-0.227593675255775452 0.316043734550476074 0.199363350868225098
0.371670395135879517 -0.157722175121307373 -0.286074548959732056
-0.412195414304733276 0.0309462826699018478 0.157708793878555298
0.314901351928710938 -0.303512603044509888 -0.372164309024810791
-0.432647019624710083 0.170201867818832397 0.374168992042541504
0.0766756609082221985 0.273266792297363281 0.336602210998535156
0.272460997104644775 -0.198336243629455566 0.12867698073387146
-0.0582378283143043518 0.409205079078674316 0.23398059606552124
0.179570794105529785 0.35616689920425415 0.330283969640731812
0.412956088781356812 0.0465878024697303772 -0.166750073432922363
-0.392690867185592651 0.236527323722839355 0.417177021503448486
-0.313298523426055908 0.268766462802886963 0.173097804188728333
-0.405420124530792236 -0.0334420651197433472 0.158584520220756531
-0.115020781755447388 0.420827895402908325 0.284709841012954712
0.382130324840545654 -0.11570894718170166 -0.28611379861831665
0.402383625507354736 -0.00299323536455631256 -0.184123039245605469
-0.304263293743133545 -0.330967634916305542 0.0596148781478404999
-0.411361277103424072 0.237612351775169373 0.419717669486999512
-0.316096514463424683 0.247599110007286072 0.419251114130020142
-0.15467911958694458 0.395007520914077759 0.255994021892547607
0.3080291748046875 0.241506531834602356 0.0495876669883728027
-0.219102650880813599 -0.350314408540725708 0.0753151848912239075
-0.372654139995574951 -0.300093919038772583 0.0681698918342590332
-0.398621559143066406 0.222360372543334961 0.408513009548187256
-0.421098768711090088 0.103790916502475739 0.384448349475860596
-0.456410318613052368 -0.101230964064598083 0.238390624523162842
-0.319541215896606445 -0.252691715955734253 0.349873930215835571
0.283381521701812744 0.23540814220905304 0.154011994600296021
-0.186500847339630127 0.32930794358253479 0.232314407825469971
0.208185672760009766 0.330320477485656738 0.000471103936433792114
-0.359546095132827759 -0.260922402143478394 0.23131859302520752
-0.350293576717376709 0.210024923086166382 0.171631932258605957
-0.308746248483657837 0.284163862466812134 0.171414554119110107
-0.361587256193161011 -0.259487152099609375 0.235635146498680115
-0.385103493928909302 -0.244212999939918518 0.181607857346534729
-0.42864459753036499 -0.0891110897064208984 0.202378660440444946
0.373532116413116455 -0.220417499542236328 -0.274837255477905273
-0.421715348958969116 -0.207467973232269287 0.159808129072189331
-0.34546700119972229 -0.287893116474151611 0.231757447123527527
0.295197069644927979 0.194535404443740845 0.265493124723434448
0.186540216207504272 -0.313445717096328735 0.215389072895050049
0.204531818628311157 -0.257466435432434082 0.135287463665008545
0.303310394287109375 -0.26946645975112915 -0.241243600845336914
0.263378322124481201 -0.231770172715187073 0.173698350787162781
-0.314994633197784424 -0.330655097961425781 0.139516204595565796
0.172609090805053711 0.0394951701164245605 0.235411345958709717
-0.42958754301071167 -0.00232540257275104523 0.338009655475616455
0.337869107723236084 0.277072429656982422 -0.0996732786297798157
0.134695500135421753 0.249233245849609375 0.141672223806381226
0.127347394824028015 0.106003895401954651 0.153566986322402954
0.407381713390350342 0.0042209140956401825 -0.109953612089157104
0.328479170799255371 -0.0876195579767227173 -0.186302244663238525
0.302727609872817993 -0.308039486408233643 -0.353720635175704956
0.374690473079681396 0.044391874223947525 -0.0188260506838560104
0.118715748190879822 -0.0635877251625061035 0.155158817768096924
0.276690125465393066 -0.137821629643440247 0.228600963950157166
0.386261343955993652 -0.104333080351352692 -0.270438045263290405
0.371288657188415527 0.127408877015113831 0.105420976877212524
0.0981098189949989319 0.140536591410636902 0.349417805671691895
0.127432450652122498 -0.0449141860008239746 0.256251126527786255
-0.404786109924316406 -0.0776409879326820374 0.187016934156417847
0.226401984691619873 0.266222953796386719 -0.149249136447906494
0.206183537840843201 -0.203817695379257202 0.106329157948493958
-0.372312575578689575 -0.165148928761482239 0.15248832106590271
-0.358749806880950928 -0.0991743952035903931 0.188538208603858948
-0.352518260478973389 -0.281926214694976807 0.23281976580619812
-0.364161700010299683 -0.22798389196395874 0.131506189703941345
0.355112373828887939 0.0800273418426513672 0.0627868399024009705
-0.419011503458023071 -0.0112328473478555679 0.206117510795593262
0.291073620319366455 0.18525378406047821 -0.149700641632080078
-0.357249647378921509 0.149214997887611389 0.172910124063491821
-0.382455617189407349 -0.201363563537597656 0.239341080188751221
0.383410334587097168 -0.0150650981813669205 -0.102886244654655457
0.360822081565856934 -0.0990711823105812073 -0.233718827366828918
0.317500948905944824 -0.285402178764343262 -0.348492920398712158
0.352474957704544067 -0.00729389861226081848 -0.0453979484736919403
-0.405718088150024414 -0.202271237969398499 0.197014525532722473
0.25677567720413208 -0.180132478475570679 0.221986755728721619
0.402973145246505737 -0.161970004439353943 -0.304167002439498901
0.319654643535614014 0.116343393921852112 0.153062373399734497
0.213990837335586548 -0.265549302101135254 0.0706614404916763306
0.0682764351367950439 0.0652704834938049316 0.350847333669662476
-0.393705844879150391 0.083974108099937439 0.168332085013389587
0.279333770275115967 0.249059364199638367 0.313943594694137573
-0.418262124061584473 -0.0600617118179798126 0.3627796471118927
-0.257479250431060791 0.213601171970367432 0.238515004515647888
-0.319259881973266602 -0.28855055570602417 0.0751839429140090942
-0.374432355165481567 -0.25987541675567627 0.120089292526245117
0.433132976293563843 0.0716968774795532227 0.299004733562469482
-0.400591492652893066 0.167806237936019897 0.146580725908279419
0.253200113773345947 -0.235491320490837097 0.162676006555557251
-0.409297972917556763 0.163731053471565247 0.388870775699615479
0.193964943289756775 -0.125847041606903076 0.263571590185165405
-0.401279687881469727 -0.105698853731155396 0.372153282165527344
0.231123939156532288 0.0966213494539260864 0.198448315262794495
-0.293892920017242432 -0.252577066421508789 0.0923084765672683716
0.393313616514205933 0.0275969021022319794 -0.206872433423995972
-0.416161566972732544 0.152007833123207092 0.412622123956680298
0.307248383760452271 -0.273249208927154541 -0.252493977546691895
-0.393812656402587891 0.0110927913337945938 0.150895267724990845
-0.0659786462783813477 0.398996055126190186 0.259696036577224731
-0.404768705368041992 0.135165303945541382 0.400801718235015869
-0.271590352058410645 -0.344123482704162598 0.0490530729293823242
-0.218760505318641663 -0.383406490087509155 0.0568440854549407959
0.326992690563201904 0.282580375671386719 -0.166594639420509338
-0.410593301057815552 0.0229779258370399475 0.150213509798049927
0.325401633977890015 -0.295475542545318604 -0.370542824268341064
-0.0485922694206237793 0.409418404102325439 0.231401205062866211
0.375486582517623901 0.308606624603271484 -0.202328264713287354
-0.393449842929840088 -0.232049614191055298 0.133635625243186951
-0.410029023885726929 0.156561240553855896 0.419014930725097656
-0.118120506405830383 0.411274909973144531 0.273076504468917847
0.376745730638504028 -0.0361594446003437042 -0.242531195282936096
0.387705385684967041 -0.123117536306381226 -0.288999229669570923
0.368816792964935303 0.324950993061065674 -0.200650513172149658
-0.220828860998153687 -0.35858115553855896 0.0685806572437286377
0.32606428861618042 -0.0955679267644882202 -0.240136414766311646
-0.158495306968688965 0.392386317253112793 0.253240853548049927
-0.431522130966186523 0.160652399063110352 0.40710487961769104
-0.372456789016723633 -0.300425916910171509 0.0708663836121559143
-0.393807649612426758 0.2096681147813797 0.409304380416870117
-0.408138960599899292 0.247341334819793701 0.421496480703353882
-0.391905397176742554 -0.147109284996986389 0.152285307645797729
0.199295729398727417 0.304336488246917725 -0.011786971241235733
0.290674716234207153 -0.258107244968414307 -0.186912298202514648
-0.345355778932571411 -0.285842061042785645 0.231151372194290161
-0.302299827337265015 0.272230714559555054 0.160498425364494324
-0.402264922857284546 -0.00116924010217189789 0.149098306894302368
0.382271319627761841 -0.12010357528924942 -0.285059571266174316
-0.358422338962554932 -0.271858423948287964 0.23096156120300293
-0.345335960388183594 -0.28410571813583374 0.232500642538070679
-0.371325701475143433 -0.165405943989753723 0.152409136295318604
-0.251867175102233887 -0.180106610059738159 0.106998279690742493
-0.322591304779052734 0.283982664346694946 0.285292148590087891
-0.273313611745834351 0.267506599426269531 0.220138847827911377
-0.105042479932308197 0.391639202833175659 0.240169346332550049
-0.281502783298492432 0.165609449148178101 0.161257475614547729
0.278184086084365845 -0.159281104803085327 -0.0122290216386318207
-0.329619646072387695 -0.26567724347114563 0.0909795761108398438
0.352516144514083862 0.270522236824035645 -0.0526739172637462616
-0.384134650230407715 -0.177528232336044312 0.0236977320164442062
0.337405622005462646 -0.188422054052352905 -0.267347961664199829
0.308694899082183838 0.294645369052886963 -0.134912639856338501
0.328348666429519653 0.218509376049041748 0.33774566650390625
-0.435064643621444702 -0.0725720226764678955 0.273813784122467041
-0.163889288902282715 0.336304336786270142 0.24448007345199585
-0.381413578987121582 -0.206188037991523743 0.221523702144622803
0.00172020122408866882 0.430165410041809082 0.25546342134475708
0.310626387596130371 0.338978558778762817 0.136974722146987915
0.326114565134048462 -0.129557192325592041 -0.10554012656211853
-0.407382309436798096 0.0232255291193723679 0.19836762547492981
-0.384140819311141968 0.0480673983693122864 0.143482357263565063
-0.327308058738708496 -0.315252304077148438 0.0315654575824737549
0.272134602069854736 0.305325895547866821 0.00271524861454963684
0.143499076366424561 0.127765655517578125 0.0887659639120101929
0.351722925901412964 -0.142941713333129883 -0.210651755332946777
0.269248843193054199 -0.183769047260284424 -0.145855024456977844
-0.394533634185791016 -0.0458700582385063171 0.197015732526779175
0.099192887544631958 0.0954041481018066406 0.297384351491928101
0.369828611612319946 -0.199436724185943604 -0.307612895965576172
0.357629954814910889 0.165711879730224609 -0.0867288857698440552
-0.223304405808448792 -0.10853809118270874 0.166411310434341431
0.316146254539489746 0.29680633544921875 -0.1570090651512146
0.274845808744430542 -0.191051304340362549 -0.0109917055815458298
0.00689372792840003967 0.358879208564758301 0.350086361169815063
-0.0751693695783615112 0.369286388158798218 0.393106281757354736
0.306761413812637329 0.297974526882171631 -0.146766453981399536
-0.358220607042312622 0.187300071120262146 0.259454935789108276
0.346253693103790283 0.208118811249732971 -0.107419908046722412
0.327175766229629517 -0.013539094477891922 0.0979823842644691467
-0.35067671537399292 -0.300567030906677246 0.2455025315284729
0.280860662460327148 -0.227054446935653687 -0.033136170357465744
0.274662673473358154 -0.151136204600334167 -0.00724446447566151619
-0.404777050018310547 -0.208141803741455078 0.0369954109191894531
0.296930015087127686 0.178454041481018066 -0.151798158884048462
-0.375380426645278931 0.103617206215858459 0.167151778936386108
-0.402126789093017578 -0.0615749545395374298 0.348696857690811157
-0.447966217994689941 -0.0169487558305263519 0.231256142258644104
0.30172199010848999 -0.212122544646263123 -0.267210423946380615
0.352789819240570068 0.170458942651748657 -0.153401598334312439
-0.409394562244415283 -0.17223668098449707 0.159330055117607117
-0.170644655823707581 0.403457731008529663 0.261012166738510132
-0.418792307376861572 0.0931791812181472778 0.195698529481887817
0.36852070689201355 0.0143240243196487427 0.0899691879749298096
0.266700804233551025 -0.243246525526046753 -0.304815769195556641
-0.326471120119094849 -0.30980411171913147 0.047589380294084549
0.175310999155044556 0.15124182403087616 -0.00385047122836112976
0.358388185501098633 -0.135207191109657288 -0.238264694809913635
0.375894635915756226 -0.0195597186684608459 -0.0581206530332565308
-0.411779880523681641 0.0059966742992401123 0.278467476367950439
-0.261219263076782227 -0.323411256074905396 0.0742307230830192566
0.377086937427520752 0.153706580400466919 -0.139330938458442688
-0.302419304847717285 -0.195569723844528198 0.124067187309265137
0.0810368806123733521 0.121565192937850952 0.153079360723495483
0.382918059825897217 -0.198128029704093933 -0.306288927793502808
-0.327003508806228638 -0.192950546741485596 0.115792468190193176
-0.0743248462677001953 0.396131426095962524 0.377174258232116699
-0.319848179817199707 -0.30564001202583313 0.0681116208434104919
0.384290546178817749 -0.0670364648103713989 -0.286449700593948364
-0.415418654680252075 0.160092473030090332 0.391644656658172607
0.305967509746551514 -0.271830350160598755 -0.253207385540008545
-0.254538387060165405 0.302432507276535034 0.184695243835449219
-0.398329377174377441 0.122271083295345306 0.399994403123855591
0.225622236728668213 0.390656560659408569 0.0132753923535346985
-0.217845425009727478 -0.383878082036972046 0.0534244701266288757
0.37577781081199646 0.309253573417663574 -0.201060473918914795
0.388652920722961426 -0.126832872629165649 -0.29144403338432312
-0.414525777101516724 0.0724681839346885681 0.169892415404319763
0.372131377458572388 0.326113671064376831 -0.204373344779014587
-0.251185566186904907 0.317663609981536865 0.265905678272247314
-0.161528706550598145 0.389320164918899536 0.25222700834274292
0.17828311026096344 0.265428543090820312 -0.0143597535789012909
-0.3518180251121521 0.21292288601398468 0.171925067901611328
-0.345031678676605225 -0.281885057687759399 0.231583535671234131
0.35502740740776062 0.20258648693561554 -0.115033790469169617
0.176136702299118042 0.382307589054107666 0.131040498614311218
-0.416843295097351074 0.163407444953918457 0.38978952169418335
0.3517322838306427 0.264531135559082031 0.078685075044631958
0.34702068567276001 0.215915068984031677 -0.142458051443099976
-0.395437300205230713 0.11385190486907959 0.397794425487518311
-0.218096718192100525 -0.381708413362503052 0.0580361932516098022
0.337079286575317383 -0.261585533618927002 -0.361570686101913452
0.291864186525344849 -0.307122796773910522 -0.23225247859954834
-0.420318156480789185 0.0184262879192829132 0.22796495258808136
0.374871402978897095 0.306418687105178833 -0.201557829976081848
-0.348126739263534546 0.181073412299156189 0.318892538547515869
0.331500470638275146 0.105353944003582001 -0.0123019460588693619
-0.443751901388168335 -0.0219578146934509277 0.254559814929962158
-0.426991045475006104 0.0897451043128967285 0.351426452398300171
0.389704674482345581 -0.123633891344070435 -0.288709700107574463
0.306104093790054321 -0.228149369359016418 -0.303004264831542969
-0.391165941953659058 0.149959653615951538 0.348026871681213379
-0.365732103586196899 -0.296122282743453979 0.0795715153217315674
-0.24847133457660675 0.317819535732269287 0.26967272162437439
0.361706346273422241 -0.00504637882113456726 -0.132331728935241699
0.37599557638168335 -0.0772821754217147827 -0.272382199764251709
-0.356750607490539551 -0.11589328944683075 0.110523656010627747
-0.407681465148925781 0.0798162221908569336 0.274139642715454102
0.273840457201004028 0.152989581227302551 0.0868452563881874084
0.340696960687637329 0.0374831259250640869 -0.0965594574809074402
0.383787333965301514 -0.124092899262905121 -0.303352564573287964
-0.293100863695144653 -0.140983834862709045 0.127107203006744385
-0.425049036741256714 -0.0205002184957265854 0.229071080684661865
0.265480756759643555 0.169908583164215088 0.138090252876281738
-0.261799246072769165 -0.30011257529258728 0.298420190811157227
-0.41281774640083313 0.00499493861570954323 0.36602485179901123
-0.293591827154159546 -0.33213198184967041 0.107099033892154694
-0.373693108558654785 -0.300367772579193115 0.06774090975522995
-0.393784016370773315 -0.268055588006973267 0.0913924425840377808
0.390565931797027588 0.129722714424133301 -0.113779075443744659
0.167936712503433228 -0.33633306622505188 -0.183315575122833252
-0.431047171354293823 0.0411218777298927307 0.271676808595657349
-0.408851981163024902 0.13068622350692749 0.402371704578399658
-0.219404280185699463 -0.381738066673278809 0.0590039752423763275
0.454137563705444336 0.283397138118743896 -0.21433568000793457
0.378250360488891602 0.300820529460906982 -0.201698064804077148
0.378583371639251709 0.317463904619216919 -0.206614553928375244
-0.348578274250030518 -0.297587811946868896 0.0774013251066207886
-0.435463666915893555 -0.0635848492383956909 0.277528047561645508
-0.403579115867614746 0.118618465960025787 0.39651024341583252
0.300600826740264893 -0.187656253576278687 -0.262593835592269897
-0.420398443937301636 0.0157359503209590912 0.219207912683486938
-0.439705461263656616 -0.0332655981183052063 0.248788267374038696
-0.253356635570526123 0.316528350114822388 0.264729768037796021
0.157663017511367798 0.0216897130012512207 0.220059558749198914
0.184657886624336243 -0.0320674777030944824 0.23491629958152771
0.354850292205810547 0.0475484132766723633 0.222571000456809998
0.444314271211624146 0.263856112957000732 -0.214530870318412781
0.401139199733734131 0.0670118927955627441 -0.258977562189102173
0.164280235767364502 0.00199973583221435547 -0.0180519819259643555
-0.423361152410507202 -0.179057374596595764 0.377998292446136475
0.174378857016563416 0.288574934005737305 0.243484213948249817
0.175121590495109558 0.192526489496231079 -0.00639415532350540161
0.306958496570587158 -0.125333815813064575 0.039301600307226181
0.363327622413635254 0.154436066746711731 0.257727146148681641
-0.399105846881866455 -0.11836695671081543 0.0477844253182411194
0.444466531276702881 0.264447450637817383 -0.214392527937889099
0.368608415126800537 0.121927313506603241 -0.260902881622314453
0.235396698117256165 0.246899619698524475 0.0900969579815864563
0.400645971298217773 0.323657602071762085 -0.213447004556655884
-0.43301093578338623 -0.0636019110679626465 0.236211150884628296
-0.313075780868530273 -0.286462157964706421 0.0793218314647674561
-0.419562786817550659 -0.200635731220245361 0.147027552127838135
-0.432343512773513794 0.0458350144326686859 0.268692851066589355
0.303915947675704956 -0.267598152160644531 -0.255249977111816406
0.455030083656311035 0.286583155393600464 -0.214130103588104248
0.376088142395019531 0.29967072606086731 -0.203798413276672363
-0.393036127090454102 0.155052095651626587 0.344175457954406738
0.370258837938308716 0.327496528625488281 -0.208788752555847168
-0.365793913602828979 0.0685933679342269897 0.158681362867355347
-0.294661372900009155 -0.333625644445419312 0.102524220943450928
0.357534229755401611 -0.0344569161534309387 -0.105459392070770264
0.279027581214904785 -0.212339505553245544 -0.139794439077377319
0.297613412141799927 0.268841862678527832 0.0335433483123779297
0.340686678886413574 0.00675892084836959839 0.226750820875167847
0.25649791955947876 -0.154306963086128235 0.189585119485855103
0.366401314735412598 0.229387998580932617 0.105881601572036743
0.358467936515808105 -0.0769624337553977966 -0.037296690046787262
0.325088918209075928 -0.218005269765853882 -0.193501144647598267
0.341963827610015869 0.0233355611562728882 0.201958924531936646
-0.355472266674041748 -0.199266284704208374 0.0304630063474178314
0.186776444315910339 -0.410085469484329224 -0.0106494911015033722
0.326552808284759521 -0.152825042605400085 0.0873618721961975098
0.208983704447746277 -0.438526958227157593 -0.106845781207084656
-0.354744523763656616 -0.321840643882751465 0.0839398428797721863
-0.286582618951797485 -0.339403510093688965 0.0590375699102878571
-0.408537566661834717 0.164428919553756714 0.38708728551864624
-0.297875970602035522 -0.256451457738876343 0.0906005874276161194
-0.391659677028656006 -0.266372591257095337 0.0908868163824081421
-0.43157196044921875 0.0397693626582622528 0.273821145296096802
0.306423842906951904 -0.272376298904418945 -0.257334709167480469
0.314074158668518066 -0.262618362903594971 -0.354325920343399048
-0.398204267024993896 0.12162279337644577 0.400139302015304565
0.224420040845870972 0.377028852701187134 0.00703019276261329651
0.340072005987167358 -0.260761350393295288 -0.360416203737258911
0.268314927816390991 -0.266918659210205078 0.0973107963800430298
-0.36316215991973877 0.219928964972496033 0.361438333988189697
-0.15569719672203064 0.389307618141174316 0.252989232540130615
0.196470528841018677 0.300219982862472534 -0.0121161751449108124
0.340879261493682861 -0.266034722328186035 -0.358491033315658569
0.379722148180007935 0.202569693326950073 -0.246339499950408936
0.00617119669914245605 -0.0819526612758636475 0.0856863632798194885
-0.209607332944869995 0.401762098073959351 0.271320700645446777
0.240225329995155334 0.288491427898406982 0.0749558210372924805
0.316471099853515625 0.078390859067440033 0.232823282480239868
-0.41952890157699585 -0.186093598604202271 0.170925751328468323
0.272712647914886475 0.241422206163406372 -0.170117378234863281
0.32789301872253418 -0.0852728486061096191 0.232341870665550232
0.259459435939788818 -0.107661321759223938 -0.122564986348152161
-0.372558712959289551 0.195256650447845459 0.310880452394485474
0.432730585336685181 0.264008373022079468 -0.0772130042314529419
0.0983218401670455933 0.0661570429801940918 0.12706892192363739
-0.214564606547355652 0.377728849649429321 0.292959988117218018
0.192992150783538818 0.319019973278045654 0.0448233410716056824
0.342020571231842041 0.0463004671037197113 0.228910088539123535
0.152895510196685791 -0.350247502326965332 0.136631429195404053
0.233811616897583008 0.267960786819458008 -0.176829725503921509
0.375962585210800171 -0.0366056300699710846 -0.177777469158172607
-0.372601091861724854 0.16245664656162262 0.293625295162200928
0.0890401974320411682 0.39636993408203125 0.115718595683574677
-0.12004987895488739 0.406031370162963867 0.264906644821166992
0.328331232070922852 -0.154527634382247925 0.0860660970211029053
-0.341192662715911865 -0.0781241580843925476 0.364315152168273926
0.296585440635681152 -0.301833868026733398 -0.343016445636749268
0.312820553779602051 0.269949227571487427 -0.149775683879852295
-0.411283612251281738 0.16430942714214325 0.389650553464889526
0.379651367664337158 -0.0108808614313602448 -0.275856703519821167
0.275434643030166626 -0.307077974081039429 -0.324004083871841431
0.421034514904022217 -0.293259382247924805 -0.261614590883255005
0.395778805017471313 -0.194101095199584961 -0.327481329441070557
-0.435880988836288452 0.0381161868572235107 0.274651825428009033
-0.4029560387134552 0.127539783716201782 0.399371117353439331
0.325030714273452759 -0.297245800495147705 -0.371348142623901367
-0.317357957363128662 -0.327256828546524048 0.145828127861022949
-0.158640682697296143 0.390075862407684326 0.251971423625946045
0.198861837387084961 0.304695427417755127 -0.0122781693935394287
-0.312947630882263184 -0.250247210264205933 0.208375066518783569
0.131588548421859741 0.189416617155075073 0.098280005156993866
0.339053153991699219 -0.0983820781111717224 -0.0900953412055969238
0.115074411034584045 0.170388594269752502 0.230695098638534546
-0.129935130476951599 0.327510297298431396 0.236625909805297852
0.346523195505142212 -0.232347577810287476 -0.348309248685836792
0.331837832927703857 0.29604494571685791 -0.164781287312507629
0.0671516060829162598 -0.0166273117065429688 0.275071263313293457
0.0462845712900161743 -0.0442332923412322998 0.121603913605213165
0.194792002439498901 0.204221680760383606 0.187953874468803406
0.342145562171936035 -0.215339228510856628 -0.283011376857757568
0.401004165410995483 0.0968451052904129028 -0.179408431053161621
0.18934255838394165 -0.403367042541503906 -0.00990808382630348206
-0.411607205867767334 -0.182834029197692871 0.136907085776329041
0.381068527698516846 -0.00238192826509475708 -0.268912911415100098
0.339354813098907471 0.0344789698719978333 0.154713764786720276
0.393064558506011963 -0.195445716381072998 -0.325900375843048096
-0.407080650329589844 0.132120370864868164 0.399865269660949707
0.31982499361038208 -0.0972687676548957825 0.170946285128593445
-0.447986125946044922 0.206694811582565308 0.40474015474319458
-0.327294379472732544 -0.330703616142272949 0.139013186097145081
-0.448486864566802979 -0.107923537492752075 0.240929976105690002
-0.121743969619274139 0.406165599822998047 0.260997116565704346
-0.43323478102684021 0.0399060063064098358 0.273399412631988525
0.19754357635974884 0.301047950983047485 -0.0121944621205329895
0.297195613384246826 0.00627795979380607605 0.193297013640403748
0.28590083122253418 -0.216976240277290344 -0.0672197863459587097
0.327669113874435425 -0.255947500467300415 -0.298301100730895996
0.264066517353057861 -0.269797354936599731 -0.0579097568988800049
0.194131568074226379 -0.135961666703224182 0.206003516912460327
0.286147922277450562 -0.00175292231142520905 0.193652153015136719
-0.0813171565532684326 0.417090892791748047 0.416712045669555664
0.366034358739852905 0.0253458917140960693 -0.166270807385444641
0.33635944128036499 -0.08363381028175354 0.0503130853176116943
0.31770479679107666 -0.234170347452163696 -0.220875322818756104
-0.350257426500320435 0.192152664065361023 0.281499207019805908
0.285849064588546753 0.188490182161331177 0.0661287456750869751
-0.421407222747802734 0.161923930048942566 0.392779380083084106
-0.246146351099014282 -0.347113102674484253 0.0550821758806705475
-0.445644617080688477 -0.0208569355309009552 0.219268977642059326
-0.432177454233169556 0.0417466871440410614 0.2703266441822052
0.303705990314483643 -0.273418426513671875 -0.249491482973098755
0.298249185085296631 -0.0885880738496780396 0.176768273115158081
-0.395050644874572754 0.121189549565315247 0.30445021390914917
0.0682798326015472412 0.259487539529800415 0.337910294532775879
-0.42608189582824707 0.0852234438061714172 0.351619094610214233
0.39453434944152832 0.00380035489797592163 -0.184819936752319336
0.305550962686538696 -0.214629828929901123 -0.285215914249420166
-0.440257430076599121 -0.0649814009666442871 0.270881056785583496
0.362689077854156494 -0.128232359886169434 -0.254408925771713257
0.305575460195541382 -0.272545218467712402 -0.260357499122619629
0.201684281229972839 0.312049329280853271 -0.0113539770245552063
0.181989997625350952 0.136701822280883789 0.292185038328170776
0.354397743940353394 -0.139260783791542053 0.222656100988388062
0.129359930753707886 -0.0408882796764373779 0.234877005219459534
-0.336458742618560791 0.259909451007843018 0.283844172954559326
-0.4074898362159729 -0.25848737359046936 0.249319985508918762
-0.256408810615539551 -0.255346357822418213 0.0417188629508018494
0.210806608200073242 0.149402916431427002 0.297361284494400024
0.209886610507965088 -0.1711387038230896 0.227432966232299805
0.279709309339523315 -0.112174414098262787 -0.280046999454498291
0.318082213401794434 -0.0330430753529071808 0.225007385015487671
0.184538722038269043 0.249029740691184998 0.230774998664855957
-0.45515325665473938 -0.199579432606697083 0.233597248792648315
-0.354385316371917725 -0.205108419060707092 0.0905900001525878906
-0.41558307409286499 0.159920632839202881 0.390957355499267578
0.192491650581359863 0.120585709810256958 0.270565152168273926
0.121267311275005341 -0.343509197235107422 -0.0615684241056442261
-0.380491316318511963 0.0915959477424621582 0.0887550637125968933
0.320426881313323975 -0.276260018348693848 -0.311314910650253296
0.395457625389099121 -0.195420235395431519 -0.32687714695930481
0.426327705383300781 0.0753706097602844238 -0.254308015108108521
-0.430430442094802856 0.0428539104759693146 0.270761638879776001
0.305447518825531006 -0.273718088865280151 -0.253960907459259033
0.399453669786453247 -0.0846525579690933228 -0.302635431289672852
0.076218530535697937 0.273661434650421143 0.337813884019851685
-0.397868841886520386 -0.0790497958660125732 0.0456872954964637756
-0.345144480466842651 0.192450672388076782 0.135010793805122375
-0.382292270660400391 -0.174068659543991089 0.0502994060516357422
0.369358241558074951 -0.0736164674162864685 -0.159506142139434814
-0.432871848344802856 0.158169731497764587 0.409063845872879028
0.387120336294174194 -0.169417470693588257 -0.324081987142562866
0.0754613205790519714 0.272985279560089111 0.336989343166351318
0.168212324380874634 -0.207572191953659058 0.230237513780593872
0.190026819705963135 0.291035294532775879 0.353350520133972168
-0.204778373241424561 0.296624690294265747 0.385455667972564697
-0.392983853816986084 -0.182925194501876831 0.215032011270523071
0.327912956476211548 -0.264148712158203125 -0.356130212545394897
-0.358040124177932739 -0.020721064880490303 0.0833053737878799438
0.0142824053764343262 -0.110858559608459473 0.0802518576383590698
0.154848679900169373 -0.0462743937969207764 0.164436459541320801
0.334786683320999146 0.267404109239578247 0.0375333540141582489
-0.427698016166687012 -0.0795727968215942383 0.214354902505874634
0.029775083065032959 -0.419610112905502319 0.225407391786575317
-0.453956842422485352 0.186758056282997131 0.187976479530334473
0.167465299367904663 0.37854313850402832 0.359498381614685059
0.360094994306564331 -0.255857974290847778 -0.376408904790878296
-0.394174098968505859 -0.03551444411277771 0.0719274953007698059
-0.00978499650955200195 -0.0991363525390625 0.0856578946113586426
-0.348221689462661743 -0.205922186374664307 0.102131247520446777
0.292740494012832642 -0.180088624358177185 -0.0677622631192207336
-0.456514120101928711 0.187170550227165222 0.29509851336479187
0.389230877161026001 -0.190700069069862366 -0.328479617834091187
0.308549702167510986 -0.133681356906890869 0.0319552645087242126
0.388111114501953125 0.029717322438955307 -0.181567534804344177
-0.251780211925506592 0.316994935274124146 0.268314272165298462
-0.203383728861808777 0.344792336225509644 0.398278951644897461
0.126072615385055542 0.202337458729743958 0.0931407809257507324
-0.422617018222808838 -0.0153723526746034622 0.339758098125457764
0.291539132595062256 -0.210849553346633911 -0.184443831443786621
0.308593928813934326 -0.121534109115600586 0.0384630821645259857
-0.39046555757522583 0.127592176198959351 0.388232767581939697
0.154704496264457703 0.31655043363571167 0.117795228958129883
0.230778485536575317 -0.175078541040420532 -0.011551983654499054
-0.423002779483795166 -0.0253039766103029251 0.296814978122711182
0.34071582555770874 -0.197963938117027283 -0.187319919466972351
0.351379066705703735 -0.179340973496437073 -0.333825558423995972
0.024214819073677063 0.0310628712177276611 0.224742740392684937
0.393546581268310547 0.068691551685333252 -0.131268829107284546
0.421270906925201416 0.0896967202425003052 -0.217517778277397156
0.281713277101516724 0.179597511887550354 0.0676225945353507996
0.304758340120315552 -0.257329970598220825 -0.355203956365585327
-0.411242008209228516 0.162945419549942017 0.390319168567657471
0.355200827121734619 0.227572828531265259 -0.16964353621006012
-0.408534824848175049 0.0155195705592632294 0.389887124300003052
-0.436887294054031372 0.239072069525718689 0.438151180744171143
0.41196712851524353 -0.300216019153594971 -0.251448512077331543
0.319340109825134277 -0.276815354824066162 -0.309919357299804688
0.393652021884918213 -0.199861690402030945 -0.327052772045135498
0.360060364007949829 -0.230305701494216919 -0.351290464401245117
0.243568018078804016 0.112093806266784668 -0.191352143883705139
0.306936025619506836 -0.270706683397293091 -0.255726426839828491
0.308130443096160889 0.260703474283218384 -0.0849384218454360962
-0.405732929706573486 0.132724672555923462 0.400972306728363037
0.31917572021484375 -0.260665982961654663 -0.366587519645690918
0.397219270467758179 -0.083935469388961792 -0.300747990608215332
0.0477094948291778564 0.214809775352478027 0.340146899223327637
-0.453038603067398071 0.201826572418212891 0.402730822563171387
-0.358503907918930054 -0.235082939267158508 0.374302864074707031
0.369072854518890381 -0.232254013419151306 -0.360609054565429688
0.374612092971801758 0.306389927864074707 -0.200996369123458862
-0.254070907831192017 0.319286733865737915 0.264162927865982056
-0.432197809219360352 0.157303988933563232 0.406326532363891602
-0.317031234502792358 -0.254850834608078003 0.352041751146316528
0.382771044969558716 -0.159919098019599915 -0.32212868332862854
0.371782988309860229 0.295319259166717529 -0.20277722179889679
-0.350861817598342896 -0.198507755994796753 0.0987251326441764832
0.390194922685623169 -0.190384700894355774 -0.328931689262390137
-0.203775718808174133 0.346009403467178345 0.399598479270935059
-0.44433438777923584 0.0181342475116252899 0.369480133056640625
0.334793210029602051 0.0863851010799407959 0.125977560877799988
0.373386532068252563 0.128136128187179565 -0.113813579082489014
0.344557046890258789 0.079399406909942627 -0.017399882897734642
0.21936383843421936 0.222894445061683655 0.06649799644947052
0.444632619619369507 0.294009894132614136 -0.143189847469329834
0.413922876119613647 0.0623667910695075989 -0.248669356107711792
0.40020337700843811 0.12751181423664093 -0.254636466503143311
0.307027101516723633 -0.146687120199203491 0.052035801112651825
0.106348231434822083 0.201134145259857178 0.00131230428814888
-0.449713349342346191 -0.0300039108842611313 0.301370680332183838
-0.0508323162794113159 -0.00478386878967285156 0.0536167584359645844
0.290971994400024414 -0.00217260792851448059 0.228155463933944702
0.392475932836532593 -0.0875414907932281494 -0.177620932459831238
0.0223522335290908813 -0.033370673656463623 0.0536796264350414276
-0.432861894369125366 0.0159407556056976318 0.367033928632736206
0.35183146595954895 -0.0923106521368026733 -0.279723167419433594
0.347200989723205566 0.149346396327018738 -0.113610729575157166
-0.408810675144195557 -0.0850816667079925537 0.359747081995010376
-0.413363337516784668 -0.048689771443605423 0.378783702850341797
0.376311391592025757 0.0471561439335346222 -0.266610443592071533
-0.0200735926628112793 -0.370247006416320801 0.102587804198265076
0.366281509399414062 0.071237027645111084 -0.276699960231781006
0.302807271480560303 -0.134469091892242432 0.00551005825400352478
-0.0365646965801715851 0.417002052068710327 0.306418657302856445
0.0655161142349243164 0.0810635089874267578 0.061022341251373291
-0.0847413390874862671 -0.0566614270210266113 0.000924341380596160889
0.338126778602600098 -0.195419326424598694 0.21599876880645752
-0.42678987979888916 0.103554487228393555 0.385505497455596924
-0.319821983575820923 -0.295268326997756958 0.0776818990707397461
-0.403217524290084839 0.170710831880569458 0.145454823970794678
0.319672912359237671 -0.0910821259021759033 0.169322997331619263
-0.322408288717269897 -0.324235141277313232 0.136911362409591675
-0.147435843944549561 0.389612317085266113 0.259599775075912476
-0.304714471101760864 0.306372851133346558 0.205461129546165466
0.322017490863800049 0.0598945021629333496 0.233418405055999756
-0.202488362789154053 0.34136548638343811 0.397997409105300903
0.343240499496459961 -0.0125809907913208008 0.178812146186828613
-0.12281055748462677 0.33377501368522644 0.208285316824913025
0.286496341228485107 -0.0116930492222309113 0.220036178827285767
0.310178965330123901 -0.0380186215043067932 0.199315086007118225
0.34838905930519104 -0.0496076978743076324 -0.136354416608810425
0.28737187385559082 0.101875588297843933 0.189103037118911743
0.293780207633972168 0.0105768702924251556 0.156212478876113892
0.339158356189727783 -0.0908486992120742798 -0.160165205597877502
-0.245722517371177673 -0.346945106983184814 0.055001579225063324
0.393175631761550903 0.0234900452196598053 -0.205824792385101318
