ply
format ascii 1.0
element vertex 739
property float x
property float y
property float z
end_header
0.225897625088691711 0.0302409809082746506 0.215055882930755615
0.130032137036323547 0.288703262805938721 0.133723944425582886
-0.306928038597106934 0.0913632512092590332 0.167232617735862732
-0.33298105001449585 -0.27174067497253418 0.235938072204589844
0.277351647615432739 -0.144716233015060425 -0.108840510249137878
0.333208084106445312 -0.0171913262456655502 -0.261619418859481812
-0.257650524377822876 -0.123018398880958557 0.417575359344482422
-0.388562828302383423 -0.0615600273013114929 0.173180416226387024
0.0812754929065704346 -0.170418620109558105 0.0800823718309402466
0.288716495037078857 -0.0799564197659492493 -0.187654346227645874
0.220306158065795898 -0.181380346417427063 0.0509489327669143677
0.216609477996826172 0.125207498669624329 0.258897900581359863
-0.387819290161132812 0.0708073079586029053 0.207460865378379822
0.18342822790145874 -0.0258298516273498535 0.0277132466435432434
-0.0475611239671707153 -0.177687257528305054 0.0502421297132968903
-0.312578827142715454 -0.133475333452224731 0.239361166954040527
-0.185725271701812744 0.281773418188095093 0.238426223397254944
0.311978280544281006 -0.239731535315513611 -0.27654537558555603
-0.190616309642791748 -0.718157052993774414 0.127652496099472046
0.0610097050666809082 -0.495400011539459229 -0.0365032181143760681
-0.311926722526550293 0.243267998099327087 0.175369635224342346
-0.366744548082351685 0.13476899266242981 0.397821903228759766
-0.117739632725715637 -0.144064962863922119 0.0671685934066772461
-0.26662859320640564 0.0962044075131416321 0.134468674659729004
0.29856795072555542 -0.16583685576915741 -0.267795592546463013
-0.279601424932479858 -0.288652002811431885 0.053708098828792572
0.332628697156906128 -0.210481941699981689 -0.296623766422271729
0.337132930755615234 0.0999923273921012878 -0.26741325855255127
0.363082140684127808 0.261952519416809082 -0.225462049245834351
0.276858329772949219 -0.24095308780670166 -0.346419423818588257
-0.365707099437713623 -0.0156246395781636238 0.365852683782577515
-0.331584066152572632 0.278794676065444946 0.442923247814178467
0.254074513912200928 0.148233711719512939 -0.0260424446314573288
0.273859620094299316 -0.00744378566741943359 0.172152295708656311
0.324288755655288696 -0.16891595721244812 -0.323037922382354736
0.315752208232879639 0.22233174741268158 -0.0500952526926994324
0.186677873134613037 -0.227673977613449097 0.216493919491767883
0.375109761953353882 -0.0541185811161994934 -0.242486238479614258
0.321786791086196899 0.0240184776484966278 -0.270503014326095581
0.156553298234939575 -0.264519631862640381 -0.0735513493418693542
0.31045377254486084 -0.238640978932380676 -0.333230108022689819
-0.356185883283615112 -0.0225178450345993042 0.363536238670349121
-0.284556806087493896 -0.078883633017539978 0.390699416399002075
-0.197397679090499878 0.300111234188079834 0.354587197303771973
-0.200419127941131592 0.244609639048576355 0.249820634722709656
0.243198052048683167 -0.285291850566864014 -0.195250615477561951
-0.43036457896232605 -0.221397683024406433 0.357037007808685303
0.151867374777793884 0.0137937963008880615 0.146027877926826477
-0.396169453859329224 0.19248509407043457 0.183644190430641174
0.328805685043334961 0.142718613147735596 -0.135513558983802795
0.208961069583892822 -0.258408844470977783 0.265595495700836182
0.362993359565734863 0.0158410016447305679 -0.271286100149154663
0.342746317386627197 -0.0979854241013526917 -0.267524272203445435
0.311334371566772461 -0.112616926431655884 -0.230760455131530762
0.267448365688323975 -0.243157252669334412 -0.351632863283157349
-0.350480914115905762 -0.0345920175313949585 0.203919783234596252
0.173069432377815247 -0.0837108790874481201 -0.00904295779764652252
0.243181332945823669 -0.26855817437171936 -0.100591614842414856
-0.406812041997909546 0.121102191507816315 0.344558894634246826
0.227949589490890503 0.062288433313369751 0.0491780191659927368
-0.296952486038208008 -0.298186242580413818 0.0607245676219463348
-0.0954920053482055664 -0.202165722846984863 0.00604460760951042175
0.13088659942150116 0.231079995632171631 0.00439864769577980042
-0.358420729637145996 -0.269845873117446899 0.174395203590393066
0.348764479160308838 -0.1367168128490448 -0.275336354970932007
0.244824066758155823 -0.274119317531585693 -0.232150226831436157
0.304669499397277832 -0.0350561626255512238 -0.240838736295700073
0.0144245177507400513 0.161485135555267334 0.0985553711652755737
0.184470325708389282 0.0790525898337364197 0.269430369138717651
0.196903303265571594 0.0671560466289520264 -0.194549396634101868
-0.288814038038253784 -0.215909555554389954 0.0743750706315040588
-0.404090166091918945 -0.241532281041145325 0.352583765983581543
0.252178549766540527 -0.245495975017547607 -0.354701638221740723
0.264580518007278442 -0.174038350582122803 0.177892670035362244
0.304214954376220703 0.0996965616941452026 0.124457314610481262
-0.249508246779441833 -0.137027174234390259 0.079542890191078186
-0.109522849321365356 -0.74386364221572876 -0.182173252105712891
0.101518690586090088 -0.0486052930355072021 0.330239236354827881
-0.25056225061416626 -0.120866000652313232 0.19308173656463623
-0.232256993651390076 -0.205550655722618103 0.0869540572166442871
-0.177219301462173462 -0.285293400287628174 0.0883449986577033997
0.243558406829833984 -0.214837417006492615 0.125077635049819946
-0.295309692621231079 -0.0827686190605163574 0.376431703567504883
-0.336877822875976562 -0.246793732047080994 0.0467559546232223511
-0.394221007823944092 -0.238942429423332214 0.3635273277759552
0.278690814971923828 -0.287458062171936035 -0.291105270385742188
-0.381810367107391357 0.0538850277662277222 0.181321471929550171
0.294066965579986572 0.0547645986080169678 0.125488445162773132
-0.315278172492980957 -0.173839718103408813 0.0753642916679382324
0.379948645830154419 0.147217556834220886 -0.231125608086585999
0.0887620747089385986 -0.176412671804428101 -0.197366759181022644
-0.331391960382461548 -0.266955554485321045 0.13168102502822876
0.0785146653652191162 -0.479442805051803589 -0.0190147049725055695
0.0373313277959823608 -0.0329528450965881348 -0.0333524644374847412
-0.205732494592666626 0.0964402258396148682 0.361573755741119385
-0.319288432598114014 -0.0914707407355308533 0.412233680486679077
0.378069877624511719 0.263197720050811768 -0.228775963187217712
0.318488746881484985 -0.225288286805152893 -0.329347550868988037
-0.396175682544708252 0.228681668639183044 0.440236330032348633
0.272432923316955566 -0.0854201912879943848 -0.284823030233383179
0.289430975914001465 -0.247733592987060547 -0.337922334671020508
0.349022567272186279 0.0968951135873794556 0.154962539672851562
0.34052741527557373 -0.174976900219917297 -0.319028645753860474
-0.35273018479347229 0.132531777024269104 0.439533025026321411
-0.178394988179206848 0.249532446265220642 0.351267606019973755
0.356591075658798218 0.142597749829292297 -0.246349230408668518
0.125116854906082153 0.18585948646068573 0.363806337118148804
-0.34138837456703186 -0.23438669741153717 0.133650943636894226
-0.405721366405487061 0.00732428953051567078 0.283015787601470947
-0.370799124240875244 0.0946534425020217896 0.167616993188858032
0.330668509006500244 -0.164958193898200989 -0.313780128955841064
-0.36188507080078125 0.207189679145812988 0.201587915420532227
-0.24331432580947876 -0.313691556453704834 0.0579917207360267639
0.127352535724639893 -0.267284005880355835 0.193791747093200684
0.310952305793762207 0.163554772734642029 0.097293458878993988
-0.392900943756103516 0.174970090389251709 0.241478294134140015
-0.177819132804870605 -0.180622905492782593 0.108484826982021332
0.297781467437744141 -0.132323309779167175 0.248298674821853638
-0.216775655746459961 -0.233449652791023254 0.041721642017364502
-0.349076926708221436 -0.205539986491203308 0.242180988192558289
0.213701963424682617 -0.0748039782047271729 -0.25221484899520874
0.339728653430938721 0.19607621431350708 -0.219561323523521423
0.303022891283035278 -0.0994255915284156799 -0.281302213668823242
-0.00437134504318237305 -0.645478606224060059 -0.220582753419876099
0.202761799097061157 -0.290412962436676025 -0.122709564864635468
0.306929647922515869 0.0446278899908065796 0.0800540447235107422
-0.33894878625869751 0.0161530561745166779 0.430792093276977539
0.242755308747291565 -0.24672245979309082 -0.115450367331504822
0.0783504098653793335 -0.0167007148265838623 0.0084629356861114502
-0.329786896705627441 -0.121040508151054382 0.138349205255508423
-0.332412600517272949 -0.25904083251953125 0.0268038287758827209
-0.258501589298248291 -0.228300631046295166 0.0462051406502723694
-0.545545578002929688 -1.2602696418762207 0.14392697811126709
-0.250294029712677002 -0.253751188516616821 0.104365251958370209
-0.0862067341804504395 0.376703202724456787 0.228679656982421875
0.121762841939926147 -0.309247136116027832 -0.0109024718403816223
-0.10457775741815567 0.303818941116333008 0.346313834190368652
0.0918406397104263306 -0.0161303877830505371 0.305471807718276978
-0.259874641895294189 -0.0113392770290374756 0.118031628429889679
0.249792292714118958 -0.120150618255138397 -0.0866779014468193054
0.254376441240310669 -0.244229570031166077 0.205005466938018799
0.281626641750335693 0.0629177689552307129 -0.201119542121887207
0.336354494094848633 -0.118288777768611908 -0.290489554405212402
-0.372602403163909912 -0.142657920718193054 0.194999247789382935
0.241004794836044312 -0.00273019075393676758 -0.0295394714921712875
0.235046237707138062 -0.0220329165458679199 0.0388859771192073822
-0.361282169818878174 0.113149099051952362 0.403357535600662231
0.148149311542510986 -0.215378120541572571 0.0113739427179098129
-0.0302381068468093872 -0.203467279672622681 -0.00519824400544166565
-0.314131021499633789 -0.0849818810820579529 0.0985770747065544128
-0.326193898916244507 -0.244737729430198669 0.0117872506380081177
-0.263240218162536621 -0.211093083024024963 0.0456189364194869995
-0.076001971960067749 -0.229959696531295776 0.232081606984138489
-0.0112564563751220703 -0.472645163536071777 0.246904149651527405
0.26292109489440918 -0.274966657161712646 -0.245933398604393005
-0.0353976190090179443 0.30169600248336792 0.129644483327865601
-0.160473823547363281 0.386511385440826416 0.269205749034881592
-0.184937760233879089 0.344864845275878906 0.368042111396789551
0.254669666290283203 -0.0358878076076507568 0.2115621417760849
0.334001868963241577 0.165583595633506775 -0.272064417600631714
-0.382630825042724609 0.142991214990615845 0.415635287761688232
0.331737697124481201 -0.10651794821023941 -0.312489569187164307
-0.371246874332427979 0.0123475529253482819 0.16938646137714386
0.371709585189819336 0.119728155434131622 -0.249612405896186829
0.334900259971618652 0.132033213973045349 -0.137036651372909546
-0.397937387228012085 -0.189406633377075195 0.177687376737594604
-0.151738435029983521 0.384001970291137695 0.292234122753143311
0.157932564616203308 -0.270086228847503662 0.214676618576049805
0.258089661598205566 -0.295388400554656982 -0.245914563536643982
-0.255214214324951172 0.248990625143051147 0.229450836777687073
-0.057187054306268692 0.341886073350906372 0.262562155723571777
-0.332363396883010864 0.262811660766601562 0.188907787203788757
-0.268927514553070068 0.253232508897781372 0.188067808747291565
-0.403463006019592285 0.16147342324256897 0.378904789686203003
0.264732688665390015 -0.288933098316192627 -0.26748928427696228
-0.0843153446912765503 0.37466469407081604 0.229436486959457397
0.2022257000207901 0.0775151848793029785 -0.151142269372940063
-0.294965684413909912 0.266829878091812134 0.172548994421958923
0.336928784847259521 0.0331182926893234253 -0.266238003969192505
0.173120737075805664 0.19602656364440918 0.14894181489944458
0.345528483390808105 0.141870051622390747 -0.147186905145645142
-0.301396399736404419 -0.312750518321990967 0.0598765648901462555
-0.372402578592300415 0.0395875386893749237 0.190391600131988525
-0.314287543296813965 -0.244671821594238281 0.103227511048316956
0.285694867372512817 -0.170360878109931946 -0.159805029630661011
0.290638387203216553 -0.23038230836391449 -0.301763236522674561
0.321738898754119873 -0.0472800172865390778 0.0140503235161304474
0.251743346452713013 -0.23449002206325531 -0.249336406588554382
-0.215269625186920166 -0.309486150741577148 0.260664284229278564
0.134109288454055786 0.190509095788002014 0.0097929053008556366
0.332420468330383301 -0.0911647900938987732 -0.27187696099281311
0.00739756226539611816 -0.203848421573638916 0.0995092093944549561
-0.340183168649673462 -0.260598629713058472 0.141422510147094727
-0.374319255352020264 0.0250930152833461761 0.12232913076877594
0.345345079898834229 -0.0807376429438591003 -0.249971687793731689
-0.258821606636047363 -0.254007041454315186 0.114520654082298279
-0.326926201581954956 0.0663758665323257446 0.181252449750900269
0.247062936425209045 -0.498047739267349243 -0.137803614139556885
0.242771506309509277 -0.140504181385040283 -0.198256388306617737
0.205867484211921692 0.0554182231426239014 0.0027852281928062439
0.354699581861495972 -0.0134595818817615509 -0.278859466314315796
0.354800015687942505 0.0140080563724040985 -0.262092798948287964
0.309422314167022705 -0.277272850275039673 -0.314983248710632324
0.32554394006729126 -0.0924402475357055664 0.147723570466041565
0.311888128519058228 -0.0816256999969482422 -0.0293163005262613297
0.219457924365997314 -0.187581926584243774 -0.00546509865671396255
0.282651156187057495 -0.214087322354316711 0.184304699301719666
-0.338567256927490234 -0.0771940276026725769 0.32378619909286499
-0.31417199969291687 0.20878167450428009 0.276824355125427246
0.26431882381439209 -0.0044001387432217598 0.230944767594337463
0.290754318237304688 0.224403992295265198 0.0497700721025466919
0.356954097747802734 0.0970406234264373779 -0.202433571219444275
0.100634872913360596 0.178170427680015564 0.283130913972854614
-0.183554887771606445 -0.108848631381988525 0.145660161972045898
-0.3997916579246521 -0.110915243625640869 0.229065775871276855
0.326378136873245239 -0.22219085693359375 -0.290653765201568604
-0.332376182079315186 -0.281209945678710938 0.13046438992023468
0.263267755508422852 -0.199669152498245239 -0.105272561311721802
-0.215950161218643188 -0.330350577831268311 0.0560134947299957275
-0.417772769927978516 -0.100506365299224854 0.237243205308914185
0.341135561466217041 -0.0182053800672292709 -0.267802268266677856
0.116202443838119507 -0.0697934627532958984 0.171592757105827332
-0.408332288265228271 0.0282297413796186447 0.177531540393829346
0.264663636684417725 -0.12664438784122467 -0.0675793513655662537
0.0960847735404968262 -0.390144377946853638 -0.0558727681636810303
0.352037668228149414 0.132295534014701843 -0.151590168476104736
-0.297790557146072388 -0.2596779465675354 0.0625509545207023621
-0.414887785911560059 0.0278127975761890411 0.246275335550308228
0.257262080907821655 -0.200244098901748657 0.201821312308311462
0.0281149446964263916 -0.566693663597106934 0.0718093812465667725
-0.32242971658706665 -0.0674783289432525635 0.12479633092880249
0.269387692213058472 -0.225163280963897705 -0.326350629329681396
0.357293754816055298 0.070325113832950592 0.0412513390183448792
0.106719106435775757 0.129776805639266968 -0.0125904232263565063
0.276526987552642822 -0.0169719010591506958 0.0693428218364715576
-0.396217793226242065 0.0413384027779102325 0.239553630352020264
-0.105864942073822021 -0.854194223880767822 0.0550949834287166595
-0.387549221515655518 0.147112622857093811 0.408774256706237793
-0.425136476755142212 0.109202459454536438 0.252420306205749512
0.300787270069122314 -0.0936916321516036987 0.218190893530845642
-0.394314169883728027 0.177108451724052429 0.423155725002288818
-0.340581297874450684 -0.301037609577178955 0.0751959607005119324
-0.398157387971878052 -0.120176017284393311 0.24209827184677124
0.0407882630825042725 -0.271560102701187134 0.336035281419754028
-0.420742332935333252 -0.0740570724010467529 0.203573256731033325
0.271848052740097046 -0.257912278175354004 -0.254347920417785645
0.265636801719665527 0.159402310848236084 0.191879212856292725
0.199787914752960205 0.0316706597805023193 0.212901055812835693
0.298052936792373657 -0.134054318070411682 -0.200755059719085693
0.285113751888275146 0.123288437724113464 0.121111445128917694
0.218514949083328247 0.0443568229675292969 0.294044196605682373
0.344378739595413208 0.0337036699056625366 0.0431230366230010986
-0.371437311172485352 0.21043066680431366 0.257641404867172241
-0.413419812917709351 0.0570671260356903076 0.277786165475845337
0.285403013229370117 -0.280105054378509521 -0.335913658142089844
-0.3450184166431427 -0.0513191409409046173 0.180910766124725342
0.270017087459564209 0.0461900234222412109 -0.00477096438407897949
-0.357455253601074219 0.225152507424354553 0.396608501672744751
0.351148784160614014 -0.178350210189819336 0.220753580331802368
-0.394965857267379761 0.235540613532066345 0.426618874073028564
-0.299187123775482178 -0.104529425501823425 0.413568079471588135
-0.328000307083129883 -0.296936959028244019 0.0791771411895751953
0.391661643981933594 0.256745040416717529 -0.223214566707611084
-0.286882013082504272 0.216486543416976929 0.160816341638565063
-0.422019660472869873 -0.066929742693901062 0.214467108249664307
0.305432945489883423 -0.166149362921714783 -0.255555808544158936
0.33153417706489563 0.0621332079172134399 -0.179830655455589294
-0.392397195100784302 0.0513864755630493164 0.283661603927612305
-0.393211394548416138 -0.0597093924880027771 0.352202922105789185
0.310360848903656006 0.167415916919708252 0.0887890011072158813
-0.323451042175292969 0.196485057473182678 0.356886833906173706
0.385561823844909668 0.132348909974098206 -0.231034651398658752
0.348182231187820435 -0.285646378993988037 -0.286761164665222168
-0.391317963600158691 -0.0900632888078689575 0.328369110822677612
0.338213711977005005 -0.0528792142868041992 -0.147309854626655579
0.212128683924674988 0.034955441951751709 -0.1118365079164505
-0.309858083724975586 0.257752329111099243 0.35348200798034668
0.206811055541038513 -0.241203516721725464 0.22040027379989624
0.351668566465377808 0.0871694982051849365 -0.266408205032348633
-0.309489905834197998 -0.227092072367668152 0.422186732292175293
-0.106059491634368896 0.325716108083724976 0.227789551019668579
0.357428073883056641 -0.0433091036975383759 -0.266114622354507446
0.184073284268379211 0.117141544818878174 -0.0496155060827732086
0.264418184757232666 -0.28649747371673584 -0.279301881790161133
-0.411961227655410767 0.134335175156593323 0.310190767049789429
0.079370647668838501 0.185263067483901978 0.19460710883140564
0.146179318428039551 0.177464187145233154 0.0948671400547027588
-0.0163496732711791992 -0.0823593437671661377 0.0309660136699676514
0.124507218599319458 0.192762225866317749 -0.0406922623515129089
0.0734333544969558716 0.0736841261386871338 0.0623213797807693481
0.268791675567626953 -0.222439020872116089 0.144607514142990112
-0.267594486474990845 -0.185449168086051941 0.285910069942474365
0.307342052459716797 -0.183633595705032349 -0.260844677686691284
0.282650411128997803 -0.231986343860626221 -0.260341554880142212
0.259438037872314453 -0.252374053001403809 -0.342041492462158203
0.0800507664680480957 -0.165346771478652954 0.259778141975402832
0.327442169189453125 0.0100894803181290627 -0.27967420220375061
-0.378249973058700562 0.151025369763374329 0.383241862058639526
0.327520787715911865 -0.0585073381662368774 -0.272876948118209839
0.359380483627319336 0.224670872092247009 -0.228807270526885986
0.404748529195785522 0.266073763370513916 -0.237330257892608643
0.0859624892473220825 0.241040170192718506 0.188967138528823853
-0.0413778424263000488 0.113490194082260132 0.157583564519882202
-0.286562561988830566 -0.196590393781661987 0.33273354172706604
0.228014141321182251 -0.145003870129585266 -0.213683962821960449
0.066688045859336853 0.0594133734703063965 0.28226780891418457
0.15806928277015686 0.125397190451622009 0.0131558068096637726
-0.195766344666481018 -0.326686263084411621 0.076097145676612854
-0.0090122520923614502 0.0790400505065917969 -0.0155426338315010071
0.339239418506622314 0.254370123147964478 -0.223258227109909058
-0.362461984157562256 -0.122448891401290894 0.129220128059387207
-0.371192693710327148 -0.225560232996940613 0.103499583899974823
0.261210024356842041 0.0201066136360168457 0.0215478874742984772
0.264755070209503174 -0.131209284067153931 0.04964480921626091
-0.0498969331383705139 0.347648918628692627 0.205965131521224976
0.279319852590560913 -0.188499793410301208 -0.258513927459716797
-0.154087692499160767 -0.403295367956161499 0.0651380717754364014
-0.278352886438369751 0.151655644178390503 0.168544352054595947
0.243717968463897705 0.128066092729568481 -0.0975473597645759583
0.118904776871204376 0.26671561598777771 0.210100769996643066
0.1740293949842453 0.0306055843830108643 -0.0860953181982040405
-0.00304263830184936523 -0.0494037866592407227 0.14011324942111969
0.0639503374695777893 0.198968276381492615 0.128257289528846741
0.154002904891967773 -0.240351691842079163 -0.0823085233569145203
-0.366301357746124268 0.244490444660186768 0.434377789497375488
0.396890163421630859 0.208150327205657959 -0.240781635046005249
0.234893903136253357 -0.223263755440711975 0.19466516375541687
0.395342826843261719 0.306629866361618042 -0.170692980289459229
-0.38522791862487793 -0.256508946418762207 0.157077610492706299
-0.212937653064727783 -0.0738972276449203491 0.108470939099788666
0.309824764728546143 0.173670753836631775 -0.237727269530296326
0.252415299415588379 -0.231402993202209473 -0.23691384494304657
-0.325592756271362305 0.28897586464881897 0.436054915189743042
0.29297029972076416 -0.266030192375183105 -0.322515159845352173
0.10916079580783844 0.143165946006774902 -0.046908501535654068
-0.168592214584350586 0.355475544929504395 0.252803027629852295
-0.322427511215209961 -0.261447489261627197 0.352250099182128906
-0.218419581651687622 -0.168607786297798157 0.302384644746780396
0.320771992206573486 -0.0737975910305976868 -0.0519430637359619141
0.240155458450317383 -0.274750262498855591 -0.32047542929649353
-0.34383690357208252 -0.172158986330032349 0.389223396778106689
-0.224849775433540344 0.33929857611656189 0.264217019081115723
0.191656202077865601 -0.00815597176551818848 0.0473809055984020233
0.0785787701606750488 0.0950970053672790527 0.306392133235931396
-0.016077578067779541 -0.570891618728637695 -0.138591617345809937
-0.134531646966934204 0.314194828271865845 0.218560576438903809
-0.187769532203674316 -0.106909841299057007 0.312746345996856689
-0.823834538459777832 -2.19459891319274902 0.141900748014450073
0.344514548778533936 0.146601095795631409 -0.146509826183319092
-0.234020650386810303 -0.144514992833137512 0.314302235841751099
0.222100347280502319 -0.234590217471122742 -0.352913558483123779
0.135267764329910278 0.174453526735305786 -0.0389456041157245636
-0.328352689743041992 0.169982880353927612 0.356162369251251221
-0.0276820063591003418 -0.539057552814483643 -0.143468096852302551
-0.320779263973236084 -0.267805725336074829 0.34846147894859314
-0.340746879577636719 -0.121905393898487091 0.206664979457855225
0.338105469942092896 -0.179207205772399902 -0.303063392639160156
0.361145615577697754 -0.0733160749077796936 -0.245493918657302856
0.3348102867603302 0.0781486183404922485 -0.217859163880348206
0.20194070041179657 -0.302071541547775269 -0.329886436462402344
0.232915908098220825 0.0409551858901977539 0.169579982757568359
0.345223069190979004 0.264883458614349365 -0.20024988055229187
0.337128818035125732 0.140646412968635559 0.145540609955787659
0.120399333536624908 -0.315399229526519775 -0.0582487806677818298
0.236211702227592468 -0.2220010906457901 -0.0386336594820022583
0.131769955158233643 0.128894150257110596 0.181647643446922302
0.296229004859924316 0.127000108361244202 0.0800220519304275513
0.294964790344238281 0.000564642250537872314 -0.0612921267747879028
0.0185136198997497559 -0.294193893671035767 0.259607285261154175
-0.200190722942352295 -0.0540038347244262695 0.109227515757083893
0.216721832752227783 -0.16138516366481781 0.122622929513454437
-0.116961225867271423 -0.353431344032287598 0.119954682886600494
0.188093557953834534 0.0394396781921386719 -0.119207903742790222
0.233987957239151001 0.119125857949256897 -0.182424098253250122
0.251222819089889526 -0.08193930983543396 -0.0253422651439905167
0.065474584698677063 -0.0935432016849517822 0.213990747928619385
-0.393281608819961548 0.103342995047569275 0.378357887268066406
-0.368764966726303101 0.0168597660958766937 0.209069684147834778
-0.353135108947753906 -0.0793967172503471375 0.388342320919036865
-0.275304436683654785 -0.181409701704978943 0.231164783239364624
0.0472569167613983154 -0.310029923915863037 -0.122911810874938965
0.33468279242515564 -0.222863569855690002 -0.320180386304855347
-0.295562118291854858 -0.167075067758560181 0.133704811334609985
0.206437721848487854 0.151269510388374329 0.168305471539497375
0.236065521836280823 -0.240959763526916504 -0.16798245906829834
-0.346129775047302246 0.157963097095489502 0.38684457540512085
0.256689071655273438 0.181910738348960876 -0.168053105473518372
-0.37327730655670166 0.0823392048478126526 0.362838506698608398
-0.34283033013343811 -0.194890648126602173 0.128138899803161621
0.295199453830718994 -0.192840978503227234 -0.331430315971374512
-0.346977055072784424 0.148338928818702698 0.171235740184783936
-0.238122999668121338 -0.359942108392715454 0.390824973583221436
-0.356338560581207275 0.161216422915458679 0.407068043947219849
-0.21445600688457489 0.307897001504898071 0.20837894082069397
0.218564510345458984 0.121770143508911133 -0.0418051034212112427
0.198612451553344727 0.150964617729187012 0.0233994349837303162
-0.305143356323242188 -0.287542372941970825 0.139184087514877319
0.311883330345153809 -0.221281886100769043 -0.310917019844055176
-0.385646939277648926 -0.115221612155437469 0.171910375356674194
-0.355334699153900146 0.175130471587181091 0.387581020593643188
0.238608404994010925 0.156276881694793701 0.0420747622847557068
0.329548805952072144 0.0929259955883026123 -0.097532317042350769
-0.387541770935058594 -0.0897876545786857605 0.229938745498657227
-0.0975690782070159912 0.376414060592651367 0.33269616961479187
0.294160544872283936 -0.212656721472740173 -0.277514100074768066
0.265921741724014282 -0.27355116605758667 -0.323274552822113037
-0.392262637615203857 -0.0127984723076224327 0.364642918109893799
0.289640724658966064 0.134518712759017944 0.240130484104156494
-0.0144936442375183105 -0.481850147247314453 0.217316716909408569
0.281326353549957275 -0.258682370185852051 -0.337840735912322998
0.225583210587501526 -0.288141936063766479 -0.317247986793518066
0.372860729694366455 0.0774200856685638428 -0.246050506830215454
-0.396664559841156006 -0.0819101408123970032 0.300491869449615479
0.335703730583190918 -0.164287969470024109 -0.283631831407546997
0.258362352848052979 -0.254901319742202759 -0.35145038366317749
0.323234528303146362 -0.25314679741859436 -0.308960616588592529
0.33698466420173645 -0.173342198133468628 -0.29648938775062561
0.208488509058952332 -0.300234615802764893 -0.316962778568267822
0.332238376140594482 -0.0385341346263885498 -0.267762362957000732
0.121580801904201508 -0.328139781951904297 -0.0730954632163047791
0.091240614652633667 0.0237578451633453369 0.178423821926116943
-0.405977964401245117 -0.041518092155456543 0.233347445726394653
0.347352176904678345 -0.160406187176704407 -0.290727138519287109
-0.38878294825553894 -0.0453109703958034515 0.380720257759094238
0.387655705213546753 0.153255656361579895 -0.18059849739074707
0.0126647055149078369 -0.0525677800178527832 0.244768023490905762
-0.0145430266857147217 -0.0857364237308502197 0.111514255404472351
0.238981574773788452 0.134821400046348572 0.209644541144371033
-0.333081960678100586 -0.281473547220230103 0.0726958811283111572
-0.228207960724830627 -0.152356922626495361 0.0890197008848190308
0.200042635202407837 0.142854422330856323 -0.0336358919739723206
0.0801253020763397217 -0.227253198623657227 -0.00202665477991104126
-0.160814851522445679 0.155390039086341858 0.189711332321166992
-0.335226476192474365 -0.235596999526023865 0.0680551826953887939
-0.415415406227111816 -0.068314187228679657 0.207377225160598755
0.295880049467086792 -0.158741101622581482 -0.112754061818122864
0.296313196420669556 -0.129919394850730896 -0.166389867663383484
0.317680448293685913 -0.159768342971801758 0.299977272748947144
0.284198790788650513 -0.0884528458118438721 -0.191040992736816406
-0.369863212108612061 -0.0951101183891296387 0.383674740791320801
-0.279700726270675659 -0.168617278337478638 0.302136749029159546
0.178886443376541138 -0.31522369384765625 0.264224469661712646
-0.365378528833389282 -0.120949909090995789 0.180942028760910034
0.228853046894073486 0.0089225471019744873 0.0805998146533966064
-0.417374730110168457 -0.0880820825695991516 0.263180762529373169
0.31675034761428833 0.210083335638046265 -0.135474056005477905
-0.227990463376045227 -0.173345834016799927 0.0461116060614585876
0.130268722772598267 -0.0286131501197814941 0.194710195064544678
-0.276718676090240479 0.272229939699172974 0.234843090176582336
-0.294714748859405518 -0.213415607810020447 0.0593015588819980621
-0.336688131093978882 0.193937838077545166 0.146909460425376892
-0.308368802070617676 0.097926698625087738 0.123435422778129578
0.282476663589477539 -0.000561371445655822754 0.249514907598495483
0.0585949718952178955 0.0921970009803771973 0.152409449219703674
-0.38463360071182251 -0.0017851637676358223 0.187710165977478027
-0.38485303521156311 0.246100053191184998 0.391331225633621216
0.235596567392349243 -0.287822693586349487 -0.33839830756187439
0.175724387168884277 0.0369230210781097412 0.119551196694374084
-0.352027565240859985 -0.2343578040599823 0.15892675518989563
-0.260411828756332397 -0.240155488252639771 0.110922813415527344
-0.0321567803621292114 0.252495527267456055 0.347432643175125122
-0.362610846757888794 0.00588876381516456604 0.150035649538040161
-0.391734600067138672 -0.0897645056247711182 0.228592514991760254
0.310486167669296265 -0.172003805637359619 -0.247535407543182373
0.296891063451766968 -0.14553464949131012 -0.133464425802230835
0.329800188541412354 -0.0732297748327255249 -0.250466763973236084
0.0874738842248916626 0.0666970014572143555 0.274662196636199951
-0.307897388935089111 0.21306377649307251 0.398378223180770874
0.325090527534484863 0.0985832288861274719 -0.22827795147895813
-0.378458291292190552 -0.147824883460998535 0.161739498376846313
0.218254819512367249 0.0820348113775253296 0.0342842377722263336
0.399539351463317871 0.277587711811065674 -0.181137427687644958
0.189259558916091919 0.20836523175239563 -0.0613175332546234131
-0.377122253179550171 -0.000561917200684547424 0.202479392290115356
0.277337431907653809 0.227232828736305237 -0.1302642822265625
0.173260897397994995 -0.401239901781082153 -0.0803533792495727539
-0.392872214317321777 -0.0495823994278907776 0.189240604639053345
-0.329258263111114502 -0.311432898044586182 0.0887382477521896362
0.0619525611400604248 -0.220060259103775024 0.00740531831979751587
-0.13317146897315979 -0.0929337441921234131 0.107744783163070679
0.295714080333709717 -0.254453599452972412 -0.326954483985900879
0.218340545892715454 -0.312992841005325317 -0.305312305688858032
0.254372626543045044 -0.283188700675964355 -0.317135751247406006
0.350046098232269287 -0.00483572483062744141 -0.265143424272537231
0.156409606337547302 0.165481120347976685 -0.0273947101086378098
0.333287060260772705 -0.215745344758033752 -0.333082079887390137
0.260588407516479492 -0.0180685929954051971 0.230825826525688171
0.351669937372207642 -0.116523578763008118 -0.280499488115310669
0.277337342500686646 -0.255122244358062744 -0.336991578340530396
0.2653484046459198 -0.113781660795211792 0.163678497076034546
0.126825690269470215 0.0806426107883453369 0.0903593450784683228
0.40215069055557251 0.309428811073303223 -0.171399861574172974
-0.352717816829681396 -0.1466837078332901 0.0868619531393051147
0.143031612038612366 0.178638339042663574 0.396836996078491211
0.218340158462524414 -0.146124497056007385 -0.242831170558929443
-0.321061551570892334 -0.297966301441192627 0.0914348140358924866
0.312567740678787231 -0.22974298894405365 -0.352201074361801147
0.229601964354515076 -0.137932673096656799 -0.0365495942533016205
-0.344392240047454834 -1.14478921890258789 -0.162481114268302917
-0.24342501163482666 0.346633970737457275 0.325303584337234497
-0.326802551746368408 -0.0259024947881698608 0.28033912181854248
0.0222831070423126221 0.252418816089630127 0.174755334854125977
0.111280977725982666 0.185454607009887695 0.208231478929519653
-0.333438187837600708 -0.123874187469482422 0.0932942554354667664
0.323356151580810547 -0.0482197366654872894 0.0180043876171112061
-0.451663315296173096 -0.971023678779602051 0.375586658716201782
-0.36653292179107666 -0.25307127833366394 0.141136571764945984
-0.385168075561523438 -0.0591727569699287415 0.350918829441070557
-0.378553152084350586 -0.210088804364204407 0.0491602793335914612
0.318960905075073242 -0.185080975294113159 -0.328725606203079224
-0.21631428599357605 0.193158358335494995 0.201775461435317993
0.171547621488571167 -0.326127052307128906 -0.175242766737937927
-0.383167177438735962 0.00255621597170829773 0.37909245491027832
-0.414226293563842773 0.199144214391708374 0.354576408863067627
0.289731234312057495 0.0175061747431755066 0.0469488352537155151
0.266966074705123901 0.16340126097202301 -0.102613091468811035
-0.361350357532501221 0.0819475054740905762 0.133198201656341553
0.309954345226287842 0.0231502056121826172 -0.156003966927528381
-0.275934040546417236 -0.0718179941177368164 0.240429490804672241
0.227225080132484436 -0.110649794340133667 -0.0362533405423164368
-0.393751621246337891 0.254171699285507202 0.207028642296791077
-0.345205008983612061 0.157522276043891907 0.35662078857421875
0.223444491624832153 -0.278148442506790161 -0.322578191757202148
0.304566115140914917 -0.0301670730113983154 0.195635586977005005
0.253080010414123535 -0.0513719022274017334 -0.18070104718208313
-0.401082992553710938 0.209167882800102234 0.448030352592468262
-0.201524436473846436 0.369133442640304565 0.240961164236068726
0.275419473648071289 -0.259351611137390137 -0.337072968482971191
0.292916238307952881 -0.29242214560508728 -0.34836268424987793
0.26058506965637207 -0.242058902978897095 -0.300689280033111572
-0.411590337753295898 -0.0541281253099441528 0.298492550849914551
-0.214927241206169128 0.366996914148330688 0.268542051315307617
-0.328711897134780884 0.115091398358345032 0.192013412714004517
-0.4074363112449646 -0.0153567027300596237 0.356335878372192383
-0.0587768591940402985 0.256347715854644775 0.357278048992156982
0.290856987237930298 -0.120011031627655029 0.0559077151119709015
0.214059621095657349 -0.161490082740783691 -0.0129720037803053856
0.214748889207839966 -0.230069667100906372 -0.267222940921783447
0.278985559940338135 -0.23130345344543457 -0.253650546073913574
-0.324382662773132324 -0.319355159997940063 0.0607020780444145203
-0.315706878900527954 -0.0810103192925453186 0.161261409521102905
-0.342487156391143799 0.0466681383550167084 0.111620217561721802
0.232358604669570923 -0.289669662714004517 -0.321410298347473145
0.335547745227813721 -0.199495047330856323 -0.291021734476089478
0.25878983736038208 -0.280992418527603149 -0.318230688571929932
0.213257148861885071 -0.208456471562385559 -0.00226346263661980629
0.290475249290466309 -0.23971894383430481 -0.300656348466873169
-0.393335163593292236 -0.0456627011299133301 0.178942039608955383
0.293165028095245361 -0.0923573076725006104 0.163288861513137817
0.135522499680519104 -0.0739681720733642578 0.102929964661598206
-0.316509008407592773 0.0491134226322174072 0.190818667411804199
0.317581921815872192 0.00753199309110641479 -0.27682805061340332
-0.315396100282669067 -0.29218524694442749 0.116632573306560516
0.310039043426513672 -0.226737082004547119 -0.345185607671737671
0.157132208347320557 -0.297029465436935425 -0.127819687128067017
0.262478858232498169 -0.160510465502738953 0.175333455204963684
0.323853969573974609 -0.0365189313888549805 0.0132585708051919937
-0.318902254104614258 -0.231660217046737671 0.153811454772949219
0.329293429851531982 -0.193890035152435303 -0.310478180646896362
-0.213373497128486633 0.205241501331329346 0.202022373676300049
-0.365177720785140991 -0.00319894403219223022 0.390514075756072998
0.299456894397735596 0.010737154632806778 0.107594773173332214
-0.403788089752197266 0.205507203936576843 0.368497669696807861
0.322842419147491455 -0.0702596902847290039 -0.247378811240196228
0.0859119594097137451 0.140498846769332886 0.241625070571899414
-0.391441464424133301 -0.26168978214263916 0.14285433292388916
-0.348066806793212891 0.125249788165092468 0.184476286172866821
0.176010280847549438 0.0450777113437652588 0.201814904808998108
0.366158813238143921 0.0340185798704624176 -0.0940568894147872925
-0.437998831272125244 0.226224973797798157 0.395222991704940796
0.00694492459297180176 -0.00563544034957885742 0.108126156032085419
-0.343177646398544312 0.02777896448969841 0.15400242805480957
-0.354626595973968506 -0.143374860286712646 0.181691288948059082
0.3445567786693573 -0.131291866302490234 -0.297318428754806519
-0.316960781812667847 0.225467875599861145 0.379193335771560669
-0.345031172037124634 0.156591817736625671 0.160735711455345154
0.25748676061630249 -0.311083197593688965 -0.164677053689956665
-0.407581597566604614 -0.0642366409301757812 0.298443108797073364
-0.277729898691177368 0.300425291061401367 0.288185387849807739
0.351914435625076294 -0.0716483443975448608 -0.285545229911804199
-0.139429420232772827 -0.346902370452880859 0.103760972619056702
0.364690005779266357 0.233014926314353943 -0.223050415515899658
0.271284937858581543 -0.123297713696956635 0.230072379112243652
0.197975084185600281 -0.256115138530731201 0.0393234714865684509
-0.235615342855453491 0.107332006096839905 0.343416661024093628
-0.104197680950164795 -0.196829408407211304 0.0783311128616333008
0.233697295188903809 -0.233805954456329346 -0.337315261363983154
-0.322902441024780273 0.149851188063621521 0.140050977468490601
-0.326676726341247559 0.0167669802904129028 0.191741853952407837
0.342556565999984741 -0.162239864468574524 -0.278642833232879639
0.333569258451461792 -0.215539619326591492 -0.330402135848999023
0.218412280082702637 -0.277256995439529419 -0.0452796630561351776
0.288598001003265381 -0.0114578213542699814 -0.070952191948890686
0.0693612396717071533 -0.283361554145812988 -0.0403914004564285278
-0.311796009540557861 -0.0706609487533569336 0.427586019039154053
0.140610143542289734 -0.134235411882400513 0.23952096700668335
0.321067005395889282 -0.017095569521188736 -0.215640932321548462
0.0409513860940933228 0.0339136421680450439 0.0456775762140750885
-0.335142850875854492 -0.267909049987792969 0.145913064479827881
-0.0688783377408981323 -0.267523854970932007 0.145131170749664307
-0.372045159339904785 0.154248282313346863 0.454750865697860718
-0.324318110942840576 -0.717031955718994141 0.10152454674243927
-0.363230496644973755 -0.188745707273483276 0.162098288536071777
-0.374708473682403564 0.125757873058319092 0.372235894203186035
0.327575623989105225 -0.208229824900627136 -0.306017041206359863
-0.329286187887191772 0.250054657459259033 0.340760201215744019
-0.192791521549224854 -0.0882049202919006348 0.157242462038993835
-0.276341617107391357 -0.213140964508056641 0.200212091207504272
0.349209010601043701 -0.0350825190544128418 -0.223567917943000793
0.242182105779647827 -0.286416679620742798 -0.199419587850570679
0.0812336504459381104 -0.205932497978210449 0.0317048653960227966
-0.322930455207824707 0.197820872068405151 0.157833382487297058
-0.400921911001205444 0.280025094747543335 0.347130537033081055
-0.204393252730369568 -0.416632235050201416 0.151465862989425659
-0.352739989757537842 -0.212864398956298828 0.172912925481796265
-0.32866474986076355 -0.221984639763832092 0.190464377403259277
-0.361600816249847412 0.0541914850473403931 0.366162240505218506
0.260834217071533203 -0.137522101402282715 0.0469876453280448914
0.0175029486417770386 0.389369875192642212 0.236044824123382568
0.23036503791809082 -0.132007569074630737 0.193003192543983459
0.1922883540391922 -0.130713373422622681 -0.109121546149253845
-0.284029573202133179 -0.299005627632141113 0.0824700444936752319
-0.29928278923034668 -0.0013329898938536644 0.154318332672119141
0.359447002410888672 -0.0995893329381942749 -0.245628207921981812
0.2858123779296875 -0.243299171328544617 -0.272376328706741333
-0.439805746078491211 0.138822644948959351 0.256711781024932861
0.290667235851287842 0.0325570181012153625 -0.0532183274626731873
-0.346842199563980103 0.146890178322792053 0.363594770431518555
0.122071072459220886 0.0909606814384460449 -0.00506972894072532654
-0.392075002193450928 -0.139094680547714233 0.184329777956008911
-0.39615553617477417 0.132956281304359436 0.377922296524047852
0.277880102396011353 -0.266540348529815674 -0.35380089282989502
0.326980650424957275 -0.122523978352546692 -0.268801718950271606
-0.223534271121025085 -0.358065754175186157 0.0566511452198028564
-0.331413090229034424 0.210197970271110535 0.406361937522888184
0.334826827049255371 0.000865182839334011078 -0.277477473020553589
-0.386701762676239014 -0.110469631850719452 0.184487283229827881
0.276236951351165771 0.214490443468093872 -0.149777352809906006
0.335914403200149536 -0.107750751078128815 -0.307331621646881104
0.313106894493103027 0.00394493341445922852 -0.216862380504608154
-0.287205994129180908 -0.315170496702194214 0.111862510442733765
-0.409254670143127441 -0.0836037918925285339 0.238822221755981445
-0.134379118680953979 -0.284357249736785889 0.0585272349417209625
0.252159982919692993 0.316269993782043457 -0.133025884628295898
-0.366382956504821777 -0.00795911811292171478 0.230991408228874207
-0.276221334934234619 0.290828138589859009 0.25886005163192749
-0.260884642601013184 -0.254159718751907349 0.0889525115489959717
-0.198400303721427917 -0.284086465835571289 0.0460855141282081604
0.26229703426361084 -0.294301658868789673 -0.306243211030960083
-0.323332130908966064 -0.252326846122741699 0.15518420934677124
-0.309176087379455566 -0.298857361078262329 0.0610541924834251404
-0.0887791812419891357 0.357345163822174072 0.249669685959815979
0.27483716607093811 0.0684188306331634521 -0.0229873452335596085
0.344039946794509888 0.0934667587280273438 -0.265807628631591797
0.320151031017303467 -0.188588157296180725 -0.282946616411209106
-0.358511894941329956 -0.0700802505016326904 0.383868008852005005
0.282294899225234985 -0.261358797550201416 -0.339716255664825439
0.329898864030838013 -0.216066122055053711 -0.318070322275161743
-0.292739212512969971 -0.170670583844184875 0.135415390133857727
0.356094956398010254 -0.114604391157627106 -0.273495405912399292
0.270923346281051636 -0.293276369571685791 -0.343769073486328125
0.261011302471160889 0.179960459470748901 -0.170904695987701416
0.345057129859924316 -0.0806590914726257324 -0.28202211856842041
-0.221150636672973633 0.293570995330810547 0.306148707866668701
-0.225307255983352661 0.346966862678527832 0.273979455232620239
0.306622147560119629 -0.250844001770019531 -0.256061822175979614
0.236581966280937195 -0.256537318229675293 -0.337837934494018555
0.328967511653900146 -0.215245410799980164 -0.330815911293029785
0.33937188982963562 -0.173516988754272461 -0.313570529222488403
0.312546432018280029 -0.059683721512556076 -0.215476423501968384
0.309317708015441895 -0.210430324077606201 -0.32168281078338623
0.091881677508354187 -0.27190244197845459 0.00370841845870018005
0.322519004344940186 -0.0410808771848678589 -0.132438644766807556
-0.295828372240066528 -0.134442716836929321 0.134192228317260742
0.297599107027053833 -0.244570940732955933 -0.296977341175079346
-0.327294021844863892 -0.232040867209434509 0.122072510421276093
0.2243012934923172 -0.190754175186157227 -0.2221221923828125
0.364050745964050293 0.16429997980594635 -0.215121686458587646
-0.0454231128096580505 -0.23926842212677002 0.0310460887849330902
-0.169089227914810181 0.300601422786712646 0.270532727241516113
0.0653380155563354492 -0.0283641517162322998 -0.0196856595575809479
0.155099153518676758 -0.226450026035308838 -0.163076668977737427
0.313819468021392822 -0.0731332004070281982 -0.0513233020901679993
-0.415060669183731079 -0.243118822574615479 0.351599395275115967
-0.36723974347114563 -0.111357927322387695 0.178249344229698181
-0.325218379497528076 0.181126505136489868 0.388083577156066895
0.255320370197296143 0.165773093700408936 -0.102746196091175079
-0.299411296844482422 -0.289659440517425537 0.113396033644676208
0.290953308343887329 -0.105660192668437958 -0.129493474960327148
-0.271310359239578247 0.277927696704864502 0.233201950788497925
0.114745654165744781 -0.262567698955535889 0.21114504337310791
0.266128063201904297 0.204462394118309021 -0.171313479542732239
0.128516599535942078 0.180948615074157715 0.191522389650344849
0.281428933143615723 -0.117634207010269165 0.218721896409988403
0.267259001731872559 0.180307939648628235 -0.101618163287639618
0.0870038419961929321 0.00818032026290893555 0.032899610698223114
0.0190448909997940063 0.149388670921325684 0.327351570129394531
0.351602673530578613 -0.0168008171021938324 -0.279661118984222412
0.115361645817756653 0.0330750048160552979 0.300583600997924805
0.351466655731201172 0.0927048772573471069 -0.117160528898239136
0.198817938566207886 -0.208271265029907227 -0.0112273730337619781
0.291353285312652588 -0.122755900025367737 -0.0884948745369911194
0.242758199572563171 -0.292506873607635498 -0.214076057076454163
-0.311832606792449951 -0.222227931022644043 0.120596066117286682
0.145325824618339539 -0.295829415321350098 -0.126764431595802307
0.355206906795501709 0.257061630487442017 -0.228017240762710571
-0.367893576622009277 -0.096622273325920105 0.353818625211715698
0.243883445858955383 -0.0900090336799621582 0.0605785995721817017
-0.346345365047454834 -0.274371832609176636 0.128101825714111328
-0.243893653154373169 0.274263560771942139 0.284046977758407593
0.321221351623535156 -0.0416243821382522583 0.0709564164280891418
-0.000492133200168609619 0.400753408670425415 0.218459129333496094
-0.163406997919082642 -0.336115062236785889 0.0751554518938064575
0.0580745041370391846 -0.218079984188079834 0.0829745009541511536
0.320739030838012695 0.00462704524397850037 -0.269150495529174805
0.136170923709869385 0.0662930607795715332 0.320875585079193115
0.0670933276414871216 0.140220358967781067 0.106990888714790344
0.243668973445892334 -0.143840283155441284 -0.0248622670769691467
0.274643033742904663 -0.0429774075746536255 -0.12142924964427948
-0.304548859596252441 -0.228505775332450867 0.336143672466278076
0.0520484745502471924 -0.188179075717926025 0.197512418031692505
-0.421317398548126221 -0.0329938121140003204 0.253621518611907959
-0.352259188890457153 0.14928688108921051 0.359085381031036377
0.257924765348434448 -0.129082709550857544 -0.274377286434173584
0.390828192234039307 0.140540659427642822 -0.215042293071746826
0.337210595607757568 -0.016589045524597168 -0.232655495405197144
0.271536409854888916 -0.267278760671615601 -0.308076620101928711
0.257033079862594604 -0.216678917407989502 -0.123238198459148407
-0.305354118347167969 0.176092252135276794 0.357217490673065186
0.354054003953933716 0.221840828657150269 -0.203988194465637207
0.260308384895324707 0.0536762773990631104 0.030208982527256012
-0.362934768199920654 -0.219782322645187378 0.157996714115142822
-0.335176348686218262 -0.119975760579109192 0.120629474520683289
0.309395492076873779 -0.073491901159286499 0.0441755503416061401
0.297501266002655029 -0.259943604469299316 -0.350047916173934937
-0.0365259945392608643 -0.0654197037220001221 0.295371323823928833
0.171201243996620178 -0.12396809458732605 0.237073138356208801
-0.35538211464881897 -0.230691462755203247 0.0956424027681350708
-0.161275327205657959 0.308576136827468872 0.209379225969314575
