ply
format ascii 1.0
element vertex 741
property float x
property float y
property float z
end_header
0.627906203269958496 0.00619031861424446106 -0.0591275952756404877
0.515980243682861328 0.418456912040710449 0.0873900800943374634
0.64390265941619873 0.115000441670417786 -0.0534060634672641754
-0.0735947415232658386 0.603846192359924316 0.315026700496673584
-0.630338072776794434 -0.0723931938409805298 -0.0686548948287963867
0.409480094909667969 -0.46859818696975708 -0.0559680275619029999
-0.378960162401199341 -0.345536857843399048 -0.185340270400047302
0.570770204067230225 -0.127952277660369873 -0.116877727210521698
-0.601761341094970703 -0.254807919263839722 -0.111115992069244385
0.580353617668151855 -0.293498039245605469 -0.0095262620598077774
0.587440252304077148 0.055428091436624527 0.223184183239936829
0.150105193257331848 0.508472979068756104 0.29603809118270874
0.65961986780166626 0.0250651612877845764 -0.0110655408352613449
-0.503815054893493652 -0.438148081302642822 0.0921162962913513184
-0.668431520462036133 0.0988977178931236267 0.0524241477251052856
-0.659048318862915039 -0.331346452236175537 0.12793324887752533
0.569093465805053711 -0.438334524631500244 -0.290678977966308594
0.646659493446350098 0.119939610362052917 -0.144990861415863037
0.695314586162567139 0.109456926584243774 -0.221693962812423706
0.650550961494445801 -0.222037047147750854 -0.180335745215415955
0.612970411777496338 -0.202996999025344849 0.110920093953609467
0.203208804130554199 0.542402029037475586 0.0179762393236160278
0.168282270431518555 0.518788576126098633 0.0525783784687519073
-0.401550769805908203 -0.455494582653045654 0.118699595332145691
0.510695695877075195 0.457027167081832886 0.0914272069931030273
0.222661152482032776 0.495983630418777466 0.215937227010726929
-0.654714345932006836 0.0502262860536575317 0.146607622504234314
-0.523831188678741455 -0.427843958139419556 0.0882402956485748291
-0.471565186977386475 0.439239591360092163 0.00145582854747772217
0.688916563987731934 0.0826212018728256226 -0.00228730868548154831
-0.626923918724060059 0.0476521030068397522 -0.059673599898815155
-0.671379446983337402 -0.0363882854580879211 0.055529370903968811
-0.579701662063598633 0.242791935801506042 -0.0320039093494415283
0.234018117189407349 -0.528551101684570312 -0.166755139827728271
0.619403243064880371 -0.246034979820251465 -0.118894204497337341
0.612853527069091797 -0.131150722503662109 0.109358459711074829
-0.598383247852325439 0.246368110179901123 0.031063079833984375
0.546637058258056641 0.0321214571595191956 0.176663666963577271
-0.671035468578338623 -0.114737249910831451 0.197013676166534424
-0.350143730640411377 -0.497459471225738525 -0.111679375171661377
-0.251781493425369263 -0.537025809288024902 -0.178797259926795959
-0.643191754817962646 0.233659312129020691 0.21473461389541626
-0.676736712455749512 0.0783971473574638367 0.116527169942855835
0.677863717079162598 -0.124646320939064026 -0.273209750652313232
0.147334441542625427 0.478150069713592529 0.122539132833480835
0.617675304412841797 -0.151386365294456482 0.148759856820106506
-0.638703465461730957 0.151143878698348999 0.232547566294670105
-0.660979330539703369 0.156998082995414734 0.198055833578109741
-0.604711294174194336 -0.413092851638793945 -0.116823680698871613
-0.636096835136413574 -0.390116035938262939 -0.189524069428443909
-0.330279529094696045 -0.47240602970123291 0.111492738127708435
-0.631722033023834229 -0.128115713596343994 0.148729771375656128
-0.138525128364562988 0.510615110397338867 0.314342886209487915
-0.652537345886230469 0.124397829174995422 0.212979167699813843
0.65258944034576416 0.256902545690536499 0.0353833585977554321
0.652017354965209961 0.0969323068857192993 0.130961954593658447
0.371122270822525024 0.470560908317565918 0.217558026313781738
0.630844473838806152 0.216828241944313049 0.00975500419735908508
0.198222562670707703 0.517901420593261719 0.295164167881011963
-0.564851641654968262 -0.290967702865600586 -0.128958523273468018
-0.687518537044525146 -0.0140217356383800507 0.181639701128005981
0.502393841743469238 -0.439978659152984619 -0.0201081447303295135
0.58481597900390625 -0.190048128366470337 -0.101988419890403748
-0.609141051769256592 0.0744502544403076172 -0.0337247252464294434
-0.667814791202545166 -0.125042960047721863 -0.0826888382434844971
0.112498663365840912 0.559883236885070801 0.34207618236541748
0.434045761823654175 0.0399201363325119019 0.254490762948989868
-0.548855423927307129 -0.000582527369260787964 -0.0965941250324249268
0.695127964019775391 0.353627055883407593 -0.170689418911933899
0.127947151660919189 0.503905594348907471 0.302765876054763794
-0.519807159900665283 -0.438400387763977051 0.127554148435592651
0.516146421432495117 0.450835227966308594 -0.0718482658267021179
-0.698595881462097168 0.16578298807144165 0.0595305711030960083
-0.584201335906982422 -0.329388588666915894 0.187371969223022461
0.580608069896697998 -0.299570769071578979 -0.18860529363155365
0.54455411434173584 -0.441654503345489502 -0.281759172677993774
-0.309393554925918579 -0.462488681077957153 -0.189084991812705994
0.687621772289276123 0.145216062664985657 -0.200017422437667847
0.484131902456283569 0.45440906286239624 0.167899191379547119
0.646416306495666504 -0.257906436920166016 -0.185965746641159058
0.646697402000427246 -0.118318542838096619 -0.0266474261879920959
0.665089130401611328 -0.191826686263084412 -0.142792493104934692
0.218647658824920654 0.512969076633453369 0.280447512865066528
0.430025398731231689 -0.454085886478424072 -0.243224412202835083
0.377322554588317871 0.438373923301696777 0.224427670240402222
-0.619461774826049805 0.261114984750747681 0.250719785690307617
0.484289020299911499 -0.413611292839050293 -0.0145201049745082855
-0.452834844589233398 0.242466703057289124 -0.0536596626043319702
0.608695030212402344 0.0332359671592712402 0.0573707520961761475
-0.628384113311767578 0.184834524989128113 -0.0744505599141120911
-0.553338587284088135 0.35851442813873291 0.202358126640319824
-0.65096592903137207 -0.128978461027145386 0.0592329651117324829
-0.475253552198410034 -0.373970836400985718 -0.127255797386169434
0.664005458354949951 -0.0173046700656414032 -0.25833284854888916
0.64663243293762207 -0.118264257907867432 0.0426276624202728271
-0.725345075130462646 0.333805292844772339 0.258057922124862671
0.258390754461288452 0.367159724235534668 0.368500649929046631
-0.499620497226715088 -0.268096178770065308 -0.168140679597854614
-0.517976760864257812 -0.0702440515160560608 -0.0821825787425041199
0.556422173976898193 -0.426964402198791504 -0.196915268898010254
-0.603992879390716553 0.257575631141662598 0.249816566705703735
0.619083106517791748 -0.0983455479145050049 -0.101775355637073517
0.440982699394226074 -0.478668719530105591 0.195078134536743164
-0.478191494941711426 -0.269065260887145996 -0.173076987266540527
-0.0851311385631561279 0.580466568470001221 0.318854063749313354
-0.623109161853790283 0.0529921427369117737 0.24161827564239502
0.489418327808380127 0.25520169734954834 0.234748095273971558
-0.662852644920349121 0.356307804584503174 0.286098331212997437
0.663240730762481689 -0.178194284439086914 -0.0707504004240036011
0.666471004486083984 -0.123387366533279419 -0.258624404668807983
0.429648071527481079 0.0756525695323944092 0.216458588838577271
-0.689271390438079834 0.386080324649810791 0.266814440488815308
0.499444544315338135 0.484062790870666504 -0.0361241921782493591
-0.564742028713226318 -0.304163157939910889 0.214739531278610229
0.558445632457733154 -0.388591945171356201 -0.232809379696846008
0.616507470607757568 0.228969976305961609 -0.00899720191955566406
0.222643136978149414 0.527022421360015869 0.359944343566894531
-0.635200321674346924 0.127497598528862 0.0610395520925521851
0.514202415943145752 0.211260184645652771 0.246694266796112061
-0.0228340979665517807 0.548678040504455566 0.332858532667160034
0.542119026184082031 0.168223962187767029 0.231008931994438171
0.199158966541290283 0.453065186738967896 0.266306370496749878
-0.572227716445922852 -0.394984245300292969 -0.0461906641721725464
0.431698352098464966 0.553325176239013672 0.0316662713885307312
-0.454739242792129517 -0.474629670381546021 -0.134094119071960449
0.362573772668838501 0.176283895969390869 0.0425154939293861389
0.486990422010421753 0.419686049222946167 0.246565252542495728
0.249671503901481628 0.48634415864944458 0.0431921482086181641
0.373961687088012695 0.452743649482727051 0.00590123608708381653
0.618996322154998779 -0.186307847499847412 0.221485450863838196
-0.641189992427825928 0.240087002515792847 0.242013901472091675
-0.614255189895629883 0.205113410949707031 -0.0197677761316299438
-0.642635226249694824 0.155267655849456787 0.277994811534881592
0.669728577136993408 0.153529897332191467 -0.101101934909820557
0.371557444334030151 0.406069517135620117 0.26799464225769043
-0.536239206790924072 0.0148002505302429199 0.274690240621566772
0.570607304573059082 -0.365002989768981934 -0.19558224081993103
0.517502963542938232 0.338560402393341064 0.22118803858757019
0.288481980562210083 0.415031969547271729 0.342545211315155029
-0.491732805967330933 -0.332057446241378784 -0.154809832572937012
0.596889913082122803 -0.150685802102088928 -0.248393744230270386
0.328922390937805176 -0.00538844428956508636 0.231720060110092163
-0.693021774291992188 0.440669804811477661 0.246092021465301514
0.60678863525390625 -0.126088261604309082 0.192090228199958801
0.623165130615234375 -0.181282132863998413 -0.108227387070655823
-0.506774961948394775 -0.407272428274154663 0.143828511238098145
0.625045537948608398 -0.270742714405059814 0.102771297097206116
0.662959575653076172 -0.181517079472541809 -0.262707769870758057
0.636431574821472168 -0.304859131574630737 -0.272366732358932495
-0.502177715301513672 0.374652683734893799 0.110775366425514221
0.628357946872711182 0.0975268036127090454 0.0990406051278114319
0.642764687538146973 -0.13031284511089325 -0.174397304654121399
0.602104067802429199 -0.250187546014785767 0.107480771839618683
0.555423378944396973 -0.199839562177658081 0.0648552626371383667
0.560408473014831543 -0.294172763824462891 0.137393951416015625
0.667383015155792236 -0.308203816413879395 -0.243227064609527588
0.582102119922637939 -0.406742751598358154 -0.314338952302932739
0.656663656234741211 -0.287171363830566406 -0.289142966270446777
0.60011756420135498 0.369201004505157471 -0.000668563181534409523
0.53121650218963623 0.396659255027770996 0.0199483782052993774
0.571330785751342773 -0.39725068211555481 -0.187766313552856445
-0.486884474754333496 -0.378705799579620361 -0.170171260833740234
0.559911251068115234 0.278639465570449829 0.234181106090545654
-0.621364712715148926 -0.261644959449768066 -0.192493021488189697
-0.170826315879821777 0.600902378559112549 0.303289175033569336
0.638323605060577393 -0.271261632442474365 -0.199442550539970398
0.640455067157745361 -0.178600087761878967 -0.172100961208343506
0.171443939208984375 0.534721493721008301 0.0120939388871192932
-0.670925796031951904 -0.109354786574840546 -0.00547939538955688477
0.602603912353515625 -0.278908759355545044 0.123992592096328735
0.545321047306060791 0.208899021148681641 0.117981880903244019
-0.704774141311645508 0.282918393611907959 0.109592556953430176
0.66178584098815918 -0.054449915885925293 -0.118310049176216125
-0.403641670942306519 0.509355843067169189 0.0597823262214660645
-0.505621194839477539 -0.403059393167495728 -0.112678639590740204
0.507278680801391602 -0.396302580833435059 0.110355183482170105
0.63514554500579834 -0.339856356382369995 -0.298321127891540527
0.566489696502685547 -0.144652903079986572 0.178416624665260315
0.551256895065307617 0.387379348278045654 0.121559441089630127
-0.511715412139892578 0.464931488037109375 0.245886564254760742
-0.595772802829742432 0.46614837646484375 0.166295126080513
0.681589841842651367 0.00425776094198226929 -0.102267280220985413
-0.701577067375183105 0.396951436996459961 0.24178740382194519
-0.621475696563720703 -0.193192422389984131 -0.061306387186050415
0.589384794235229492 0.296034395694732666 -0.0525375157594680786
-0.69293445348739624 0.387861520051956177 0.140837699174880981
-0.492316246032714844 -0.390065878629684448 -0.235718667507171631
0.5893440842628479 -0.441933810710906982 -0.284038931131362915
-0.675353169441223145 -0.0595093630254268646 -0.0641721338033676147
-0.491232156753540039 -0.441713124513626099 -0.167513623833656311
-0.701806008815765381 0.117013469338417053 -0.0314498394727706909
0.61330258846282959 -0.0708643123507499695 0.189781457185745239
0.653224945068359375 -0.130101412534713745 -0.121022686362266541
0.6467551589012146 -0.416254132986068726 -0.262621313333511353
-0.15901319682598114 -0.536233305931091309 -0.0653761550784111023
-0.651185870170593262 0.300162434577941895 0.263003110885620117
0.61016237735748291 0.23081052303314209 0.165721967816352844
-0.57441025972366333 0.203792750835418701 -0.0833622962236404419
0.0525431856513023376 0.566343486309051514 0.336312472820281982
-0.492291271686553955 -0.355232387781143188 -0.147835701704025269
-0.650090157985687256 -0.406464308500289917 0.0846929550170898438
-0.676857829093933105 -0.0794502422213554382 0.198159113526344299
0.633446812629699707 -0.287237346172332764 -0.23648679256439209
0.572706878185272217 0.0515263527631759644 0.0282289572060108185
-0.554310321807861328 0.24717065691947937 0.0173470079898834229
0.54022669792175293 -0.385313749313354492 0.15158824622631073
-0.579680979251861572 -0.430282294750213623 0.0398701727390289307
0.645929336547851562 -0.163402676582336426 -0.231712222099304199
-0.717194080352783203 0.363044261932373047 0.254582345485687256
0.607523202896118164 0.270187079906463623 -0.071177065372467041
-0.633532166481018066 -0.105560466647148132 -0.0454824119806289673
0.602359175682067871 -0.438966840505599976 -0.275569021701812744
0.00501450151205062866 0.465340554714202881 0.322140693664550781
0.684379041194915771 -0.0821417719125747681 -0.249853521585464478
0.619380354881286621 -0.122642733156681061 0.205999955534934998
0.651647746562957764 -0.136269658803939819 -0.105977818369865417
-0.703383803367614746 0.0811662524938583374 -0.0282720327377319336
0.529470443725585938 0.108193576335906982 0.245059385895729065
0.674021780490875244 -0.333655208349227905 -0.238414019346237183
-0.69999539852142334 0.158202111721038818 0.031058773398399353
0.371967017650604248 -0.523920178413391113 -0.196333140134811401
-0.664421796798706055 0.293124079704284668 0.259004175662994385
0.634495854377746582 0.183138862252235413 -0.0139228049665689468
0.629778921604156494 0.118314057588577271 0.131763637065887451
-0.67689824104309082 0.28134840726852417 0.209804952144622803
0.675141632556915283 -0.26928749680519104 -0.264754831790924072
-0.0717295557260513306 0.555431783199310303 0.320955902338027954
-0.69250798225402832 -0.00524305552244186401 0.121498778462409973
0.492345839738845825 0.409245848655700684 0.127765268087387085
-0.716935336589813232 0.370288491249084473 0.274759620428085327
0.65105736255645752 -0.0991011112928390503 -0.245133578777313232
0.469019830226898193 -0.489718914031982422 -0.190935671329498291
-0.505995333194732666 0.469576895236968994 0.283851265907287598
0.623254358768463135 -0.390971273183822632 -0.287055015563964844
-0.661468982696533203 0.17429468035697937 0.209229975938796997
-0.682918727397918701 -0.0269553922116756439 0.112296581268310547
0.641051411628723145 -0.424989819526672363 -0.277227282524108887
0.578805744647979736 0.109062433242797852 0.21346794068813324
-0.658910691738128662 0.335614979267120361 0.197092428803443909
-0.682892143726348877 -0.0444755256175994873 0.165121316909790039
0.642726540565490723 0.219909355044364929 0.0327783860266208649
-0.552262723445892334 -0.315962493419647217 -0.1689910888671875
-0.688795924186706543 0.234581068158149719 0.266659975051879883
-0.382557719945907593 -0.400666296482086182 0.111046195030212402
0.575147390365600586 -0.296373575925827026 -0.0524108819663524628
0.502029597759246826 -0.00765518099069595337 0.225862294435501099
0.588822424411773682 -0.331834763288497925 -0.319132208824157715
0.154515504837036133 0.550441622734069824 0.351942062377929688
-0.283990204334259033 0.446052342653274536 0.315509259700775146
-0.683613955974578857 0.147363930940628052 0.237837910652160645
0.626503586769104004 0.0781262218952178955 0.166043177247047424
-0.634103477001190186 0.172919988632202148 0.0962900519371032715
-0.674956262111663818 -0.0583746060729026794 -0.0594597607851028442
-0.618883907794952393 0.242784425616264343 0.265812575817108154
-0.659825384616851807 0.387175470590591431 0.252884000539779663
0.506656527519226074 0.44251406192779541 0.0988566279411315918
0.32767254114151001 0.43213653564453125 0.339756399393081665
-0.518334686756134033 0.403412103652954102 0.0945709943771362305
-0.640107095241546631 0.022389490157365799 -0.125525951385498047
-0.707132101058959961 0.133368700742721558 0.0560842454433441162
0.388012826442718506 -0.540910959243774414 -0.205477356910705566
0.636857867240905762 -0.300245791673660278 -0.28726351261138916
-0.715218544006347656 -0.0519671589136123657 0.356316924095153809
0.361302316188812256 -0.486847519874572754 -0.229200571775436401
-0.646484136581420898 -0.143901199102401733 0.000718608498573303223
0.316477447748184204 0.466625779867172241 0.34610295295715332
-0.678275585174560547 0.382325947284698486 0.282975971698760986
-0.555685758590698242 -0.200837314128875732 -0.156007885932922363
0.49383622407913208 0.478600233793258667 0.014779992401599884
0.63933861255645752 -0.179557070136070251 -0.258897155523300171
0.151529788970947266 0.564697206020355225 0.0379013717174530029
0.24605521559715271 0.45187300443649292 0.234076857566833496
-0.62805861234664917 -0.28375011682510376 -0.129717275500297546
-0.56972038745880127 -0.305775940418243408 -0.246003985404968262
0.593547582626342773 0.382195919752120972 0.0733259990811347961
-0.654740512371063232 -0.348362326622009277 -0.172581195831298828
0.500726640224456787 0.470436811447143555 -0.0272885188460350037
0.579971075057983398 0.215013176202774048 0.232045948505401611
-0.647717416286468506 -0.121922507882118225 -0.12901642918586731
-0.537352144718170166 -0.390177726745605469 -0.10180828720331192
0.346455961465835571 0.424190789461135864 0.0567385740578174591
0.0738256573677062988 0.459541290998458862 0.356934219598770142
-0.635339438915252686 0.119683928787708282 0.22451801598072052
0.630416631698608398 -0.328032046556472778 -0.26428648829460144
-0.595046818256378174 0.0519650541245937347 0.272809803485870361
0.344583749771118164 0.523227572441101074 0.0110398884862661362
-0.300583988428115845 0.517918825149536133 0.297881245613098145
-0.483776450157165527 -0.377148330211639404 -0.197479933500289917
-0.659872472286224365 -0.0892798900604248047 -0.00814609229564666748
-0.647893607616424561 -0.20032954216003418 -0.106759153306484222
-0.442571848630905151 -0.452600628137588501 -0.179857209324836731
-0.702843785285949707 0.272180140018463135 0.114892870187759399
-0.376794159412384033 0.517879903316497803 0.111829489469528198
-0.49365156888961792 -0.36898919939994812 -0.14067840576171875
-0.674984335899353027 -0.356018781661987305 -0.126645192503929138
0.671103715896606445 0.000940377824008464813 -0.148075342178344727
0.631415605545043945 -0.295562505722045898 -0.291603207588195801
-0.607691287994384766 0.268525987863540649 0.0128256380558013916
-0.373214483261108398 -0.456637322902679443 -0.18581506609916687
0.667705059051513672 -0.0477534383535385132 -0.237471789121627808
-0.682357192039489746 0.0856529772281646729 -0.000635027885437011719
0.63062673807144165 0.0627297982573509216 -0.137996375560760498
0.67201530933380127 0.180903360247612 0.00149037688970565796
-0.557033181190490723 -0.372598022222518921 -0.0326980650424957275
0.516141653060913086 0.39288938045501709 0.0421734973788261414
-0.332044482231140137 0.494455337524414062 0.10892176628112793
0.58918994665145874 -0.448506444692611694 -0.275284409523010254
0.598841309547424316 -0.253990769386291504 0.0516571067273616791
-0.499054223299026489 -0.409262388944625854 0.142068400979042053
-0.473192960023880005 0.4707832932472229 0.174032688140869141
0.708740472793579102 0.114364683628082275 -0.208690792322158813
0.691536307334899902 -0.120273515582084656 -0.263766318559646606
-0.663148045539855957 0.237836197018623352 0.163322582840919495
0.356948345899581909 0.473181456327438354 0.217777028679847717
-0.671267688274383545 0.0633805468678474426 0.152749836444854736
-0.614661693572998047 0.208742722868919373 -0.006139412522315979
-0.337633430957794189 -0.481278598308563232 -0.156761392951011658
-0.51318967342376709 0.0546865426003932953 -0.0789622589945793152
-0.687668442726135254 0.271440446376800537 0.258545100688934326
-0.693314731121063232 0.145301073789596558 0.176575049757957458
-0.469483613967895508 -0.468646019697189331 -0.0591239333152770996
0.519560337066650391 0.445309370756149292 0.135086745023727417
-0.640624642372131348 0.000242378562688827515 0.239353597164154053
-0.63749617338180542 0.158204168081283569 0.236811801791191101
-0.690475404262542725 -0.0853145122528076172 0.202361583709716797
0.465538442134857178 0.281606495380401611 0.236537829041481018
0.69181370735168457 0.394812554121017456 -0.140957623720169067
-0.644781708717346191 -0.36941102147102356 -0.198836237192153931
0.465683311223983765 0.338499993085861206 0.304645299911499023
0.403864204883575439 0.472402989864349365 0.165349066257476807
0.613736271858215332 0.0273438431322574615 0.173094317317008972
0.614255785942077637 0.144745618104934692 0.0997849181294441223
-0.536133229732513428 0.448157012462615967 0.0814587622880935669
-0.501795649528503418 -0.348351567983627319 -0.165738895535469055
0.610802888870239258 -0.147837147116661072 0.204171478748321533
0.365117728710174561 -0.498112916946411133 0.0167287364602088928
0.142496734857559204 0.428704440593719482 0.0555239543318748474
0.598628342151641846 -0.207609459757804871 0.0377378761768341064
0.630590677261352539 0.0362924784421920776 -0.003031938336789608
0.514072656631469727 0.343154311180114746 0.207705140113830566
0.719832539558410645 0.0502474792301654816 -0.173257291316986084
-0.193559944629669189 0.550209701061248779 0.319485664367675781
0.40755009651184082 0.410718262195587158 0.209860578179359436
0.675008416175842285 -0.0929018557071685791 -0.17238888144493103
0.632221460342407227 -0.189452409744262695 -0.220326691865921021
-0.688274979591369629 0.156075969338417053 0.0533508807420730591
0.310799837112426758 0.430134356021881104 0.272942662239074707
-0.202235192060470581 0.515283405780792236 0.0355912297964096069
0.160057142376899719 0.463200688362121582 0.0620052628219127655
0.621039688587188721 -0.0912151932716369629 0.133021548390388489
0.583670973777770996 0.412393331527709961 0.147462785243988037
0.535996735095977783 -0.412120044231414795 -0.168156087398529053
0.678645789623260498 -0.18882305920124054 -0.120045386254787445
0.494232028722763062 0.402235060930252075 0.0549808777868747711
0.605590462684631348 -0.139201387763023376 0.0990623161196708679
-0.63385772705078125 -0.227950841188430786 0.220138639211654663
-0.532109975814819336 0.436029106378555298 0.155940458178520203
0.716074943542480469 0.0743319317698478699 -0.151623040437698364
0.669039726257324219 -0.0477723218500614166 -0.267233431339263916
-0.675291776657104492 0.21449810266494751 0.166561543941497803
0.296680629253387451 0.438472509384155273 0.149544119834899902
-0.50588536262512207 0.451265484094619751 0.199425816535949707
0.573069632053375244 0.449280798435211182 -0.0527813434600830078
-0.389152437448501587 -0.461806893348693848 -0.165156260132789612
0.593063473701477051 0.0143004190176725388 -0.0064430898055434227
0.529609322547912598 0.256907761096954346 0.0627382472157478333
-0.706611990928649902 0.21136772632598877 0.115977883338928223
-0.466196596622467041 -0.424054563045501709 -0.0210243463516235352
-0.53112107515335083 0.319256484508514404 -0.0277993977069854736
-0.57120978832244873 -0.169739812612533569 -0.129750072956085205
-0.591111898422241211 0.218325793743133545 0.00930160284042358398
-0.663492262363433838 -0.128248780965805054 -0.0272480025887489319
-0.407048463821411133 -0.483234286308288574 -0.137534499168395996
0.549776732921600342 -0.322940707206726074 0.171891748905181885
0.239005774259567261 0.447320044040679932 0.00545941106975078583
-0.47227776050567627 -0.424194574356079102 -0.0376311987638473511
-0.703649520874023438 -0.0467654392123222351 0.074390903115272522
0.689300060272216797 0.079898439347743988 -0.0526846945285797119
0.707702517509460449 0.366527706384658813 -0.0938721597194671631
-0.37486952543258667 -0.492430835962295532 -0.161304295063018799
0.568571567535400391 0.17625097930431366 0.282667666673660278
0.588700652122497559 0.162111669778823853 0.177158981561660767
-0.427943587303161621 0.384423136711120605 0.0591903626918792725
-0.453504115343093872 0.498090744018554688 0.107511118054389954
0.591058015823364258 0.0529126562178134918 0.200895905494689941
-0.0386698320508003235 0.451691031455993652 0.350947380065917969
0.593747079372406006 0.0575231388211250305 0.225294232368469238
-0.700717926025390625 0.0894380509853363037 0.190191254019737244
-0.503048300743103027 0.474789202213287354 0.105069056153297424
0.631081283092498779 0.0325550809502601624 0.045694451779127121
0.266707122325897217 -0.475349336862564087 -0.124080672860145569
-0.365176349878311157 -0.474605530500411987 0.0954727232456207275
0.531149864196777344 -0.268905788660049438 0.0499094054102897644
-0.473986268043518066 -0.237687677145004272 -0.135265380144119263
-0.597090482711791992 -0.23933836817741394 -0.0818532481789588928
0.627773404121398926 0.0637264922261238098 -0.109901934862136841
-0.1428355872631073 0.534982085227966309 0.331966489553451538
0.567767202854156494 0.359950840473175049 0.223116427659988403
0.681472361087799072 -0.100267082452774048 -0.245109826326370239
0.639486610889434814 -0.253158897161483765 -0.208486959338188171
0.357019156217575073 0.474963605403900146 0.339879751205444336
0.151327550411224365 0.432049155235290527 0.132434964179992676
0.559596776962280273 0.398440837860107422 0.192735075950622559
0.550006687641143799 -0.409912556409835815 -0.178717583417892456
0.667023241519927979 -0.183708101511001587 -0.113912798464298248
-0.626013636589050293 -0.0852563232183456421 0.220851510763168335
0.518829047679901123 -0.425069302320480347 0.165641039609909058
0.630819797515869141 -0.24026075005531311 -0.249139219522476196
0.670152187347412109 -0.260475039482116699 -0.28015473484992981
0.331532537937164307 0.485059797763824463 0.241259247064590454
0.42789846658706665 0.273302942514419556 0.220992758870124817
-0.698682427406311035 0.36916738748550415 0.26827654242515564
-0.689504146575927734 0.330334365367889404 0.279221832752227783
0.661742031574249268 -0.0651819109916687012 -0.237875282764434814
-0.693154096603393555 0.099904179573059082 0.189452692866325378
0.393508285284042358 -0.471018224954605103 -0.0636083632707595825
-0.697136223316192627 0.380201011896133423 0.265664517879486084
0.637429714202880859 -0.406691074371337891 -0.257660001516342163
0.384316027164459229 0.493492007255554199 -0.0442617163062095642
-0.669781208038330078 0.0174097940325737 0.201364532113075256
0.445597350597381592 0.398358732461929321 0.290127843618392944
0.436042249202728271 0.398925364017486572 -0.0307179577648639679
0.59778904914855957 0.224054813385009766 0.173596993088722229
0.318462908267974854 0.405310988426208496 0.254475116729736328
0.583289384841918945 0.0945268943905830383 0.235130280256271362
-0.671467125415802002 0.225469917058944702 0.286928683519363403
-0.58991241455078125 -0.340480595827102661 -0.104680508375167847
-0.679871022701263428 -0.0269777253270149231 0.182162687182426453
-0.618421018123626709 0.158904671669006348 0.239018857479095459
-0.461082249879837036 -0.319094210863113403 -0.166998431086540222
0.42486301064491272 -0.231536641716957092 0.216012537479400635
0.508413553237915039 -0.00280517991632223129 0.234663397073745728
0.248154386878013611 0.515872001647949219 0.0453775674104690552
0.637725234031677246 -0.192804530262947083 -0.0112074241042137146
0.409241944551467896 0.392737507820129395 -0.0343560092151165009
-0.671821355819702148 0.25557553768157959 0.277437090873718262
-0.621538817882537842 0.181199908256530762 0.276587069034576416
-0.640892088413238525 0.247793763875961304 0.267828255891799927
0.392893970012664795 -0.46921616792678833 -0.237888157367706299
-0.671407222747802734 0.37172544002532959 0.278777539730072021
0.720211505889892578 0.337116330862045288 -0.0871264785528182983
-0.690935373306274414 0.311590373516082764 0.124765187501907349
-0.655471384525299072 0.141544312238693237 0.28823128342628479
-0.465958654880523682 -0.370559275150299072 -0.167248904705047607
0.669368863105773926 -0.145988106727600098 -0.260736048221588135
0.562362909317016602 0.314400136470794678 0.253896057605743408
-0.449119985103607178 0.498056888580322266 0.069663316011428833
-0.637223541736602783 0.0133598111569881439 -0.127803802490234375
0.625362157821655273 -0.171554997563362122 0.177804648876190186
0.433038055896759033 0.534881651401519775 0.00967685878276824951
0.384977400302886963 -0.519632518291473389 -0.202110603451728821
0.566052794456481934 -0.164148703217506409 -0.242229878902435303
0.644330203533172607 -0.299658328294754028 -0.272914290428161621
-0.468616902828216553 0.379767686128616333 0.0522717684507369995
0.66572117805480957 -0.194844454526901245 -0.256086587905883789
0.526632130146026611 0.463400453329086304 -0.0245776567608118057
-0.663991451263427734 0.0370897166430950165 0.0296453535556793213
0.620073497295379639 -0.30184638500213623 -0.203859210014343262
0.621576309204101562 -0.44272303581237793 -0.286491513252258301
-0.382680594921112061 0.472802579402923584 0.0545663684606552124
-0.624230623245239258 0.362754642963409424 0.235543370246887207
0.632434844970703125 -0.394587337970733643 -0.216224268078804016
-0.605173647403717041 -0.194399029016494751 -0.0460957735776901245
-0.448597490787506104 -0.403581768274307251 -0.215159669518470764
0.486898988485336304 0.443672686815261841 0.0302391648292541504
-0.549584448337554932 0.294332981109619141 -0.0615387409925460815
0.702955663204193115 0.0576042607426643372 -0.154656559228897095
0.660096704959869385 -0.0345099642872810364 -0.167038232088088989
-0.463384181261062622 -0.415469467639923096 -0.210617244243621826
0.280442595481872559 0.480305999517440796 -0.0327759236097335815
0.432905137538909912 0.456544578075408936 0.13379940390586853
0.509235382080078125 0.404846161603927612 0.00498521141707897186
0.666597127914428711 0.0762554779648780823 -0.129015639424324036
-0.405143201351165771 0.508261024951934814 0.129180669784545898
-0.325668245553970337 -0.492620229721069336 0.118174642324447632
-0.674020349979400635 0.0878311693668365479 0.0188049972057342529
0.476327955722808838 0.440795332193374634 0.305044651031494141
-0.667937755584716797 -0.0407474115490913391 -0.0127169638872146606
-0.699406147003173828 0.107441037893295288 0.206232696771621704
-0.45908510684967041 -0.453438460826873779 -0.114818766713142395
-0.561670482158660889 0.414270222187042236 -0.012656092643737793
0.610126912593841553 -0.0322508551180362701 0.196180760860443115
0.488496214151382446 -0.452446639537811279 0.122223824262619019
-0.565126895904541016 -0.297617644071578979 -0.200927779078483582
-0.618880987167358398 0.213598385453224182 0.0981439948081970215
-0.572502374649047852 -0.293494611978530884 -0.195860058069229126
0.340650707483291626 0.462879419326782227 0.0210547000169754028
-0.669575095176696777 -0.347008168697357178 -0.191670149564743042
0.646167278289794922 0.150312304496765137 -0.12765657901763916
-0.259408354759216309 0.518123865127563477 0.151838392019271851
0.669764041900634766 0.055500224232673645 0.0461707822978496552
0.683167457580566406 -0.179697662591934204 -0.228295072913169861
0.670783281326293945 -0.114678293466567993 -0.161930680274963379
0.67333829402923584 -0.286455214023590088 -0.29276612401008606
0.654287040233612061 -0.116810545325279236 -0.0938185304403305054
-0.619285106658935547 0.368829339742660522 -0.0510788261890411377
-0.533280670642852783 -0.416526049375534058 -0.221512511372566223
-0.680332064628601074 -0.239384755492210388 -0.0936283096671104431
-0.523496508598327637 -0.439921766519546509 -0.194706708192825317
-0.316764414310455322 -0.455515503883361816 -0.186144068837165833
0.683122158050537109 0.0365751162171363831 -0.0679525062441825867
-0.689635217189788818 0.1893787682056427 0.00751855969429016113
-0.610011577606201172 0.0293956957757472992 0.1976785808801651
0.509385347366333008 -0.25962907075881958 0.196146577596664429
-0.681536674499511719 0.179175019264221191 0.155538126826286316
-0.508974373340606689 -0.380451321601867676 -0.200633212924003601
-0.63422471284866333 -0.292931258678436279 -0.15279117226600647
-0.516683697700500488 -0.42418372631072998 0.0906907618045806885
0.16057269275188446 0.489877820014953613 0.0999099761247634888
0.6594085693359375 -0.236359506845474243 -0.237393975257873535
0.647317409515380859 -0.175276324152946472 -0.213050827383995056
0.555876314640045166 0.426681995391845703 -0.129104271531105042
0.670439243316650391 -0.276264995336532593 -0.264839053153991699
0.677608847618103027 -0.0633318349719047546 -0.136420607566833496
0.507721245288848877 0.426472693681716919 0.0255456864833831787
-0.60891115665435791 -0.395133733749389648 -0.204861074686050415
-0.667085886001586914 -0.238034680485725403 -0.177445739507675171
-0.324643254280090332 -0.51025843620300293 -0.173308178782463074
-0.347775042057037354 -0.434026956558227539 -0.176337957382202148
-0.64616084098815918 -0.0697894468903541565 0.224424868822097778
0.230539306998252869 0.404414534568786621 0.357653230428695679
-0.612777590751647949 0.275602966547012329 0.169787377119064331
-0.684611022472381592 0.162385016679763794 0.171281367540359497
-0.658515989780426025 -0.101172186434268951 0.226524531841278076
-0.618499040603637695 -0.343381494283676147 -0.0137294530868530273
0.621299147605895996 -0.279714226722717285 -0.284010499715805054
0.312357068061828613 0.466763615608215332 0.246562853455543518
-0.0947889313101768494 0.568498849868774414 0.314552903175354004
-0.662756145000457764 -0.0177916102111339569 0.0835662186145782471
-0.619553327560424805 -0.197405204176902771 0.213892057538032532
0.631300508975982666 0.262365579605102539 -0.188008025288581848
0.647787272930145264 -0.096371576189994812 -0.25146406888961792
-0.676879823207855225 0.0919802039861679077 0.185912266373634338
0.425611734390258789 0.0377958789467811584 0.254547923803329468
-0.522384166717529297 0.47121235728263855 0.275130748748779297
0.667045116424560547 -0.228418409824371338 -0.265150338411331177
-0.695735692977905273 0.378844648599624634 0.270795345306396484
0.309125602245330811 -0.490468442440032959 -0.257275640964508057
0.528698921203613281 -0.440743327140808105 -0.261198759078979492
-0.40013587474822998 -0.51349341869354248 -0.161988213658332825
-0.303163588047027588 -0.473196476697921753 -0.188435420393943787
-0.599833011627197266 -0.405388385057449341 0.0247416645288467407
-0.538020133972167969 0.344586074352264404 0.08659401535987854
-0.613460540771484375 -0.129707574844360352 0.235341846942901611
0.379686087369918823 0.472697734832763672 -0.0609116107225418091
0.636168360710144043 -0.438744664192199707 -0.272920995950698853
0.533442974090576172 0.109640270471572876 0.227407872676849365
-0.41498267650604248 0.520211458206176758 0.270272910594940186
-0.708656728267669678 -0.0713321492075920105 0.13808208703994751
0.525892853736877441 -0.37678864598274231 -0.24179135262966156
-0.564165174961090088 -0.305939704179763794 -0.198098242282867432
-0.677370548248291016 -0.316932231187820435 0.173159435391426086
0.377026915550231934 -0.47085946798324585 0.025822073221206665
-0.707871079444885254 0.326923370361328125 0.167505860328674316
-0.659685254096984863 0.089461110532283783 0.218847975134849548
0.607063651084899902 0.0443539731204509735 0.169936418533325195
-0.635840713977813721 0.162667617201805115 -0.0846991315484046936
-0.620637238025665283 0.239290907979011536 0.263558179140090942
-0.191801637411117554 0.526773333549499512 0.0459128618240356445
0.657632112503051758 -0.0437201038002967834 -0.0240923222154378891
-0.637679219245910645 0.255407273769378662 -0.0567039772868156433
0.408941864967346191 0.476796478033065796 0.121649637818336487
-0.696911394596099854 -0.162126690149307251 0.0196027904748916626
0.658472418785095215 -0.130422845482826233 -0.259659826755523682
0.639702677726745605 0.113408677279949188 0.0773331299424171448
-0.521495938301086426 -0.428748637437820435 -0.113075032830238342
0.59016728401184082 0.315657198429107666 0.244769036769866943
0.338364899158477783 0.481927096843719482 -0.00857667252421379089
0.662391066551208496 -0.191404283046722412 -0.116473183035850525
0.622596383094787598 -0.140229895710945129 0.0815130099654197693
0.651029646396636963 -0.0607651695609092712 -0.23981928825378418
0.663433074951171875 -0.163428395986557007 -0.244031399488449097
-0.487012624740600586 -0.311154276132583618 0.204987019300460815
0.664447546005249023 -0.185831218957901001 -0.239677309989929199
0.193033590912818909 0.497494995594024658 0.0028867870569229126
0.617416083812713623 -0.331450283527374268 -0.196322321891784668
-0.160478353500366211 0.54678577184677124 0.0468047112226486206
-0.683599352836608887 0.0026760399341583252 0.117100894451141357
0.538013696670532227 -0.313201069831848145 0.0313476920127868652
-0.666019022464752197 -0.206517398357391357 -0.104086533188819885
0.541497230529785156 -0.398105740547180176 -0.199710577726364136
-0.273284912109375 -0.532517313957214355 -0.157898247241973877
-0.624549746513366699 0.468001484870910645 0.296509802341461182
0.548066973686218262 -0.34195023775100708 0.00271438807249069214
-0.190386146306991577 -0.512092769145965576 -0.210071355104446411
0.25690162181854248 -0.525973320007324219 -0.130961418151855469
0.395341843366622925 0.486937999725341797 -0.0209529101848602295
-0.688158035278320312 -0.101996257901191711 0.0159922540187835693
0.179299786686897278 0.456284075975418091 0.0530956350266933441
-0.504034996032714844 -0.401275336742401123 -0.17256617546081543
0.55439603328704834 -0.321571946144104004 0.160131782293319702
0.682763159275054932 -0.0180862229317426682 -0.145371526479721069
-0.0791559517383575439 -0.576173782348632812 -0.166583865880966187
0.675593137741088867 -0.0489387698471546173 -0.238163411617279053
-0.549776077270507812 0.333638846874237061 -0.0154192596673965454
0.517467796802520752 0.4221305251121521 0.238833650946617126
-0.549365878105163574 0.324428975582122803 0.0965467989444732666
-0.713131427764892578 0.0652994811534881592 0.02948017418384552
0.0165230855345726013 0.509558916091918945 0.0382121801376342773
-0.604106545448303223 -0.370139539241790771 -0.0659282207489013672
-0.62530970573425293 -0.323178350925445557 -0.203853368759155273
-0.550148844718933105 -0.304780185222625732 0.145796149969100952
-0.665071249008178711 -0.108048819005489349 0.00320225954055786133
0.670684814453125 0.0594591535627841949 0.0241050198674201965
0.642588376998901367 -0.136975347995758057 -0.085999414324760437
-0.678910136222839355 0.16588805615901947 -0.00355240702629089355
0.550725817680358887 0.362083554267883301 -0.0859414860606193542
0.651785850524902344 -0.0114926248788833618 0.0364783406257629395
0.659156620502471924 -0.222676455974578857 -0.255522370338439941
0.205112218856811523 0.475419908761978149 0.26738661527633667
0.46773877739906311 -0.471581339836120605 0.112455792725086212
0.611038565635681152 -0.0232736766338348389 0.180719256401062012
0.120860867202281952 0.412002682685852051 0.097425118088722229
0.436173766851425171 -0.468845456838607788 -0.24826735258102417
-0.618637740612030029 0.42173534631729126 0.249975979328155518
-0.651167750358581543 0.0557613596320152283 0.212454736232757568
0.655542492866516113 0.284798204898834229 -0.118847660720348358
0.513862490653991699 0.405347943305969238 0.19054703414440155
0.677749037742614746 0.332006871700286865 -0.170579284429550171
-0.274387598037719727 -0.467011719942092896 -0.193495810031890869
-0.558959841728210449 -0.377438068389892578 0.159863635897636414
-0.70726245641708374 -0.0706235244870185852 0.143670648336410522
0.559659779071807861 -0.378394514322280884 -0.174311026930809021
0.576173067092895508 0.395881444215774536 0.139853209257125854
0.588948309421539307 -0.132551670074462891 -0.010593688115477562
-0.623351097106933594 -0.320214986801147461 -0.172959983348846436
-0.385217726230621338 -0.46280372142791748 -0.197306826710700989
0.674577653408050537 -0.0485546812415122986 -0.06792479008436203
0.681378424167633057 -0.0225780047476291656 0.0596105679869651794
0.287191003561019897 0.505650997161865234 0.0927670747041702271
0.235231295228004456 0.440081655979156494 0.011454213410615921
0.610101044178009033 -0.211164265871047974 -0.241320416331291199
0.225374430418014526 0.46797904372215271 0.111649982631206512
-0.108843222260475159 0.447369694709777832 0.0715077593922615051
0.499811917543411255 0.488692998886108398 -0.0647024810314178467
-0.660706579685211182 0.0688325464725494385 0.233266055583953857
0.590287923812866211 0.406046956777572632 -0.102453261613845825
0.276038795709609985 -0.564689576625823975 -0.121641740202903748
0.640058219432830811 -0.0323254428803920746 -0.158870548009872437
0.58847963809967041 0.359824776649475098 0.165227025747299194
0.646891593933105469 0.259604364633560181 -0.0407070592045783997
-0.30922544002532959 -0.447751522064208984 -0.182045519351959229
-0.69362109899520874 -0.131007134914398193 0.197764545679092407
-0.258461028337478638 -0.491474926471710205 -0.195256620645523071
0.469808399677276611 0.43376624584197998 0.197286471724510193
-0.418898433446884155 -0.440596103668212891 -0.193548515439033508
-0.459385603666305542 -0.438126951456069946 -0.195640802383422852
0.535623073577880859 0.388421118259429932 0.273046284914016724
0.597848474979400635 -0.0390097126364707947 0.113397598266601562
0.244307339191436768 0.540975332260131836 -0.0240092389285564423
0.382506072521209717 0.532514750957489014 -0.0211436636745929718
0.372599542140960693 0.47454380989074707 0.189850851893424988
0.411246538162231445 -0.474359333515167236 -0.261750280857086182
-0.69936072826385498 0.291859328746795654 0.251606911420822144
0.281719952821731567 0.506249606609344482 0.263739228248596191
0.431279629468917847 -0.232809394598007202 0.218362271785736084
-0.586385667324066162 0.197965130209922791 0.108538806438446045
0.642747461795806885 -0.299925118684768677 -0.273366302251815796
0.431337863206863403 0.0299274176359176636 0.228132158517837524
-0.390337854623794556 0.467826932668685913 0.0567262023687362671
0.473020792007446289 0.412453353404998779 0.206611379981040955
0.177852198481559753 0.487295627593994141 0.327453970909118652
-0.668575644493103027 0.0690063238143920898 0.203742250800132751
-0.171431705355644226 0.565957903861999512 0.0651905760169029236
0.680465579032897949 -0.209379136562347412 -0.25026172399520874
-0.691904902458190918 0.368449151515960693 0.265627473592758179
-0.589417099952697754 -0.251255840063095093 -0.154166162014007568
-0.422056734561920166 -0.45894092321395874 -0.169860705733299255
0.350220620632171631 0.391360342502593994 0.279117852449417114
0.616813480854034424 0.215501710772514343 0.216542661190032959
0.639669418334960938 -0.388978451490402222 -0.288406133651733398
0.555892050266265869 0.107406385242938995 0.194242134690284729
0.437370419502258301 -0.487551271915435791 0.118691727519035339
-0.492197662591934204 0.460081756114959717 0.19281923770904541
0.552226543426513672 -0.365488052368164062 -0.285682082176208496
-0.556785762310028076 -0.379763156175613403 -0.0417001843452453613
0.595792472362518311 0.292284488677978516 0.134932011365890503
-0.538046121597290039 -0.322559326887130737 -0.180574476718902588
0.159177124500274658 0.571644783020019531 -0.0173189826309680939
0.60217660665512085 -0.150723099708557129 -0.24939785897731781
0.516686081886291504 0.248305544257164001 0.260419130325317383
0.60516667366027832 -0.353826373815536499 -0.302659183740615845
-0.618448197841644287 -0.327927827835083008 0.173879325389862061
-0.663637161254882812 0.128505304455757141 0.228725075721740723
-0.67244189977645874 0.36784815788269043 0.278921902179718018
0.317775517702102661 -0.0172049049288034439 0.259995520114898682
0.607090592384338379 0.255621761083602905 -0.0420574210584163666
0.317558854818344116 0.399858266115188599 0.353832215070724487
-0.527524471282958984 -0.319937139749526978 -0.150829136371612549
0.629631876945495605 -0.160457760095596313 -0.249562680721282959
-0.659583032131195068 0.370647668838500977 0.268232017755508423
-0.016175437718629837 -0.564214468002319336 -0.167027801275253296
0.658332467079162598 -0.320973813533782959 -0.267921388149261475
0.430769562721252441 0.459805488586425781 0.127928733825683594
0.696202397346496582 -0.150977268815040588 -0.196667402982711792
0.63444209098815918 -0.337930381298065186 -0.236039891839027405
0.688665270805358887 -0.279757767915725708 -0.281455308198928833
0.570423364639282227 -0.376184731721878052 -0.177532881498336792
-0.643866658210754395 0.100022152066230774 0.203912675380706787
0.690296530723571777 -0.165298402309417725 -0.273035049438476562
-0.567599594593048096 -0.29275164008140564 -0.202498212456703186
0.594076037406921387 -0.323496222496032715 -0.237641662359237671
0.569195687770843506 -0.300633907318115234 0.161700218915939331
0.693262219429016113 -0.0978740602731704712 -0.266692966222763062
0.683197081089019775 0.193126663565635681 -0.0175185389816761017
0.64587700366973877 -0.297521382570266724 -0.281064391136169434
0.270794570446014404 0.483926355838775635 0.344353139400482178
0.342807590961456299 0.488477408885955811 0.104710742831230164
-0.444282710552215576 -0.32003447413444519 -0.167431101202964783
-0.282257914543151855 -0.540480852127075195 -0.13938024640083313
-0.496888577938079834 0.405770331621170044 0.10416056215763092
0.358345776796340942 0.544902205467224121 -0.0211397502571344376
0.543918967247009277 -0.253545075654983521 0.197040662169456482
0.217148035764694214 0.471532523632049561 0.160306245088577271
-0.501048862934112549 0.515725433826446533 0.131223022937774658
-0.506985664367675781 -0.101736277341842651 -0.109954431653022766
-0.649118304252624512 0.106729179620742798 0.00475326180458068848
0.586057543754577637 -0.414035707712173462 -0.260505318641662598
0.599161505699157715 -0.13108670711517334 0.213092818856239319
0.647480309009552002 -0.189522922039031982 0.0398737341165542603
-0.714408814907073975 0.17989426851272583 0.0311018377542495728
0.522067785263061523 0.457710891962051392 0.0998018532991409302
-0.695321202278137207 0.307197988033294678 0.0462028384208679199
-0.605435371398925781 -0.3066539466381073 -0.144860833883285522
0.581310749053955078 -0.144587352871894836 -0.164714246988296509
0.561884224414825439 0.371829897165298462 0.230036765336990356
-0.547093749046325684 -0.269270271062850952 -0.121624886989593506
-0.573331475257873535 -0.0529332645237445831 -0.0869999080896377563
0.50823742151260376 0.447562456130981445 -0.0173712354153394699
0.580395519733428955 0.401751279830932617 -0.0426725931465625763
0.51440584659576416 -0.170304909348487854 0.227288857102394104
0.175250589847564697 0.399932742118835449 0.0555295422673225403
0.622303485870361328 -0.0867007970809936523 0.124613940715789795
-0.588720083236694336 0.0853580012917518616 -0.0170103013515472412
0.423141241073608398 -0.468315333127975464 -0.260870695114135742
-0.63728177547454834 0.341360151767730713 0.242702662944793701
0.615611672401428223 -0.21053604781627655 -0.24203762412071228
0.581753730773925781 -0.260303884744644165 -0.232593506574630737
0.614703595638275146 -0.155098140239715576 0.0455864816904067993
-0.681378722190856934 0.0870149284601211548 0.0253244638442993164
-0.00256727635860443115 0.613194882869720459 0.1033177450299263
