ply
format ascii 1.0
element vertex 736
property float x
property float y
property float z
end_header
0.441015064716339111 0.302008688449859619 -0.0944819152355194092
0.336672455072402954 -0.494180858135223389 0.13208433985710144
0.420074313879013062 0.465671449899673462 -0.09924335777759552
0.168196648359298706 -0.501555204391479492 -0.0778331160545349121
0.395138204097747803 -0.456747233867645264 -0.0713566243648529053
-0.551409006118774414 0.446508586406707764 0.0615375488996505737
-0.270622551441192627 -0.458894461393356323 0.0524104088544845581
0.38997313380241394 -0.431544244289398193 0.131532356142997742
-0.329699516296386719 0.4640369713306427 0.092084839940071106
-0.37853047251701355 0.488832563161849976 -0.103756241500377655
-0.469012558460235596 0.39134564995765686 -0.10944637656211853
0.436656475067138672 0.224764823913574219 -0.0998044610023498535
0.226775780320167542 0.537257552146911621 -0.0864019840955734253
0.167434036731719971 0.574133694171905518 -0.0694913566112518311
-0.290931582450866699 -0.596697390079498291 0.0626481473445892334
0.471416622400283813 0.398794710636138916 -0.0781093239784240723
-0.551626086235046387 0.445860981941223145 0.0697230994701385498
0.441284835338592529 0.466500997543334961 0.0844609886407852173
0.131134286522865295 0.479587346315383911 -0.0864702910184860229
-0.485906839370727539 -0.472132682800292969 0.125671863555908203
0.0283797066658735275 0.596274256706237793 -0.149884119629859924
-0.339248716831207275 -0.482050776481628418 0.0702683329582214355
0.256421446800231934 0.55381166934967041 -0.0880217850208282471
-0.426544427871704102 0.459657400846481323 -0.0380260348320007324
0.396875470876693726 0.0406629890203475952 -0.0200053602457046509
0.161343008279800415 -0.536817014217376709 -0.087866365909576416
0.381616204977035522 -0.390466153621673584 0.0413188785314559937
0.433112651109695435 -0.346285194158554077 0.0588105879724025726
-0.463655591011047363 0.442123502492904663 0.0748576223850250244
0.412054628133773804 -0.0799682736396789551 0.0536410361528396606
0.157068818807601929 0.482174694538116455 -0.093395620584487915
0.219977438449859619 -0.573848366737365723 -0.0576025098562240601
-0.551693141460418701 0.399762183427810669 0.0724428296089172363
-0.487848281860351562 0.00709102116525173187 0.0585193783044815063
0.339609801769256592 -0.501219809055328369 -0.175961121916770935
-0.47975313663482666 0.450772732496261597 0.120274901390075684
-0.133169934153556824 0.463486552238464355 -0.0892095267772674561
0.525548398494720459 0.37320023775100708 -0.0912780165672302246
0.235895931720733643 0.50746619701385498 -0.0622413754463195801
-0.455738186836242676 0.160025611519813538 0.0675057768821716309
0.425079047679901123 0.390492886304855347 -0.0750112235546112061
-0.482015073299407959 -0.131182625889778137 0.069451354444026947
-0.437371432781219482 -0.465675234794616699 0.0961435437202453613
0.369317173957824707 0.504940152168273926 -0.0966906100511550903
-0.468948185443878174 -0.483929187059402466 0.11095091700553894
-0.223224103450775146 0.595701754093170166 0.0431635119020938873
-0.509989559650421143 0.440052062273025513 0.0826049298048019409
0.341443628072738647 0.00113975629210472107 -0.0595180094242095947
-0.150146454572677612 -0.487491995096206665 0.0489386171102523804
0.431471288204193115 0.307455986738204956 -0.0757696479558944702
-0.54260718822479248 0.346181482076644897 0.054557114839553833
-0.534683704376220703 0.42827373743057251 0.0702368766069412231
-0.184201896190643311 0.504193544387817383 0.017243044450879097
-0.556602299213409424 0.462948918342590332 0.0758556574583053589
0.293296337127685547 -0.425973653793334961 -0.0925516337156295776
-0.443837910890579224 -0.471472829580307007 -0.0606102868914604187
-0.303718209266662598 -0.460226207971572876 0.0658471882343292236
-0.345182299613952637 0.446489870548248291 0.0814670175313949585
-0.531176567077636719 -0.378187954425811768 0.105397239327430725
-0.471619576215744019 0.378479599952697754 -0.0418705493211746216
0.194694548845291138 0.53674846887588501 -0.0951647907495498657
-0.319044649600982666 -0.615791022777557373 -0.039173424243927002
0.167632505297660828 0.601768612861633301 -0.0761490315198898315
-0.322730988264083862 0.514349222183227539 0.0888924598693847656
0.365480929613113403 -0.416566759347915649 0.0857104063034057617
-0.341638296842575073 0.452985823154449463 0.0990837663412094116
-0.529290914535522461 0.426643937826156616 0.0793263018131256104
0.423734217882156372 0.451956063508987427 0.0729815065860748291
-0.30329596996307373 -0.61954343318939209 0.00938741862773895264
-0.334437638521194458 0.493307173252105713 0.0768329799175262451
-0.5164603590965271 0.439771652221679688 0.0771314948797225952
0.436996519565582275 -0.434545695781707764 -0.0734678357839584351
-0.472642302513122559 -0.475315332412719727 0.118293836712837219
0.273327380418777466 0.425335675477981567 -0.0771545618772506714
0.438533961772918701 0.475211143493652344 -0.0971535742282867432
0.372264862060546875 0.508017897605895996 -0.0941001325845718384
-0.41788870096206665 0.39477124810218811 0.0781825035810470581
0.345891773700714111 -0.482911586761474609 0.108211830258369446
-0.299392223358154297 0.520909011363983154 0.0808925777673721313
-0.437187761068344116 -0.466291427612304688 0.0980502068996429443
-0.474397897720336914 -0.440051764249801636 0.11760200560092926
-0.393523335456848145 -0.494894266128540039 0.10210186243057251
0.0570011287927627563 0.407508224248886108 -0.070345073938369751
0.134276270866394043 -0.417735397815704346 -0.0079084932804107666
0.281117439270019531 -0.466545552015304565 0.118369385600090027
0.482478022575378418 0.0960769578814506531 -0.00847394019365310669
0.32687985897064209 -0.446564018726348877 -0.0438893437385559082
0.0993564575910568237 0.416472405195236206 -0.081016048789024353
-0.473271459341049194 0.161006301641464233 0.0652142465114593506
0.267212778329849243 -0.450270682573318481 -0.0878055840730667114
-0.371602773666381836 -0.431584447622299194 0.0664072632789611816
-0.234852254390716553 0.586435377597808838 0.0221953671425580978
0.24937090277671814 0.498523712158203125 0.0236293226480484009
0.156628742814064026 -0.605755507946014404 0.0726204216480255127
-0.135901868343353271 -0.579108774662017822 0.0307345408946275711
0.113738968968391418 -0.664261460304260254 -0.00330182909965515137
0.384627997875213623 -0.474073618650436401 -0.0678445398807525635
0.339996784925460815 -0.48437809944152832 -0.0870873034000396729
0.370340704917907715 0.465971648693084717 -0.014083564281463623
0.13610231876373291 -0.491558551788330078 -0.0714098662137985229
-0.438147783279418945 -0.472564965486526489 -0.0849784612655639648
-0.334342479705810547 0.453339546918869019 0.0661765933036804199
0.156284689903259277 -0.639245569705963135 0.0453434102237224579
0.352312624454498291 -0.482167631387710571 0.122424155473709106
-0.484037816524505615 0.42631155252456665 -0.0678827911615371704
0.234734266996383667 0.535115420818328857 -0.0791872143745422363
0.357797533273696899 -0.402741283178329468 0.0748580247163772583
-0.414530754089355469 0.491474509239196777 -0.0233533605933189392
-0.548991918563842773 0.441498488187789917 0.0688681453466415405
-0.302972316741943359 0.521736502647399902 0.0799351930618286133
0.382298111915588379 -0.463325619697570801 -0.0334237962961196899
-0.495381355285644531 0.243619948625564575 -0.0641276389360427856
0.422592699527740479 -0.436727166175842285 -0.069995686411857605
0.130796417593955994 0.456125557422637939 -0.0740570873022079468
0.285020947456359863 0.427318334579467773 -0.0861491560935974121
0.0853115320205688477 0.580480515956878662 -0.0813984572887420654
-0.0280987191945314407 -0.462695181369781494 -0.0910666286945343018
-0.476771891117095947 -0.0698746666312217712 0.0450760126113891602
-0.552462935447692871 0.423555493354797363 0.0683338046073913574
-0.483040779829025269 0.428965628147125244 0.082646980881690979
0.422212421894073486 -0.439657151699066162 -0.0741882920265197754
0.252163052558898926 0.442494660615921021 -0.000992685556411743164
0.261539727449417114 0.495783984661102295 -0.0899857431650161743
0.191968515515327454 -0.495704114437103271 -0.0817106962203979492
0.252416849136352539 0.555352687835693359 -0.045717194676399231
0.152955770492553711 -0.4480571448802948 0.0428124591708183289
0.385108113288879395 -0.477542608976364136 0.148367002606391907
0.264669656753540039 0.49370497465133667 -0.0907735973596572876
-0.481346249580383301 0.167981848120689392 0.0671089291572570801
0.358080357313156128 -0.463297396898269653 -0.100036129355430603
-0.41886332631111145 0.383649826049804688 0.0621523857116699219
-0.527329802513122559 0.484058976173400879 0.0835196375846862793
-0.183772772550582886 0.513961851596832275 -0.0100029893219470978
0.41594359278678894 0.0537974126636981964 0.0446380972862243652
0.184929221868515015 0.626227617263793945 -0.00380360614508390427
0.420008420944213867 0.463036000728607178 -0.0105807408690452576
0.16272813081741333 -0.606875956058502197 0.0847162455320358276
-0.46953970193862915 0.118428334593772888 -0.0538901537656784058
0.394258409738540649 -0.403681010007858276 0.0451812520623207092
-0.247543007135391235 0.556639373302459717 0.0394767820835113525
-0.0264902226626873016 0.656479895114898682 -0.0261850208044052124
0.265124976634979248 -0.533505022525787354 0.102047920227050781
0.0925479084253311157 -0.663770020008087158 -0.00647380203008651733
0.514354586601257324 0.44075050950050354 -0.12688012421131134
0.470270156860351562 0.480105608701705933 -0.130203559994697571
-0.495360374450683594 0.103371746838092804 0.00527216494083404541
0.327939152717590332 -0.461179494857788086 -0.0801997333765029907
-0.431760638952255249 -0.487163543701171875 -0.0732173249125480652
-0.345566987991333008 0.515660464763641357 0.0806772410869598389
0.36800992488861084 -0.44661635160446167 0.121283844113349915
0.381487190723419189 -0.430459380149841309 0.0278337746858596802
0.320698320865631104 0.387294620275497437 -0.0255283713340759277
-0.313332617282867432 0.456635534763336182 0.0230964869260787964
0.468908965587615967 -0.371765375137329102 -0.0790254324674606323
-0.311272382736206055 -0.613824248313903809 -0.0417269021272659302
0.433597087860107422 -0.425303012132644653 -0.0752597898244857788
-0.320146411657333374 -0.488900899887084961 0.0831051468849182129
-0.430780529975891113 -0.482924699783325195 -0.0624082610011100769
0.266166090965270996 0.492655068635940552 0.0140534788370132446
0.25253063440322876 0.596924543380737305 -0.0370661132037639618
-0.0328134968876838684 0.650108397006988525 -0.0374203920364379883
0.127154842019081116 -0.650640904903411865 -0.00196325778961181641
0.403671979904174805 -0.46029430627822876 -0.0823952704668045044
0.166476607322692871 -0.555971980094909668 -0.0565021783113479614
-0.308800697326660156 0.502837002277374268 -0.0816110819578170776
-0.306186974048614502 0.526457786560058594 0.0711429864168167114
-0.467342764139175415 0.452943205833435059 0.0662563592195510864
0.344405859708786011 -0.183786496520042419 -0.0430479347705841064
0.471327722072601318 0.321967810392379761 -0.0742891132831573486
0.312588810920715332 0.490883737802505493 0.00788660347461700439
0.503219306468963623 -0.360251635313034058 -0.057594001293182373
-0.267567634582519531 0.593002259731292725 0.0179791394621133804
-0.109538353979587555 0.628828167915344238 -0.0144523270428180695
0.199037849903106689 -0.523396134376525879 -0.0468961447477340698
0.154868990182876587 0.325519740581512451 -0.033770442008972168
0.388506650924682617 0.514915168285369873 -0.0608624070882797241
0.469379842281341553 -0.410148859024047852 -0.0363838784396648407
-0.150899767875671387 0.480675071477890015 -0.0433951243758201599
0.496992111206054688 0.0739214122295379639 -0.0222021043300628662
0.259562104940414429 -0.482158511877059937 -0.0213660895824432373
-0.490059614181518555 0.00465429015457630157 0.0579670965671539307
0.392540931701660156 -0.343938469886779785 0.0296450108289718628
0.194410651922225952 -0.413850337266921997 -0.0873763114213943481
0.389058947563171387 0.427084952592849731 -0.0946151614189147949
0.447974801063537598 0.00450839148834347725 -0.0104035139083862305
0.347220957279205322 -0.431352674961090088 -0.0755795836448669434
-0.505717217922210693 0.236633419990539551 0.0761149674654006958
0.437222003936767578 -0.274500459432601929 0.0401468649506568909
-0.445089995861053467 0.410591453313827515 -0.0862251073122024536
-0.245591089129447937 0.590310633182525635 -0.0245717689394950867
0.399914443492889404 -0.0241225920617580414 -0.0542173534631729126
0.411665737628936768 0.4432201087474823 -0.0873037427663803101
0.367848485708236694 0.518080532550811768 -0.0298542231321334839
0.17663806676864624 -0.0731642991304397583 -0.0464220494031906128
0.432770907878875732 -0.1494244784116745 -0.0808793455362319946
0.452352762222290039 0.458949804306030273 0.0793399065732955933
-0.123810753226280212 0.598715424537658691 0.036319095641374588
0.264241188764572144 -0.494988828897476196 0.0913197547197341919
0.349344074726104736 0.322893261909484863 -0.0614120066165924072
0.392822206020355225 -0.439720481634140015 -0.108671814203262329
0.216648727655410767 -0.503125548362731934 0.0105279833078384399
0.242230623960494995 0.576733708381652832 -0.0362551882863044739
0.284309744834899902 0.488863706588745117 -0.10065750777721405
-0.362909793853759766 0.413022696971893311 0.040041118860244751
0.348901718854904175 -0.433760583400726318 -0.0875857025384902954
0.322581022977828979 0.540174961090087891 -0.0577198676764965057
0.381729245185852051 -0.103245437145233154 -0.0735179483890533447
0.377359837293624878 0.0554881840944290161 0.0267053842544555664
0.360965996980667114 0.472587525844573975 -0.0929205417633056641
0.430313229560852051 -0.43225899338722229 -0.0965435653924942017
-0.456947565078735352 -0.441515594720840454 0.135029256343841553
0.349952012300491333 0.345056712627410889 -0.0774640738964080811
-0.50392305850982666 -0.221012085676193237 0.082783237099647522
-0.0788178890943527222 -0.481346458196640015 0.107157096266746521
-0.487811237573623657 -0.447334349155426025 0.11739349365234375
0.25861746072769165 0.498735934495925903 -0.0677642971277236938
0.253828704357147217 -0.537570178508758545 0.0225004032254219055
0.463753342628479004 0.468912184238433838 -0.0983238667249679565
-0.489708602428436279 0.113606929779052734 0.030918121337890625
0.0422055348753929138 -0.506507396697998047 0.0612421967089176178
-0.397219747304916382 -0.489887863397598267 0.0290341973304748535
0.44805377721786499 0.15344962477684021 -0.0639738738536834717
0.0673885047435760498 -0.52323460578918457 -0.0885005742311477661
0.51653134822845459 0.326512962579727173 -0.0904486477375030518
0.340463966131210327 -0.470920532941818237 0.0843839645385742188
-0.0650559216737747192 0.585572302341461182 0.0377689860761165619
-0.489905178546905518 0.377436518669128418 -0.0898459181189537048
0.245312109589576721 -0.547875702381134033 0.085348084568977356
-0.446185529232025146 -0.466469168663024902 0.107026845216751099
0.146362781524658203 0.472955197095870972 -0.0932517945766448975
-0.376647621393203735 0.428300768136978149 0.0681750178337097168
-0.345989704132080078 -0.431660979986190796 0.0803348720073699951
-0.340752512216567993 0.482618093490600586 -0.0417124666273593903
0.486233294010162354 0.0175620876252651215 -0.0212296843528747559
-0.535032987594604492 0.422073870897293091 0.0565059781074523926
0.45069044828414917 -0.409105032682418823 -0.0798201113939285278
-0.387266814708709717 -0.499602138996124268 0.114735469222068787
-0.381552159786224365 0.466457515954971313 0.0151739567518234253
0.0989325195550918579 0.471816956996917725 -0.0958856791257858276
-0.434256613254547119 -0.0140145374462008476 0.054914519190788269
0.184900075197219849 0.58371734619140625 -0.0320071056485176086
0.359619796276092529 -0.477898091077804565 -0.0844076573848724365
-0.470957458019256592 -0.0475856214761734009 0.0588856488466262817
-0.302923679351806641 -0.619471549987792969 -0.0281892642378807068
0.280482709407806396 0.532042264938354492 -0.0973352640867233276
-0.435215175151824951 0.472372472286224365 0.0905127376317977905
0.415833830833435059 0.510804355144500732 -0.0355041176080703735
-0.468560963869094849 -0.464525431394577026 0.110753118991851807
0.0382696725428104401 0.374152779579162598 -0.133308395743370056
-0.395538032054901123 0.367465764284133911 0.0626027584075927734
0.398214221000671387 -0.445264816284179688 -0.00326677411794662476
0.412972241640090942 0.0363056212663650513 0.0307312030345201492
0.400810182094573975 0.0659333318471908569 -0.0697608739137649536
0.410458028316497803 -0.340479910373687744 0.0469348691403865814
0.512723684310913086 0.309831380844116211 -0.0753238201141357422
0.27656257152557373 -0.0347991138696670532 -0.0652893036603927612
0.450817644596099854 0.356450796127319336 0.0208327621221542358
0.394390791654586792 -0.437890917062759399 -0.0150984153151512146
-0.493601858615875244 -0.0532332435250282288 -0.0494858846068382263
0.247948914766311646 -0.483980000019073486 0.000544779002666473389
0.345909357070922852 -0.206007093191146851 -0.0520435720682144165
-0.109451763331890106 -0.605424165725708008 0.0564374029636383057
-0.504945814609527588 0.310218334197998047 0.0281048417091369629
0.333794713020324707 -0.169836938381195068 0.00248118489980697632
-0.449128687381744385 -0.471779197454452515 0.105461597442626953
0.329824626445770264 0.428014248609542847 -0.090205654501914978
0.0461716502904891968 -0.535786151885986328 -0.105414897203445435
0.395666420459747314 -0.347721219062805176 0.0757497251033782959
0.459369838237762451 0.0563520453870296478 0.0187381729483604431
0.372730612754821777 0.0302130654454231262 0.0780215784907341003
-0.392115622758865356 -0.446426749229431152 0.0353260040283203125
0.15619930624961853 -0.469287395477294922 -0.0538205653429031372
0.348060131072998047 -0.354530155658721924 0.0355192907154560089
0.442550063133239746 0.465433567762374878 -0.136803627014160156
0.488923490047454834 0.341454565525054932 -0.0969437062740325928
0.301218330860137939 0.0545205175876617432 -0.042136654257774353
-0.467978835105895996 0.111158378422260284 -0.0573846772313117981
-0.459618896245956421 0.480923503637313843 0.0773475021123886108
0.505770564079284668 0.343112289905548096 -0.0796467214822769165
-0.500998139381408691 0.302955418825149536 -0.115012690424919128
0.239679843187332153 -0.531343340873718262 -0.0248846858739852905
0.417132467031478882 0.449463963508605957 0.089280739426612854
0.211533546447753906 0.345030635595321655 0.0153737366199493408
0.283984065055847168 -0.497595876455307007 -0.03456898033618927
-0.535962104797363281 -0.394838958978652954 0.104337453842163086
0.35002434253692627 0.503446996212005615 -0.100291609764099121
-0.497664272785186768 -0.22954617440700531 0.0836032480001449585
0.466341018676757812 0.464107751846313477 -0.12353748083114624
-0.411650657653808594 0.449619978666305542 -0.108367264270782471
0.397314101457595825 -0.448328852653503418 -0.0724639892578125
0.513000309467315674 0.326712250709533691 -0.0923523455858230591
-0.477255046367645264 0.365738898515701294 -0.07220420241355896
0.385458141565322876 -0.127519845962524414 -0.0709687322378158569
0.367406606674194336 0.464671790599822998 -0.0568404644727706909
-0.221870496869087219 0.519999444484710693 -0.0748948007822036743
-0.364999115467071533 0.432927817106246948 0.0855009406805038452
0.270554125308990479 0.0978682264685630798 -0.0370725542306900024
-0.290215790271759033 -0.472793042659759521 0.0625218302011489868
-0.241243213415145874 0.602255702018737793 0.0237630549818277359
-0.397703021764755249 0.388493567705154419 0.0622192323207855225
-0.52293705940246582 0.372606903314590454 0.0515712946653366089
-0.539882063865661621 0.334003478288650513 0.0630980134010314941
0.146697103977203369 -0.607964038848876953 0.0785620063543319702
-0.474425286054611206 -0.0533848106861114502 0.0481974035501480103
-0.312509089708328247 -0.618703961372375488 -0.0133209228515625
0.432149142026901245 0.385473877191543579 -0.0884787887334823608
0.449591964483261108 -0.436636447906494141 -0.09137764573097229
0.392312139272689819 -0.443348228931427002 -0.073195919394493103
-0.39731946587562561 0.421166390180587769 0.0554761141538619995
-0.368912965059280396 -0.500810861587524414 0.0894135981798171997
0.147313818335533142 -0.609478592872619629 0.0776565372943878174
0.184382140636444092 -0.039410516619682312 -0.0167122483253479004
0.429577797651290894 -0.201262906193733215 0.00627493113279342651
0.458478748798370361 0.40790945291519165 0.00939892977476119995
-0.474975883960723877 -0.46942591667175293 0.122232377529144287
0.175841435790061951 -0.492847472429275513 -0.0365155637264251709
-0.454953789710998535 0.492526113986968994 0.0707481503486633301
-0.452529013156890869 0.403790175914764404 0.0271656960248947144
0.214486747980117798 0.448798388242721558 -0.0927901566028594971
0.351714462041854858 0.44067990779876709 0.00195693224668502808
0.324562966823577881 -0.445774108171463013 -0.060209229588508606
0.456437528133392334 0.05448140949010849 -0.0625607073307037354
0.363793641328811646 -0.479161262512207031 0.0935879647731781006
0.457836776971817017 -0.095509067177772522 0.0569258406758308411
0.436043918132781982 0.0720787569880485535 -0.0664173662662506104
0.441927850246429443 -0.110194012522697449 -0.056066855788230896
0.369358181953430176 0.246069222688674927 -0.0759433209896087646
0.49171680212020874 0.352699577808380127 -0.0677316933870315552
0.415304958820343018 0.444444149732589722 0.0949411988258361816
-0.152532458305358887 0.500597298145294189 0.0512335449457168579
0.224575847387313843 0.446686267852783203 -0.0850828438997268677
0.490381777286529541 0.064325578510761261 -0.0430797338485717773
0.176229149103164673 0.447113186120986938 -0.0580187588930130005
0.386024653911590576 -0.447305291891098022 0.086012423038482666
0.0993041098117828369 0.470797449350357056 -0.0206767469644546509
0.480520933866500854 -0.288961619138717651 -0.0200805738568305969
0.480520009994506836 0.0712837278842926025 0.00445517897605895996
0.347987532615661621 0.365628182888031006 -0.0876245349645614624
0.380203902721405029 0.491900205612182617 -0.11420305073261261
0.484041303396224976 -0.00619366951286792755 -0.00816256552934646606
-0.483966618776321411 -0.4582405686378479 0.129740536212921143
0.307870328426361084 0.472206413745880127 -0.105995222926139832
0.42504650354385376 0.367744773626327515 -0.0965744107961654663
0.390916496515274048 0.47886309027671814 -0.0612849146127700806
-0.421103090047836304 0.480337768793106079 0.0572180449962615967
-0.524140834808349609 0.32645830512046814 0.0248104631900787354
0.305519342422485352 -0.0601283982396125793 -0.0544755905866622925
0.397148311138153076 0.442943871021270752 -0.0890153646469116211
0.168508559465408325 0.359229832887649536 -0.0362271368503570557
0.269264519214630127 0.603431403636932373 0.0262427069246768951
-0.301657110452651978 -0.430260539054870605 0.0266863554716110229
0.358922183513641357 -0.411903023719787598 0.0527940914034843445
-0.277543306350708008 0.557419121265411377 0.0461052171885967255
0.136516720056533813 0.475746899843215942 -0.0609580725431442261
-0.450967282056808472 0.457800894975662231 -0.0356951728463172913
0.432510316371917725 -0.360384762287139893 -0.0716012418270111084
0.283739209175109863 0.495730996131896973 -0.100334048271179199
0.474580705165863037 0.33832317590713501 0.0330644398927688599
-0.406355082988739014 0.48466026782989502 0.055963560938835144
-0.395314633846282959 -0.464403301477432251 -0.110665790736675262
-0.324629604816436768 0.442912191152572632 -0.0901884958148002625
0.0949363559484481812 0.411832153797149658 -0.0759104937314987183
0.429304748773574829 0.475754588842391968 0.0904892385005950928
0.244184419512748718 0.452385574579238892 -0.0961416363716125488
-0.448887884616851807 0.0490468591451644897 -0.0691268220543861389
0.0625977814197540283 0.505239605903625488 -0.0841483324766159058
-0.418789148330688477 -0.454586118459701538 0.0955186784267425537
-0.299859851598739624 0.469299018383026123 -0.0467243418097496033
-0.501968741416931152 0.226594835519790649 0.0762147456407546997
0.343432694673538208 -0.420457541942596436 0.081844523549079895
-0.335418641567230225 0.495040804147720337 -0.0549099817872047424
-0.359647691249847412 0.489664047956466675 0.0118188448250293732
-0.344431817531585693 0.504343628883361816 0.0466113388538360596
0.134591609239578247 -0.488019555807113647 -0.0561229288578033447
-0.330485761165618896 -0.445454716682434082 0.0725010931491851807
0.116822481155395508 0.479455471038818359 -0.0883459001779556274
0.411827266216278076 0.380489528179168701 -0.0755193084478378296
-0.534570515155792236 0.326578080654144287 0.0583491772413253784
0.383103013038635254 -0.475712329149246216 0.100330129265785217
0.504519820213317871 0.365537792444229126 -0.0780230313539505005
-0.495351165533065796 0.267081260681152344 0.0526439100503921509
0.487499237060546875 0.424753427505493164 -0.0999891161918640137
0.361193388700485229 -0.418852090835571289 0.0698103606700897217
-0.51545262336730957 0.318970829248428345 0.0468564033508300781
-0.336688995361328125 -0.461355119943618774 0.0929706394672393799
0.395936131477355957 -0.351722359657287598 0.0765302702784538269
0.515175223350524902 0.309194415807723999 -0.086898505687713623
-0.508407294750213623 0.360435307025909424 0.0526038855314254761
0.411360979080200195 0.447957426309585571 0.0920161902904510498
-0.44755178689956665 0.389294922351837158 0.037285149097442627
0.071330145001411438 -0.494279563426971436 0.010050162672996521
0.338185280561447144 -0.472920477390289307 0.0716043859720230103
0.429912716150283813 0.0698009654879570007 -0.0666985064744949341
0.347221523523330688 0.190086081624031067 -0.064161255955696106
-0.0652728527784347534 0.501645743846893311 -0.007421102374792099
0.0941385403275489807 0.467660278081893921 -0.0168011337518692017
0.382497072219848633 0.035374276340007782 -0.0721799880266189575
-0.284164518117904663 -0.48456147313117981 0.110958725214004517
0.0775685012340545654 -0.410884290933609009 -0.0271330364048480988
-0.389835596084594727 -0.423211216926574707 0.0852823704481124878
0.339415520429611206 0.504075169563293457 -0.0236804485321044922
0.436830759048461914 0.393472850322723389 -0.0851929038763046265
0.186220139265060425 0.389202684164047241 -0.0704590976238250732
0.28011244535446167 0.473401933908462524 -0.0458210259675979614
-0.443831562995910645 0.364356338977813721 -0.0192680507898330688
-0.129527926445007324 0.500430881977081299 0.0619080290198326111
0.0214432720094919205 -0.493323326110839844 -0.0353357642889022827
0.430456101894378662 -0.046280786395072937 0.0218587033450603485
-0.29592171311378479 0.406649559736251831 0.0452951937913894653
0.271681129932403564 0.321439564228057861 -0.0549501627683639526
-0.469192355871200562 -0.441379576921463013 -0.140140429139137268
0.415931850671768188 0.494968414306640625 0.0804154500365257263
-0.47919154167175293 0.138911470770835876 0.0148361548781394958
0.406495571136474609 -0.355558156967163086 -0.0282571688294410706
0.112825870513916016 -0.415249615907669067 -0.0137349143624305725
0.385670691728591919 -0.440612733364105225 0.11478114128112793
-0.404483616352081299 0.456328123807907104 0.0825717896223068237
0.21273551881313324 -0.469846248626708984 -0.0385655611753463745
0.446501672267913818 0.481391310691833496 0.0971215367317199707
-0.300670802593231201 -0.445122957229614258 -0.0278849862515926361
0.396425366401672363 0.464605778455734253 -0.1012449711561203
0.204639822244644165 0.456572651863098145 -0.0941872149705886841
-0.423428177833557129 0.416006863117218018 -0.0218353196978569031
0.440173298120498657 -0.0126419235020875931 -0.0549701005220413208
0.300870656967163086 0.47386324405670166 -0.0116497576236724854
0.12735515832901001 0.318466395139694214 -0.0611229687929153442
0.424881875514984131 -0.351558506488800049 -0.0242220945656299591
0.107628092169761658 -0.535053610801696777 -0.0706248879432678223
0.243743389844894409 0.4553699791431427 -0.106333509087562561
-0.361154437065124512 0.460128813982009888 -0.079498976469039917
0.430902540683746338 0.339029133319854736 -0.077341616153717041
0.499363452196121216 0.0202971398830413818 -0.0325647592544555664
0.125573337078094482 -0.474530875682830811 0.00239745527505874634
-0.489162057638168335 0.143361479043960571 0.00715892016887664795
0.38863670825958252 0.329290121793746948 -0.0698119997978210449
0.20134088397026062 -0.476310551166534424 0.0445834696292877197
-0.393132448196411133 -0.507005512714385986 0.161951258778572083
0.422940254211425781 0.478351026773452759 -0.112895429134368896
-0.235033899545669556 -0.484066188335418701 0.108063116669654846
0.129619315266609192 -0.0319636836647987366 -0.051767006516456604
0.329658389091491699 -0.419761896133422852 -0.0457646399736404419
-0.306411713361740112 0.475957572460174561 0.0661505609750747681
0.123238407075405121 0.520239830017089844 -0.104251265525817871
0.335303008556365967 -0.354762285947799683 -0.0417235642671585083
0.495705991983413696 0.00831810291856527328 -0.0184564292430877686
0.348873138427734375 -0.388952285051345825 -0.0418462865054607391
0.386419713497161865 -0.41103208065032959 0.109267130494117737
-0.499405741691589355 0.38850817084312439 0.0775699391961097717
0.36110571026802063 0.466051340103149414 -0.104972228407859802
-0.463265091180801392 0.409580111503601074 -0.03934459388256073
0.476357042789459229 0.0397351458668708801 -0.0521705895662307739
0.444452464580535889 0.471824049949645996 0.0530849620699882507
0.397761613130569458 0.0164219103753566742 0.0502716526389122009
0.121149830520153046 0.306413352489471436 -0.0513770580291748047
0.264832139015197754 -0.453718304634094238 0.0685642287135124207
0.396505236625671387 -0.34963071346282959 -0.0272940583527088165
-0.503629028797149658 0.371741384267807007 0.061351582407951355
0.18750077486038208 -0.495376139879226685 -0.0282057374715805054
-0.453879445791244507 0.423936277627944946 0.0271171778440475464
0.505716919898986816 0.355286985635757446 -0.07944449782371521
0.388329207897186279 -0.0421950146555900574 -0.0148945897817611694
0.0445997118949890137 -0.483233749866485596 0.0247338265180587769
-0.462883800268173218 0.393526703119277954 -0.102855443954467773
0.476837158203125 0.316271781921386719 -0.060963854193687439
0.390873491764068604 -0.0380499362945556641 -0.0163054615259170532
-0.33958086371421814 -0.461559087038040161 0.0881414562463760376
-0.489667445421218872 -0.460412770509719849 0.126362234354019165
0.433691531419754028 0.196723520755767822 -0.0660177618265151978
0.491770625114440918 -0.305880993604660034 -0.048989713191986084
-0.402934104204177856 0.450071573257446289 -0.0104027986526489258
-0.548484683036804199 0.366059541702270508 0.0205631107091903687
-0.293119072914123535 0.472834199666976929 -0.0308875143527984619
-0.511489152908325195 0.173890203237533569 0.0745007991790771484
0.448221504688262939 0.307673454284667969 -0.0496868938207626343
0.352276027202606201 0.504498600959777832 -0.0997406840324401855
-0.406250745058059692 0.47689056396484375 0.0478644371032714844
0.120257452130317688 -0.496378213167190552 -0.0819675475358963013
0.137509942054748535 0.424775511026382446 -0.0799521654844284058
0.421631991863250732 -0.437509804964065552 0.155626684427261353
-0.27338293194770813 -0.451610386371612549 0.0143269747495651245
-0.486155539751052856 0.416596531867980957 0.0779725164175033569
-0.445448815822601318 -0.453634858131408691 -0.114482387900352478
0.454862594604492188 -0.343373090028762817 0.0821929499506950378
0.317857205867767334 0.480556488037109375 -0.1028776615858078
-0.47915273904800415 0.300896584987640381 -0.0977754667401313782
-0.412669777870178223 -0.45654258131980896 0.09005013108253479
-0.508323550224304199 0.20459449291229248 0.0585703402757644653
0.432224273681640625 -0.397894114255905151 -0.0901199579238891602
0.152959853410720825 0.58687293529510498 -0.0697091668844223022
-0.295417279005050659 -0.599409759044647217 0.0717961341142654419
-0.525540530681610107 0.413219034671783447 0.0462764501571655273
0.497280716896057129 -0.00998723413795232773 -0.0203117877244949341
-0.349480688571929932 0.442642182111740112 0.0889267623424530029
0.491006582975387573 0.410828828811645508 -0.0964395850896835327
0.0416041016578674316 -0.678506195545196533 0.0247139036655426025
-0.531715214252471924 0.364310085773468018 0.0545966476202011108
-0.372729361057281494 -0.489450573921203613 0.0982822030782699585
-0.549453675746917725 0.343333244323730469 0.052745431661605835
-0.553627371788024902 0.438191592693328857 0.0673961341381072998
-0.0146994777023792267 0.620754837989807129 -0.0289047509431838989
0.466426998376846313 -0.388877838850021362 -0.0894562751054763794
0.149673387408256531 -0.605502188205718994 0.0669168531894683838
0.452531009912490845 0.468175619840621948 -0.122153282165527344
0.35092473030090332 0.452871352434158325 -0.0249880552291870117
-0.368488669395446777 0.421243786811828613 0.0644026845693588257
0.454576730728149414 0.394518285989761353 0.0175112038850784302
-0.48291778564453125 0.292150676250457764 0.0146633535623550415
-0.555377602577209473 0.398781657218933105 0.0763151645660400391
0.357101857662200928 0.563031852245330811 0.0199782140552997589
0.485828995704650879 -0.364131569862365723 -0.0747483968734741211
0.358410686254501343 0.351180136203765869 -0.0589135438203811646
-0.123415209352970123 0.458445757627487183 -0.0936619192361831665
0.415687203407287598 0.377772152423858643 -0.0778020024299621582
-0.548833727836608887 0.343180269002914429 0.0495445430278778076
0.462309122085571289 0.480795055627822876 -0.123338162899017334
0.320641160011291504 0.508990824222564697 -0.0927916914224624634
-0.408763468265533447 -0.523029804229736328 0.183928057551383972
0.295390814542770386 0.552126109600067139 -0.0454279780387878418
0.204613298177719116 0.582885921001434326 -0.0186431743204593658
0.318804711103439331 0.586448192596435547 -0.0249192137271165848
0.0654983371496200562 0.349294334650039673 -0.0649973303079605103
0.330080568790435791 0.00402196217328310013 -0.0134937241673469543
0.333536267280578613 -0.405705690383911133 0.023466058075428009
0.245938539505004883 -0.565135478973388672 -0.070222318172454834
0.363504350185394287 0.548928201198577881 0.015986025333404541
0.492662191390991211 0.425474345684051514 -0.11027921736240387
0.495723843574523926 0.0104004908353090286 0.0150066986680030823
-0.102505065500736237 -0.645568013191223145 0.0868907719850540161
0.480917572975158691 0.381059020757675171 -0.098950311541557312
-0.334249645471572876 -0.437182158231735229 0.0519666373729705811
-0.392999649047851562 -0.452283412218093872 -0.0703194290399551392
-0.487450599670410156 0.122123457491397858 0.0318833887577056885
0.250270485877990723 0.562522649765014648 -0.0616915673017501831
0.145926475524902344 0.610305249691009521 0.0337405800819396973
0.166652530431747437 -0.531592726707458496 -0.0433427691459655762
0.31011161208152771 -0.487061470746994019 -0.0808191001415252686
-0.0522754862904548645 -0.601527869701385498 0.0839455574750900269
0.463183939456939697 0.457875519990921021 -0.10563446581363678
0.441677272319793701 -0.442640304565429688 -0.0842482447624206543
0.173280119895935059 -0.612447142601013184 -0.0925073772668838501
0.427998632192611694 0.486080914735794067 0.0590848363935947418
0.381943851709365845 -0.0468701794743537903 -0.0130518153309822083
0.263128310441970825 0.477108657360076904 -0.102464810013771057
0.430190414190292358 -0.335875988006591797 -0.0867048650979995728
-0.534064292907714844 0.330558985471725464 0.0277144759893417358
-0.431091576814651489 0.463435173034667969 0.00285741686820983887
-0.483460873365402222 0.136660456657409668 0.076583564281463623
-0.308275282382965088 -0.599313497543334961 0.0567131340503692627
0.250946670770645142 0.543525934219360352 -0.0940659791231155396
0.311422109603881836 -0.126168251037597656 -0.039575040340423584
-0.43502575159072876 -0.468651354312896729 0.0861787647008895874
-0.310962200164794922 0.441139131784439087 0.0590617656707763672
0.217209711670875549 -0.676126956939697266 0.0399290174245834351
0.204185500741004944 -0.456399023532867432 -0.0411513745784759521
-0.305588573217391968 0.473949313163757324 -0.101690948009490967
0.424498587846755981 0.298421680927276611 -0.0474340170621871948
0.313326984643936157 -0.484481304883956909 0.0636645406484603882
0.451120048761367798 -0.136039674282073975 0.0609987154603004456
-0.405421942472457886 0.437705695629119873 0.0720003098249435425
0.37329864501953125 -0.548933625221252441 0.0235369876027107239
-0.342979311943054199 0.517615556716918945 0.071046680212020874
0.237640693783760071 -0.495343983173370361 -0.0777236521244049072
-0.397970795631408691 0.507093310356140137 -0.061155274510383606
-0.269503563642501831 -0.43792116641998291 0.0296172797679901123
-0.432824492454528809 -0.459380805492401123 -0.0408807918429374695
0.20663025975227356 0.515263259410858154 -0.0910714864730834961
0.245563149452209473 0.469826757907867432 -0.0918350666761398315
0.360121846199035645 0.469745516777038574 -0.0896748155355453491
0.189284667372703552 -0.459778666496276855 0.0784565359354019165
-0.431839108467102051 0.302916616201400757 -0.0696315690875053406
0.280063718557357788 -0.492991894483566284 0.07935313880443573
-0.507097840309143066 0.224301159381866455 0.0528289675712585449
0.277563929557800293 0.522784292697906494 -0.0914380401372909546
0.154639080166816711 0.587538540363311768 -0.067528948187828064
-0.285288840532302856 -0.589685320854187012 0.0699066519737243652
-0.166747808456420898 0.520805656909942627 -0.0837797969579696655
-0.509491682052612305 0.244101822376251221 0.0587445199489593506
0.485744833946228027 0.395864218473434448 -0.0908319950103759766
0.330003052949905396 -0.463601261377334595 0.0388405323028564453
0.323916852474212646 -0.507279813289642334 0.128916054964065552
0.366439223289489746 -0.480472803115844727 0.130643784999847412
0.361669331789016724 -0.545093297958374023 0.0815933793783187866
-0.352257281541824341 -0.495970249176025391 0.0912927836179733276
0.328895270824432373 0.489154249429702759 -0.0991473346948623657
-0.0988975316286087036 -0.549858212471008301 0.0728918164968490601
-0.540280342102050781 0.312391132116317749 0.0710985958576202393
0.256593227386474609 0.605704665184020996 -0.0262538492679595947
0.246857970952987671 -0.554859161376953125 0.0683026909828186035
0.0731781125068664551 -0.66221541166305542 -0.0121700242161750793
0.303659141063690186 0.523688614368438721 -0.0901344567537307739
0.330383390188217163 -0.538099527359008789 0.0725093483924865723
0.218841060996055603 0.393544405698776245 -0.0658600777387619019
0.522784769535064697 0.35800701379776001 -0.09703846275806427
0.433888226747512817 0.0437545254826545715 -0.0582785457372665405
0.274555444717407227 0.489663213491439819 -0.0618826299905776978
0.269110679626464844 0.368512600660324097 -0.0599753260612487793
-0.389714300632476807 -0.474075108766555786 -0.118026837706565857
0.405763626098632812 -0.419434398412704468 0.0559892952442169189
-0.548905134201049805 0.346076369285583496 0.0578781366348266602
-0.547760426998138428 0.455094248056411743 0.0627970695495605469
0.496181994676589966 -0.406234562397003174 -0.0741139352321624756
0.159165069460868835 -0.60227656364440918 0.0683453157544136047
0.363945364952087402 0.466682702302932739 -0.000444710254669189453
0.512694299221038818 0.324612557888031006 -0.0869783014059066772
-0.550609290599822998 0.347453832626342773 0.0423051118850708008
0.424673914909362793 0.480659186840057373 -0.11372356116771698
0.29184567928314209 0.550217747688293457 -0.0359330922365188599
0.131068766117095947 0.455830901861190796 -0.0590830892324447632
0.311945796012878418 0.590808093547821045 -0.0112151158973574638
0.479287683963775635 0.420228689908981323 -0.109521523118019104
0.221559032797813416 0.567775964736938477 -0.0603180229663848877
0.108564399182796478 0.619069218635559082 0.0420587211847305298
-0.0425444319844245911 -0.596673309803009033 0.0745962560176849365
0.107701286673545837 0.512733101844787598 -0.103417858481407166
0.459499955177307129 -0.419632017612457275 -0.0877944678068161011
0.280430436134338379 -0.0257198791950941086 -0.0370375365018844604
0.459847509860992432 0.0327877067029476166 0.030599791556596756
0.0302495937794446945 -0.477674186229705811 -0.0492748469114303589
-0.456468015909194946 0.387638360261917114 -0.0308159943670034409
-0.337195217609405518 0.414111852645874023 0.0120554119348526001
-0.291580557823181152 0.452524840831756592 -0.0557843148708343506
-0.462828695774078369 0.326191544532775879 -0.110306710004806519
-0.296894967555999756 0.490559577941894531 0.0163169652223587036
0.263760268688201904 -0.465514600276947021 -0.0797514468431472778
0.146903693675994873 -0.425119161605834961 -0.037417873740196228
0.362589091062545776 0.437549114227294922 0.00511489063501358032
-0.444519579410552979 0.105541646480560303 -0.0572814866900444031
0.430627405643463135 0.452405273914337158 0.00833920389413833618
0.25918462872505188 0.0548148229718208313 -0.0583725422620773315
0.409048080444335938 0.20375390350818634 -0.0750162303447723389
0.100934833288192749 -0.516176998615264893 0.0855236724019050598
-0.476764678955078125 0.401153624057769775 -0.0873208567500114441
-0.418677866458892822 0.307955145835876465 -0.100876100361347198
0.247407197952270508 0.462507486343383789 -0.0965179204940795898
0.222798317670822144 -0.484069287776947021 -0.0424574315547943115
0.472741067409515381 -0.316101431846618652 -0.0489850789308547974
0.444242238998413086 0.463515549898147583 -0.111608713865280151
0.333098769187927246 -0.0435584858059883118 -0.0172757059335708618
-0.487061917781829834 -0.458144962787628174 0.119998827576637268
0.297235846519470215 -0.477734386920928955 -0.0831615179777145386
-0.429190099239349365 0.463177978992462158 0.103393509984016418
0.480329215526580811 0.270186901092529297 -0.117829889059066772
-0.552877545356750488 0.368289977312088013 0.04380016028881073
-0.420140683650970459 0.466823995113372803 -0.00931680947542190552
0.510430634021759033 0.458574146032333374 -0.128476053476333618
0.36102759838104248 -0.402769684791564941 0.0632569491863250732
0.369131982326507568 0.543576538562774658 0.0351169109344482422
-0.438482284545898438 -0.492342650890350342 0.135079115629196167
-0.306097418069839478 0.455144673585891724 0.0829675495624542236
-0.547994852066040039 0.39969971776008606 0.0742908269166946411
0.128530591726303101 -0.669248878955841064 0.0076619759202003479
0.211483031511306763 -0.461264580488204956 -0.0470082610845565796
-0.38075411319732666 -0.511054277420043945 0.144650086760520935
-0.311118543148040771 0.469931215047836304 -0.103437408804893494
-0.432241916656494141 -0.497431814670562744 0.126591429114341736
-0.337969809770584106 -0.502381563186645508 0.0935021638870239258
0.435378372669219971 0.241797998547554016 -0.0841039419174194336
-0.397109270095825195 0.430536925792694092 0.082880854606628418
0.427373111248016357 0.482437938451766968 0.105935662984848022
0.343997687101364136 -0.502007603645324707 0.132227256894111633
0.269525051116943359 -0.4861583411693573 -0.0726779699325561523
-0.454003423452377319 0.473048359155654907 0.0820378810167312622
-0.402072310447692871 0.52199321985244751 -0.0097732841968536377
0.386477828025817871 -0.438756674528121948 0.121018126606941223
0.0286712348461151123 -0.474098920822143555 0.0642805770039558411
0.421544194221496582 0.465643435716629028 0.100464090704917908
0.34037548303604126 -0.548353493213653564 -0.00356857478618621826
0.354984521865844727 -0.47498968243598938 0.0875260531902313232
0.314456433057785034 -0.510573387145996094 0.1095929816365242
0.214211344718933105 0.510516822338104248 -0.0888581126928329468
0.235143601894378662 -0.499007105827331543 -0.0774795860052108765
0.260761439800262451 -0.568331003189086914 0.0801230594515800476
0.314419329166412354 0.467862814664840698 -0.0919819176197052002
0.206021785736083984 0.487613469362258911 -0.0888200700283050537
0.527858912944793701 0.325138062238693237 -0.0787294358015060425
0.134271249175071716 0.50727999210357666 -0.0883412063121795654
-0.474732041358947754 -0.461599141359329224 0.103626653552055359
0.478007197380065918 -0.391027003526687622 -0.0709143728017807007
-0.558861076831817627 0.446249336004257202 0.0721849650144577026
-0.517442822456359863 0.250220209360122681 0.0590354949235916138
0.492679595947265625 0.454676061868667603 -0.124848946928977966
0.356766492128372192 -0.426781833171844482 -0.0392082743346691132
-0.561270356178283691 0.467321068048477173 0.0708648115396499634
-0.489005178213119507 -0.0291718430817127228 -0.0329548418521881104
-0.366909146308898926 0.497697830200195312 0.0356164723634719849
-0.416081875562667847 0.478440076112747192 -0.0160289108753204346
0.3638266921043396 -0.55218738317489624 0.0722736865282058716
-0.324211776256561279 -0.469114571809768677 0.0782306939363479614
-0.378053039312362671 0.473392456769943237 -0.00676017627120018005
0.338464498519897461 -0.503669977188110352 0.129161685705184937
0.505012571811676025 0.344624876976013184 -0.0854145735502243042
-0.317242801189422607 0.522493720054626465 0.0672698915004730225
0.146259993314743042 -0.605616927146911621 0.0660194605588912964
0.21660199761390686 -0.676526963710784912 0.0468773543834686279
0.178043067455291748 0.394886225461959839 -0.0605614930391311646
0.483675479888916016 0.431194484233856201 0.0694488734006881714
0.452907323837280273 0.463407963514328003 0.0685219764709472656
-0.540452182292938232 0.359037309885025024 0.0334110110998153687
-0.305976569652557373 -0.622173547744750977 -0.00413058698177337646
-0.540485739707946777 0.313945949077606201 0.069907069206237793
-0.543782472610473633 0.431195825338363647 0.0699072927236557007
0.465230613946914673 -0.386784851551055908 -0.0896849632263183594
-0.538543701171875 0.358658671379089355 0.0593546032905578613
0.475690543651580811 0.470278233289718628 -0.125109359622001648
0.190987467765808105 0.471847891807556152 -0.0427317321300506592
0.261792361736297607 0.577817320823669434 -0.0390352532267570496
-0.299088627099990845 -0.439105212688446045 0.0643332004547119141
0.00417470932006835938 0.528440177440643311 -0.0937842130661010742
-0.183273732662200928 -0.440320044755935669 0.0235865265130996704
0.427336931228637695 -0.440410643815994263 -0.0826369524002075195
0.283980101346969604 -0.483963161706924438 -0.0833038538694381714
0.497651189565658569 0.385356485843658447 -0.0929112881422042847
-0.373668074607849121 -0.50073927640914917 0.106506481766700745
0.178726077079772949 0.389695256948471069 -0.066921040415763855
-0.537916600704193115 0.415001004934310913 0.0752461403608322144
0.513054490089416504 0.3397083580493927 -0.0868315696716308594
0.110410265624523163 0.521912753582000732 -0.105554267764091492
-0.498615443706512451 -0.0644483417272567749 0.0155208185315132141
0.254222661256790161 -0.0262307934463024139 -0.0370307713747024536
0.0652419254183769226 -0.468659400939941406 -0.0562789738178253174
-0.463153183460235596 0.294147312641143799 0.00239545106887817383
0.455538719892501831 -0.399409174919128418 -0.0874924510717391968
-0.478530764579772949 0.453509479761123657 0.0936593711376190186
-0.463006764650344849 0.0884441658854484558 -0.0668376237154006958
-0.421267122030258179 0.30439266562461853 -0.0906626209616661072
0.462485253810882568 0.45685240626335144 -0.105851233005523682
0.441170573234558105 -0.388367414474487305 0.021887853741645813
0.2179412841796875 -0.436702996492385864 0.073838844895362854
0.333554923534393311 -0.429773390293121338 -0.00593089312314987183
0.209772944450378418 0.426823884248733521 -0.0786394327878952026
-0.38854023814201355 -0.436027437448501587 -0.117966547608375549
0.388198494911193848 0.427227020263671875 -0.0912300795316696167
0.164801046252250671 -0.630707323551177979 0.0633670762181282043
-0.0249875355511903763 -0.593450248241424561 0.0885582640767097473
0.29906308650970459 0.485000699758529663 -0.0889927446842193604
-0.27252689003944397 0.562507033348083496 0.134622454643249512
