ply
format ascii 1.0
element vertex 739
property float x
property float y
property float z
end_header
-0.684198737144470215 0.344604969024658203 0.228746563196182251
0.659273087978363037 0.337906002998352051 -0.155361786484718323
-0.489597886800765991 -0.35723993182182312 -0.228231161832809448
-0.688059210777282715 0.566969335079193115 0.222961589694023132
0.483197718858718872 -0.45209929347038269 0.0495188981294631958
0.665418386459350586 0.350384503602981567 -0.137002289295196533
-0.698326706886291504 0.292920380830764771 0.207001388072967529
-0.630537152290344238 -0.0293229799717664719 -0.178015649318695068
-0.615146160125732422 -0.259345769882202148 -0.261132776737213135
0.660742580890655518 -0.12782016396522522 -0.210956484079360962
-0.273926436901092529 -0.555478155612945557 -0.217673599720001221
-0.727241635322570801 0.150258034467697144 0.0637890547513961792
-0.27894514799118042 -0.561307370662689209 -0.230958282947540283
0.666109204292297363 -0.0635325536131858826 -0.20419137179851532
0.596346378326416016 -0.416282594203948975 -0.245715945959091187
0.532343387603759766 0.450765758752822876 0.0214066002517938614
-0.608285069465637207 0.215580999851226807 -0.126140564680099487
-0.809146523475646973 0.571334779262542725 0.209621056914329529
0.448437780141830444 -0.554002642631530762 -0.209756508469581604
0.694788277149200439 -0.3038826584815979 -0.291815668344497681
-0.567942380905151367 -0.193342909216880798 -0.13847900927066803
-0.791577816009521484 0.564546287059783936 0.228175416588783264
-0.34395521879196167 0.497929424047470093 0.248612508177757263
0.155221492052078247 0.241113930940628052 0.184309333562850952
0.63914567232131958 0.314262300729751587 0.123659387230873108
0.706283211708068848 -0.120512321591377258 0.0219555050134658813
-0.00942117534577846527 0.634529948234558105 0.294210255146026611
-0.654027998447418213 0.00822327658534049988 -0.19312073290348053
-0.520176529884338379 -0.117040306329727173 -0.108819589018821716
0.610903680324554443 -0.142732247710227966 -0.138179674744606018
-0.433891355991363525 -0.389182507991790771 -0.215804904699325562
0.668651401996612549 -0.090961158275604248 -0.164073571562767029
-0.573913097381591797 -0.365135341882705688 -0.258765637874603271
0.603864431381225586 -0.204277992248535156 -0.198083668947219849
-0.345336973667144775 -0.284656375646591187 -0.103071197867393494
0.576364874839782715 -0.282137513160705566 -0.260504543781280518
-0.637550711631774902 -0.511617064476013184 0.180930957198143005
0.652276277542114258 -0.241952270269393921 -0.225899010896682739
0.694699466228485107 0.0701345652341842651 -0.151068896055221558
0.644045174121856689 -0.205517411231994629 -0.155726686120033264
-0.419523805379867554 -0.208335921168327332 -0.0831810161471366882
0.392212778329849243 0.120423167943954468 0.0658178478479385376
-0.630044043064117432 -0.282525181770324707 -0.271415591239929199
-0.46365019679069519 -0.222338482737541199 -0.141111880540847778
-0.343325018882751465 -0.349507778882980347 -0.127852141857147217
-0.578203439712524414 0.0522193089127540588 -0.0394649803638458252
-0.747982263565063477 0.153152123093605042 0.126738846302032471
-0.633874118328094482 -0.292686820030212402 -0.274570286273956299
-0.552147924900054932 -0.353250354528427124 -0.24475078284740448
0.556514441967010498 0.0808833763003349304 -0.117265135049819946
-0.134674072265625 -0.358203113079071045 -0.16597786545753479
-0.342689484357833862 -0.257787406444549561 -0.0759364813566207886
-0.581673979759216309 0.296502172946929932 -0.0511106885969638824
-0.490245670080184937 -0.269746363162994385 -0.151957705616950989
-0.32222449779510498 -0.34181368350982666 -0.146851569414138794
-0.545533895492553711 0.0551762580871582031 -0.0614683777093887329
-0.541703104972839355 -0.1572742760181427 -0.139566302299499512
-0.415188342332839966 -0.240211412310600281 -0.109649002552032471
-0.412204116582870483 -0.378632664680480957 -0.170872032642364502
-0.388946175575256348 -0.335141927003860474 -0.120771095156669617
0.704169869422912598 0.133394032716751099 -0.244275480508804321
0.68216937780380249 -0.126241952180862427 -0.273277848958969116
0.696542680263519287 0.164947688579559326 -0.109189093112945557
0.720442533493041992 -0.0497378669679164886 -0.281334251165390015
0.688647150993347168 -0.2729148268699646 -0.283905833959579468
0.66629260778427124 0.445442467927932739 -0.138752728700637817
0.51599431037902832 -0.159589588642120361 0.061640717089176178
0.706142723560333252 0.414498418569564819 -0.132684990763664246
0.761260151863098145 -0.297189921140670776 -0.29121166467666626
0.751176953315734863 -0.251324951648712158 -0.291978716850280762
0.652111232280731201 0.0742041096091270447 -0.0529214106500148773
0.746992349624633789 -0.324846804141998291 -0.309539198875427246
0.571816086769104004 0.356000423431396484 -0.0946722924709320068
-0.629323840141296387 0.183777749538421631 -0.124611645936965942
0.49925541877746582 -0.202589362859725952 0.0443414002656936646
-0.683570742607116699 0.523336529731750488 0.241726070642471313
-0.544615745544433594 0.339582681655883789 -0.0716776996850967407
0.689128756523132324 -0.36577761173248291 -0.295789808034896851
-0.589969873428344727 0.173688188195228577 0.064763486385345459
0.605569124221801758 -0.286181718111038208 -0.242777332663536072
-0.447896957397460938 -0.37406650185585022 -0.199822738766670227
0.659725189208984375 0.127665787935256958 -0.154263243079185486
-0.448781520128250122 -0.355219185352325439 -0.0102609694004058838
0.73854905366897583 -0.378506451845169067 -0.303861141204833984
0.687119066715240479 0.15879356861114502 -0.254012703895568848
0.652035832405090332 -0.0854145511984825134 -0.167085051536560059
0.65879899263381958 0.234142482280731201 -0.18580976128578186
0.740785181522369385 -0.301547437906265259 -0.296144604682922363
0.747011005878448486 -0.218336522579193115 -0.290669649839401245
-0.748442888259887695 0.492177307605743408 0.183629870414733887
0.664996445178985596 0.360220998525619507 -0.125362396240234375
0.70211261510848999 -0.277649253606796265 -0.24431435763835907
-0.313225001096725464 -0.561930656433105469 -0.220008999109268188
0.700127840042114258 0.157663390040397644 -0.17895042896270752
0.700377285480499268 -0.0719827935099601746 -0.278573691844940186
0.237881392240524292 -0.599686503410339355 -0.205610349774360657
-0.924491405487060547 0.0915618985891342163 0.119114220142364502
-0.623349785804748535 0.624292373657226562 0.267859488725662231
-0.679282248020172119 0.319656729698181152 0.211059913039207458
0.684102296829223633 0.339716881513595581 -0.187064975500106812
-0.598546683788299561 0.00827743113040924072 -0.152701348066329956
-0.70021975040435791 0.456180095672607422 0.233160838484764099
-0.537094175815582275 -0.339326441287994385 -0.23790973424911499
0.702529847621917725 0.39138457179069519 -0.156182125210762024
0.661294877529144287 -0.107127301394939423 -0.30106508731842041
-0.698893070220947266 0.459798902273178101 0.249498307704925537
0.721037924289703369 0.368351936340332031 -0.16600818932056427
-0.692641973495483398 0.20304495096206665 0.19945216178894043
0.62607872486114502 -0.152178660035133362 -0.181957975029945374
-0.712530195713043213 0.412369430065155029 0.226807832717895508
-0.0547705814242362976 0.54085695743560791 0.0531785041093826294
-0.381798863410949707 0.59219062328338623 0.259552180767059326
-0.767197608947753906 0.511546194553375244 0.183382898569107056
-0.535119116306304932 0.29346233606338501 -0.0555939190089702606
0.663816690444946289 -0.323436617851257324 -0.283459842205047607
-0.141914740204811096 0.582960903644561768 0.332243025302886963
-0.690553545951843262 0.440849483013153076 0.245732814073562622
-0.824132263660430908 0.164205655455589294 0.121062800288200378
-0.455241918563842773 -0.353772461414337158 -0.167291522026062012
-0.775607466697692871 0.388894587755203247 0.24687117338180542
-0.55692899227142334 -0.372410595417022705 -0.246175378561019897
0.700825393199920654 -0.0728029459714889526 -0.286811232566833496
0.221020996570587158 -0.567153513431549072 -0.225183159112930298
-0.654403269290924072 0.529687762260437012 0.258988082408905029
0.610157370567321777 -0.208949580788612366 0.0618804097175598145
-0.590521752834320068 0.376306623220443726 -0.0772815048694610596
0.461073756217956543 -0.469800055027008057 0.0591003149747848511
0.658716738224029541 -0.0818198695778846741 -0.262630105018615723
-0.820493519306182861 0.19354933500289917 0.138853013515472412
-0.587579488754272461 -0.362079739570617676 -0.264295190572738647
0.580445587635040283 -0.162414208054542542 -0.152582883834838867
0.28663259744644165 -0.667337894439697266 -0.223030224442481995
-0.7792205810546875 0.494769692420959473 0.2579001784324646
-0.408574342727661133 -0.332627266645431519 -0.141382187604904175
-0.418373465538024902 -0.372407704591751099 -0.184349566698074341
-0.734373629093170166 0.564107894897460938 0.238642141222953796
-0.0596757084131240845 0.507063984870910645 0.300651997327804565
-0.602083027362823486 -0.349605053663253784 -0.265743911266326904
-0.573093831539154053 -0.432367414236068726 0.169213384389877319
0.660584688186645508 -0.213775873184204102 -0.232578039169311523
-0.519492745399475098 -0.20499090850353241 -0.125267192721366882
-0.541112601757049561 -0.355109155178070068 -0.24398253858089447
-0.44489741325378418 -0.32147631049156189 -0.16078968346118927
0.0338988155126571655 0.550650596618652344 0.304339110851287842
-0.743418276309967041 0.150513708591461182 0.0619972646236419678
-0.566220998764038086 -0.156699836254119873 -0.133666560053825378
-0.637461960315704346 -0.242739707231521606 -0.27255094051361084
-0.41569480299949646 0.428882718086242676 0.00625359639525413513
-0.385811001062393188 -0.343490689992904663 -0.143702894449234009
0.666822671890258789 0.158541113138198853 -0.0889928042888641357
0.474841088056564331 0.111658811569213867 0.038380056619644165
0.638207733631134033 -0.480284273624420166 -0.31907421350479126
-0.490750759840011597 -0.263521164655685425 -0.157517269253730774
-0.955979287624359131 0.0778132528066635132 0.121378421783447266
0.278327584266662598 -0.601844370365142822 -0.213225841522216797
0.560853958129882812 -0.0421206355094909668 -0.122138664126396179
0.576846897602081299 -0.569784462451934814 -0.272219687700271606
-0.820359706878662109 0.205098390579223633 0.00270424783229827881
-0.534201204776763916 0.183380305767059326 -0.062109682708978653
-0.989422321319580078 0.0173458345234394073 0.0586695075035095215
-0.872658252716064453 0.0514074265956878662 0.184561997652053833
-0.486181139945983887 -0.350537806749343872 -0.183785378932952881
0.658134818077087402 -0.0748838111758232117 -0.167319983243942261
0.705308437347412109 0.138802319765090942 -0.253904879093170166
0.660100698471069336 -0.135154187679290771 -0.314372032880783081
0.685943722724914551 0.120502553880214691 -0.142611593008041382
0.690430104732513428 -0.265160173177719116 -0.278424918651580811
0.715960502624511719 0.404100656509399414 -0.136980459094047546
0.30065569281578064 -0.55317223072052002 -0.174086779356002808
-0.333406329154968262 0.546718716621398926 0.09031715989112854
0.66798555850982666 0.0495795011520385742 -0.198572948575019836
0.591452121734619141 -0.0184104815125465393 -0.205381810665130615
0.583056986331939697 -0.440456092357635498 -0.267121702432632446
-0.534158825874328613 0.599102795124053955 0.257687628269195557
0.654121279716491699 0.474528193473815918 -0.119217872619628906
0.600210070610046387 0.195084095001220703 -0.130835220217704773
-0.633886039257049561 0.114600516855716705 -0.131525933742523193
0.647878050804138184 0.246159523725509644 -0.0561609566211700439
0.376896589994430542 -0.35013851523399353 -0.17901727557182312
0.622357726097106934 -0.46580621600151062 -0.31069454550743103
0.54792022705078125 -0.593458294868469238 -0.255962908267974854
-0.409055113792419434 -0.396688222885131836 -0.190083682537078857
0.680354118347167969 0.166512429714202881 -0.183572769165039062
0.651119232177734375 -0.053216785192489624 -0.187232464551925659
-0.377447545528411865 -0.384341835975646973 -0.163120463490486145
0.693649411201477051 0.146629184484481812 -0.199153602123260498
0.551967799663543701 0.250971525907516479 -0.0943814069032669067
0.482471823692321777 -0.164491459727287292 0.0387936979532241821
0.735324203968048096 -0.349649667739868164 -0.312712401151657104
0.694449126720428467 0.125405251979827881 -0.145903989672660828
0.695437908172607422 -0.0635204464197158813 -0.28796425461769104
0.547789096832275391 0.477598130702972412 0.0130862025544047356
-0.685373187065124512 0.460176587104797363 0.242527201771736145
-0.633748173713684082 0.611415863037109375 0.284577667713165283
0.675993919372558594 0.302544325590133667 -0.16888466477394104
-0.665795743465423584 0.485095500946044922 0.238190501928329468
-0.611388921737670898 0.0108064748346805573 -0.164924114942550659
0.724588274955749512 0.409771889448165894 -0.171499446034431458
-0.677847921848297119 0.46082577109336853 0.249682456254959106
-0.807976901531219482 0.0995381250977516174 0.134238600730895996
0.680536329746246338 0.330382496118545532 -0.162480816245079041
-0.592999041080474854 -0.366260290145874023 -0.257063686847686768
0.671605706214904785 -0.0878860801458358765 -0.186150744557380676
-0.613870501518249512 0.225741460919380188 -0.112374179065227509
-0.653825283050537109 0.24751223623752594 -0.109206482768058777
-0.728526055812835693 0.525422811508178711 0.237408071756362915
-0.491193979978561401 -0.178344905376434326 -0.0565451867878437042
-0.372739881277084351 -0.346860826015472412 -0.141851678490638733
-0.75859522819519043 0.440692633390426636 0.265880823135375977
-0.755124390125274658 0.518800556659698486 0.256118893623352051
0.0977751463651657104 -0.573951482772827148 -0.174727395176887512
0.570188939571380615 -0.185834139585494995 -0.20397716760635376
0.553481221199035645 0.327522635459899902 0.140014782547950745
0.563828051090240479 -0.562486171722412109 -0.247075781226158142
-0.17656978964805603 -0.583982944488525391 -0.180837616324424744
0.66640859842300415 -0.0269619785249233246 -0.230830445885658264
-0.827854573726654053 0.270604550838470459 0.154478326439857483
-0.194302767515182495 0.501081407070159912 0.324606090784072876
-0.357550472021102905 -0.347482442855834961 -0.140638858079910278
-0.627908289432525635 -0.292368024587631226 -0.273573875427246094
-0.516089558601379395 -0.16438080370426178 -0.123751059174537659
-0.616092979907989502 -0.240496665239334106 -0.268048644065856934
-0.419334560632705688 -0.347994416952133179 -0.153047487139701843
-0.5033378005027771 0.442113697528839111 -0.00878710299730300903
0.7056732177734375 0.40270310640335083 -0.138537555932998657
0.62982642650604248 -0.477354168891906738 -0.319899320602416992
0.563019990921020508 -0.362159639596939087 -0.244581311941146851
-0.529910922050476074 -0.354014873504638672 -0.161635652184486389
0.669437408447265625 0.118376761674880981 -0.119699612259864807
0.674723565578460693 0.269044727087020874 -0.144961297512054443
-0.655040979385375977 0.00832911953330039978 -0.194161683320999146
-0.380851984024047852 -0.391272515058517456 -0.179042845964431763
-0.224179685115814209 0.582164227962493896 0.292276263236999512
-0.755365610122680664 0.508790671825408936 0.249462559819221497
0.748138785362243652 -0.266696393489837646 -0.293504655361175537
0.552514255046844482 -0.528264224529266357 -0.236966907978057861
-1.03737902641296387 0.296154707670211792 0.105058729648590088
-0.469874739646911621 -0.346873372793197632 -0.187906712293624878
0.30301550030708313 -0.628306210041046143 -0.237221002578735352
-0.507234871387481689 -0.289125978946685791 -0.212830320000648499
0.30077749490737915 -0.576640784740447998 -0.185347124934196472
-0.63994145393371582 0.301229774951934814 -0.0995052754878997803
-0.49729841947555542 0.348074853420257568 -0.00492956116795539856
-0.36147502064704895 -0.339429765939712524 -0.131639301776885986
-0.416135162115097046 -0.360492080450057983 -0.164108648896217346
-0.442098647356033325 0.317222505807876587 0.0410115718841552734
0.599176883697509766 -0.461811959743499756 -0.31012842059135437
-0.617110133171081543 -0.130001366138458252 -0.179952919483184814
-0.453498125076293945 -0.347601383924484253 -0.174549847841262817
0.592572510242462158 -0.0362899340689182281 -0.049488212913274765
-0.628445923328399658 0.630845427513122559 0.267875909805297852
-0.87720954418182373 0.279059350490570068 0.127851203083992004
0.605612874031066895 -0.188086614012718201 -0.187209904193878174
0.696538686752319336 -0.0983712822198867798 -0.308581441640853882
0.705736160278320312 -0.226253002882003784 -0.27502906322479248
0.690715670585632324 0.447233825922012329 -0.137731835246086121
0.445787042379379272 -0.373893797397613525 -0.0149720842018723488
0.55684363842010498 -0.155769035220146179 0.0580903142690658569
0.636903226375579834 -0.0433110632002353668 -0.228600978851318359
0.64033740758895874 0.414437800645828247 -0.125467479228973389
0.714042544364929199 0.219850838184356689 -0.234594136476516724
-0.620010614395141602 0.189444541931152344 -0.110800333321094513
0.615666210651397705 0.362454086542129517 0.114960387349128723
0.422114074230194092 -0.339587211608886719 -0.1701507568359375
0.434796184301376343 -0.354751557111740112 0.124997735023498535
0.685192465782165527 -0.474766403436660767 -0.348985463380813599
0.31298789381980896 -0.256682872772216797 0.0428153946995735168
0.617214322090148926 0.328736722469329834 -0.105890706181526184
0.6310996413230896 -0.0765022635459899902 -0.165327280759811401
0.651720345020294189 0.0866941884160041809 -0.148937419056892395
0.699913382530212402 0.196546420454978943 -0.215191558003425598
0.594781160354614258 -0.182225525379180908 -0.127444162964820862
0.738163769245147705 -0.0318168103694915771 0.0579529032111167908
0.677911102771759033 0.186767995357513428 -0.189815238118171692
0.734292685985565186 -0.256397843360900879 -0.288192808628082275
0.744950950145721436 -0.255226165056228638 -0.284974128007888794
0.552019417285919189 0.261935591697692871 -0.097224697470664978
0.503722310066223145 -0.237848103046417236 0.0380773544311523438
0.670091807842254639 0.132623672485351562 -0.203791037201881409
-0.739228129386901855 0.445747911930084229 0.23993934690952301
0.110967859625816345 -0.63693082332611084 -0.158217906951904297
0.713783502578735352 -0.0525903031229972839 -0.289767026901245117
0.494596749544143677 0.471050888299942017 0.00371429417282342911
-0.64292299747467041 0.666777610778808594 0.279236108064651489
0.670782327651977539 0.305032253265380859 -0.178794562816619873
-0.679692864418029785 0.434267818927764893 0.238989263772964478
0.66372370719909668 0.431651800870895386 -0.15304352343082428
0.709524869918823242 0.373550057411193848 -0.183788925409317017
0.586352646350860596 -0.148461729288101196 -0.145346015691757202
-0.328384220600128174 -0.430944681167602539 -0.179998800158500671
-0.221609443426132202 0.452562689781188965 0.0291126742959022522
-0.817851901054382324 0.4584389328956604 0.200173601508140564
-0.467019855976104736 -0.150785624980926514 -0.0768723636865615845
-0.775259733200073242 0.396597117185592651 0.23896472156047821
-0.549905598163604736 0.600114941596984863 0.278328776359558105
-0.191665500402450562 -0.539566993713378906 -0.21373923122882843
-0.31912839412689209 -0.557398617267608643 -0.223542094230651855
0.238610535860061646 -0.602559506893157959 -0.205590158700942993
-0.76756817102432251 0.219985216856002808 0.166779085993766785
0.463864952325820923 0.344959139823913574 0.0667027533054351807
-0.380668431520462036 -0.332802772521972656 -0.148463577032089233
-0.613345026969909668 -0.436679720878601074 0.162843182682991028
-0.603080809116363525 -0.319958865642547607 -0.268271028995513916
-0.526496648788452148 -0.147904247045516968 -0.136702954769134521
-0.642560601234436035 -0.285422921180725098 -0.279176145792007446
0.453956902027130127 0.0185068398714065552 -0.0993553102016448975
0.670763194561004639 0.117803670465946198 -0.119105786085128784
0.666474401950836182 0.144796490669250488 -0.152146190404891968
-0.735437691211700439 0.462508022785186768 0.206414416432380676
-0.703595578670501709 0.416065514087677002 0.233640432357788086
-0.327454686164855957 0.557156562805175781 0.286666512489318848
-0.861500084400177002 0.0428981855511665344 0.0846409350633621216
-0.195390477776527405 -0.537125527858734131 -0.152068972587585449
-0.706413388252258301 0.563338398933410645 0.294428855180740356
-0.452767610549926758 -0.360687702894210815 -0.013520505279302597
-0.687385857105255127 0.473988085985183716 0.248915344476699829
-0.745320975780487061 0.384024858474731445 0.233331695199012756
-0.203981801867485046 -0.553413569927215576 -0.194263428449630737
-0.884085774421691895 0.288388162851333618 0.139687612652778625
0.618462622165679932 0.456029981374740601 0.164725363254547119
-0.945325374603271484 0.150449633598327637 0.11298273503780365
0.0683473572134971619 -0.626022458076477051 -0.158990770578384399
-0.374996304512023926 -0.331036984920501709 -0.129919335246086121
-0.856025218963623047 0.344307929277420044 0.184384986758232117
0.564328908920288086 0.397332370281219482 -0.0350256189703941345
0.680500388145446777 0.100872203707695007 0.0620881766080856323
0.514762401580810547 -0.438499361276626587 -0.222376152873039246
-0.500372648239135742 -0.361562609672546387 -0.225968241691589355
-0.60285484790802002 -0.341531932353973389 -0.263217121362686157
-0.62114107608795166 -0.329166382551193237 -0.268230229616165161
-0.542191982269287109 0.401348412036895752 -0.0399287231266498566
-0.401271909475326538 -0.364739149808883667 -0.166107341647148132
-0.521986842155456543 -0.121087461709976196 -0.100120410323143005
0.666877031326293945 0.0146261546760797501 -0.178610578179359436
0.55595242977142334 0.0861035287380218506 0.000188997015357017517
-0.122500061988830566 0.577853679656982422 0.115488067269325256
0.563784122467041016 -0.0758881419897079468 0.0335174202919006348
-0.476828068494796753 -0.354394286870956421 -0.0380104631185531616
0.474153280258178711 -0.0363735221326351166 -0.0241394080221652985
0.612436175346374512 -0.106545835733413696 -0.120456628501415253
-0.577359259128570557 -0.334923326969146729 -0.257121562957763672
-0.574308276176452637 -0.334745317697525024 -0.255598604679107666
0.15446704626083374 -0.619319260120391846 -0.185982704162597656
-0.524572968482971191 -0.0669472366571426392 -0.0838040262460708618
0.627945899963378906 -0.444519013166427612 -0.280092626810073853
0.686410129070281982 0.10998767614364624 -0.142038658261299133
0.702722787857055664 0.140136048197746277 -0.248138219118118286
0.664768457412719727 -0.117932066321372986 -0.231543391942977905
0.659113407135009766 0.173705935478210449 0.0618061535060405731
0.642462015151977539 0.486276447772979736 -0.115852609276771545
-0.626028895378112793 0.213180720806121826 -0.118730708956718445
0.328902304172515869 -0.110913008451461792 0.042611338198184967
0.685150146484375 -0.170765817165374756 0.0774547755718231201
-0.377430558204650879 -0.478841871023178101 -0.233126580715179443
-0.201647639274597168 -0.553836703300476074 -0.193817853927612305
0.711051702499389648 0.117752373218536377 -0.274838835000991821
0.728768587112426758 -0.0565035268664360046 0.0678768381476402283
0.693083107471466064 0.136231452226638794 -0.153500080108642578
0.714283406734466553 -0.00896521378308534622 -0.279859215021133423
0.436663657426834106 -0.309525907039642334 0.0397071391344070435
0.703104853630065918 0.24882061779499054 -0.212461769580841064
0.668900370597839355 0.346390336751937866 -0.159575209021568298
-0.690982520580291748 0.47245478630065918 0.238820001482963562
0.726568341255187988 0.430630683898925781 -0.161728963255882263
0.669186830520629883 0.374217033386230469 -0.138705328106880188
0.108501970767974854 -0.624961495399475098 -0.16010834276676178
-0.331761151552200317 -0.536425590515136719 -0.226079791784286499
-0.168174713850021362 -0.554167568683624268 -0.199016809463500977
-0.456963866949081421 -0.33363381028175354 -0.168435141444206238
-0.630494058132171631 0.58089059591293335 0.287279367446899414
-0.77353966236114502 0.0747788324952125549 0.147212386131286621
-0.432940840721130371 -0.384864151477813721 -0.213251188397407532
-0.351247161626815796 -0.339340120553970337 -0.148194640874862671
-0.754762113094329834 0.408826828002929688 0.241352349519729614
-0.593765616416931152 -0.362367808818817139 -0.253544807434082031
-0.614800155162811279 0.322450518608093262 -0.0834424048662185669
0.231967926025390625 -0.477246701717376709 -0.104543045163154602
0.598253071308135986 0.339430928230285645 0.110147498548030853
-0.577105522155761719 -0.356215953826904297 -0.262762010097503662
-0.637992203235626221 -0.246506690979003906 -0.274143218994140625
-0.636054515838623047 -0.304440528154373169 -0.276691287755966187
-0.615426182746887207 0.501998186111450195 0.215266391634941101
-0.785795450210571289 0.312968045473098755 0.134470701217651367
-0.576687335968017578 0.0285985842347145081 -0.166726082563400269
-0.685160398483276367 0.198555827140808105 0.187294408679008484
0.0439644977450370789 -0.657544851303100586 0.0676528960466384888
-0.700592517852783203 0.452206432819366455 0.235618293285369873
-0.779944300651550293 0.40629655122756958 0.241205707192420959
-0.885842442512512207 0.231786936521530151 0.120290800929069519
-0.415688306093215942 -0.365920037031173706 -0.170990869402885437
-0.239339709281921387 -0.538769543170928955 -0.181480616331100464
0.277765393257141113 -0.575240552425384521 -0.180814683437347412
-0.849077343940734863 0.217691421508789062 0.145045176148414612
0.709271550178527832 -0.0610146857798099518 -0.301207542419433594
0.711680710315704346 -0.264395236968994141 -0.292260557413101196
0.429027408361434937 -0.373812764883041382 -0.167102262377738953
0.646065294742584229 -0.466606497764587402 -0.374424517154693604
0.607804358005523682 -0.262641102075576782 -0.220884278416633606
0.676063716411590576 -0.0455543138086795807 -0.184330552816390991
-0.73815762996673584 0.368577003479003906 0.232209488749504089
-0.66228640079498291 0.6294746994972229 0.281449288129806519
-0.778296053409576416 0.0538036413490772247 0.152917042374610901
0.687847614288330078 -0.0942649915814399719 -0.191115379333496094
-0.728675365447998047 0.394303560256958008 0.243617221713066101
-0.356598138809204102 -0.270179778337478638 -0.0873059630393981934
0.473018884658813477 0.371008336544036865 0.0901931077241897583
0.684542536735534668 0.146714776754379272 -0.155342161655426025
-0.688169002532958984 0.25112345814704895 0.220748528838157654
-0.332254320383071899 -0.546547770500183105 -0.219739466905593872
-0.70395505428314209 0.404991328716278076 0.22537916898727417
-0.74186176061630249 0.374632209539413452 0.241669327020645142
0.279840946197509766 -0.593652844429016113 -0.215630397200584412
0.636578798294067383 -0.442954927682876587 -0.286297619342803955
-0.685037493705749512 0.609268069267272949 0.281931936740875244
-0.553374409675598145 0.613811135292053223 0.268406540155410767
0.027322039008140564 0.657367169857025146 0.303866535425186157
-0.871863126754760742 0.26036834716796875 0.147787123918533325
-0.933637380599975586 0.267076283693313599 0.119344279170036316
-0.665314316749572754 -0.0883691981434822083 -0.204178333282470703
0.658931970596313477 0.0773468688130378723 -0.0913844406604766846
-0.614638447761535645 0.179226279258728027 0.0100337937474250793
-0.759209394454956055 0.119502082467079163 0.153241515159606934
-0.497549235820770264 -0.362247049808502197 -0.233024954795837402
-0.982030093669891357 0.0328918546438217163 0.0651943385601043701
-0.393947094678878784 -0.347821146249771118 -0.154325589537620544
0.607710123062133789 0.183244824409484863 -0.0352651514112949371
-0.443560570478439331 -0.369322478771209717 -0.25672486424446106
-0.609820365905761719 0.0359699167311191559 -0.148709192872047424
-0.557551741600036621 0.336222171783447266 -0.0485670715570449829
-0.381902217864990234 -0.414796173572540283 -0.181477159261703491
-0.747087478637695312 0.15394023060798645 0.0527477115392684937
0.494063377380371094 0.0686640813946723938 0.00907326489686965942
0.67131340503692627 -0.158760786056518555 0.0553410202264785767
0.433978646993637085 -0.158089816570281982 0.0658086687326431274
0.370832443237304688 0.101197525858879089 0.0496388077735900879
-0.98524928092956543 0.146699637174606323 0.0714467763900756836
-0.364085406064987183 -0.37090727686882019 -0.15990874171257019
-0.975140929222106934 0.207219704985618591 0.0738756656646728516
-0.456670552492141724 -0.35889357328414917 -0.140157848596572876
0.60005563497543335 0.18488466739654541 -0.0620361454784870148
-0.480470895767211914 -0.356004536151885986 -0.220091760158538818
-0.451978057622909546 -0.349651366472244263 -0.176095575094223022
0.622293472290039062 -0.43055194616317749 -0.287587463855743408
0.693907499313354492 0.145549207925796509 -0.164105862379074097
0.721860229969024658 -0.329575538635253906 -0.284759640693664551
0.493582427501678467 0.48076319694519043 0.00907643884420394897
0.547445058822631836 -0.118666835129261017 0.0311789810657501221
0.538715243339538574 -0.373897552490234375 0.107034012675285339
0.511366784572601318 0.396074473857879639 0.081750139594078064
-0.562736093997955322 0.366368919610977173 -0.0619542635977268219
-0.236773163080215454 -0.565257430076599121 -0.210158884525299072
0.626627206802368164 0.0155197456479072571 0.000479690730571746826
0.677886843681335449 0.120020285248756409 -0.137839987874031067
0.584422707557678223 -0.379304885864257812 0.109905466437339783
0.722130417823791504 -0.270818918943405151 -0.272772073745727539
0.693549215793609619 0.157910615205764771 -0.192395120859146118
0.737207651138305664 -0.0309392549097537994 -0.305488288402557373
-0.755929470062255859 0.450687557458877563 0.245947748422622681
-0.639862895011901855 0.5862160325050354 0.243060529232025146
-0.929391622543334961 -0.0150064742192625999 0.107424184679985046
0.681598246097564697 0.359038233757019043 -0.149448737502098083
-0.0559163540601730347 0.516912281513214111 0.295472562313079834
-0.47804751992225647 -0.0853321924805641174 -0.0636710003018379211
0.721719682216644287 0.336868703365325928 -0.195179641246795654
-0.332128435373306274 -0.533522605895996094 -0.226890340447425842
-0.335553526878356934 -0.397759109735488892 -0.115180328488349915
-0.503219962120056152 0.0410224422812461853 -0.0947370454668998718
-0.221799701452255249 -0.574229776859283447 -0.218679487705230713
-0.482804715633392334 -0.379077225923538208 -0.191578313708305359
0.51812058687210083 0.33144456148147583 0.123844720423221588
-0.633208811283111572 0.306917786598205566 -0.100551731884479523
-0.533885717391967773 0.30732157826423645 -0.0657871738076210022
0.248228073120117188 -0.620634078979492188 -0.206124350428581238
0.61234670877456665 0.304977476596832275 0.122194498777389526
0.555202960968017578 -0.110726036131381989 -0.01847037672996521
-0.548049449920654297 -0.363299071788787842 -0.251304805278778076
-0.674975872039794922 -0.502615690231323242 0.178011983633041382
-0.617968201637268066 0.33899301290512085 -0.0828724279999732971
0.481745302677154541 0.0534920692443847656 0.0703868120908737183
-0.62344515323638916 -0.253065735101699829 -0.266658306121826172
-0.474264740943908691 -0.0814727991819381714 -0.0591536238789558411
0.287163615226745605 -0.582445740699768066 -0.207381755113601685
0.27143937349319458 -0.620640754699707031 -0.206550911068916321
-0.754469990730285645 0.423562914133071899 0.294582247734069824
-0.326666772365570068 -0.537310779094696045 -0.222284689545631409
-0.896837353706359863 0.243520528078079224 0.11780412495136261
-0.748197078704833984 0.513837456703186035 0.273298680782318115
-1.02523553371429443 0.259146124124526978 0.105915337800979614
0.629426717758178711 -0.481052786111831665 -0.311267882585525513
-0.585653364658355713 -0.0512649491429328918 -0.173488587141036987
-0.425893902778625488 -0.358803331851959229 -0.202770322561264038
0.615458965301513672 -0.175256729125976562 -0.181672349572181702
0.660841107368469238 -0.136625617742538452 -0.310016363859176636
0.681726276874542236 -0.292978763580322266 -0.284744918346405029
0.399280339479446411 -0.389015734195709229 -0.213197678327560425
0.688914477825164795 -0.463722825050354004 -0.365374624729156494
-0.300808548927307129 0.539704263210296631 0.294985651969909668
0.614436030387878418 -0.140767991542816162 -0.149462893605232239
0.641215980052947998 0.312429279088973999 0.109345316886901855
0.632810473442077637 -0.476082384586334229 -0.325486660003662109
-0.815322637557983398 0.122569665312767029 0.170444473624229431
-0.904486417770385742 0.125605449080467224 0.118885070085525513
0.104487389326095581 -0.632460057735443115 -0.157149836421012878
-0.528235852718353271 -0.297301828861236572 -0.191008925437927246
-0.537129521369934082 -0.0654808729887008667 -0.0947792083024978638
0.68863224983215332 -0.0133028756827116013 -0.256378322839736938
-0.714628458023071289 0.440859138965606689 0.25548088550567627
-0.778321623802185059 0.434256672859191895 0.23145449161529541
-0.646161913871765137 -0.488234400749206543 0.170856177806854248
-0.0408257804811000824 -0.567168295383453369 0.0622315406799316406
0.320677369832992554 -0.58253931999206543 -0.169562488794326782
0.405347526073455811 -0.356976747512817383 -0.180390238761901855
-0.709247767925262451 0.437154948711395264 0.247287169098854065
0.250528484582901001 -0.606062054634094238 -0.213543564081192017
0.641350865364074707 -0.391602843999862671 -0.299647927284240723
-0.922894120216369629 0.259168505668640137 0.132887557148933411
-0.459285706281661987 -0.388276457786560059 -0.201379850506782532
-0.367720156908035278 -0.206412047147750854 -0.0673583745956420898
0.662927031517028809 0.0386999249458312988 -0.122566089034080505
0.51115715503692627 0.23500785231590271 0.0389820337295532227
0.534450352191925049 0.441540807485580444 -0.0141653977334499359
-0.396444082260131836 -0.396728456020355225 -0.188941299915313721
-0.5243072509765625 -0.033516567200422287 -0.130269408226013184
0.567476987838745117 0.0897413194179534912 -0.141269981861114502
0.3077869713306427 -0.548992156982421875 -0.199416443705558777
0.646326243877410889 -0.108918532729148865 -0.0827719047665596008
0.58754730224609375 -0.174576431512832642 -0.14166983962059021
-0.577218770980834961 0.378010600805282593 -0.0644735246896743774
0.696075499057769775 0.0521970689296722412 -0.165910705924034119
0.533101320266723633 0.209866568446159363 0.060970693826675415
0.570801794528961182 0.371443778276443481 -0.0693274885416030884
-0.652284979820251465 0.281697958707809448 -0.107999503612518311
0.452806293964385986 -0.198952615261077881 -0.135908842086791992
0.68478083610534668 -0.0750820338726043701 -0.182196915149688721
-0.418844729661941528 -0.363241642713546753 -0.166796877980232239
-0.596071124076843262 0.303216248750686646 -0.0789177119731903076
-0.518039345741271973 0.253638476133346558 -0.0450603961944580078
0.600014448165893555 -0.0476045571267604828 -0.100736171007156372
0.597828686237335205 -0.0416549406945705414 -0.108830630779266357
0.646668493747711182 0.246654614806175232 -0.149708449840545654
0.688950598239898682 0.111898064613342285 -0.153352454304695129
0.635043203830718994 -0.227776259183883667 -0.239923834800720215
0.714951932430267334 0.0564580783247947693 -0.263915002346038818
0.705502808094024658 0.0304521992802619934 -0.274984478950500488
-0.348508954048156738 0.585555076599121094 0.0859698280692100525
0.591229796409606934 0.246160387992858887 -0.0711093097925186157
0.711480796337127686 -0.340285271406173706 -0.29286503791809082
0.500082612037658691 0.47690880298614502 -0.0221388358622789383
-0.623905777931213379 0.20208469033241272 -0.11400991678237915
0.516661524772644043 -0.206045180559158325 0.0464079678058624268
-0.335112035274505615 -0.517022550106048584 -0.241464078426361084
-0.602704346179962158 0.383735716342926025 -0.0742064714431762695
-0.457585513591766357 -0.389628112316131592 -0.222002238035202026
-0.359176158905029297 -0.38177490234375 -0.15104338526725769
0.690657496452331543 0.147531211376190186 -0.187873125076293945
0.46171271800994873 -0.367594480514526367 0.119027853012084961
0.675955295562744141 0.150368139147758484 -0.255705654621124268
0.732450246810913086 -0.330200165510177612 -0.293828904628753662
0.741971731185913086 -0.256259918212890625 -0.290403604507446289
0.738257527351379395 -0.363938093185424805 -0.306534439325332642
0.688723921775817871 0.124887451529502869 -0.268514007329940796
0.699683606624603271 -0.0645681172609329224 -0.291364908218383789
0.484865963459014893 -0.278426826000213623 0.0471769571304321289
0.726522982120513916 0.262875527143478394 -0.242589399218559265
-1.06797051429748535 0.0563764646649360657 0.0281709730625152588
0.665198981761932373 0.306059539318084717 -0.19183601438999176
0.075747661292552948 0.55756068229675293 0.300975292921066284
-0.417761385440826416 -0.435777872800827026 -0.23402702808380127
-0.612582981586456299 -0.166178703308105469 -0.173086419701576233
0.71453857421875 -0.366341233253479004 -0.311999648809432983
-0.974223017692565918 0.000627104192972183228 0.0958657264709472656
-0.805302917957305908 0.140924453735351562 0.108869761228561401
-0.757305145263671875 0.442772567272186279 0.16122281551361084
-0.729395747184753418 0.393980592489242554 0.247131258249282837
-0.621950745582580566 0.306109488010406494 -0.0912635400891304016
-0.565951228141784668 0.347275227308273315 -0.0763700678944587708
0.0971366986632347107 0.662302732467651367 0.301754087209701538
-0.844654560089111328 0.14614453911781311 0.139067158102989197
0.231357529759407043 -0.620979547500610352 -0.182949021458625793
0.596816003322601318 -0.463957309722900391 -0.325561344623565674
-0.714221477508544922 0.400296926498413086 0.248204872012138367
-1.03153395652770996 0.288518041372299194 0.054073631763458252
0.719213366508483887 -0.11410919576883316 -0.280091434717178345
-1.06663906574249268 0.142004549503326416 0.0527935028076171875
0.655845403671264648 -0.114164583384990692 -0.257539123296737671
0.58617854118347168 -0.00379398465156555176 -0.181619152426719666
0.637304544448852539 -0.0786195844411849976 -0.220480680465698242
0.634670376777648926 -0.515603899955749512 -0.35205155611038208
-0.689429998397827148 0.463168144226074219 0.236944049596786499
-0.651174545288085938 0.588345050811767578 0.25500720739364624
-0.894274473190307617 0.294016182422637939 0.131904169917106628
-0.817696273326873779 0.212141424417495728 0.127382367849349976
0.434664547443389893 -0.303244739770889282 0.0906129404902458191
-0.593981564044952393 0.639425873756408691 0.280478000640869141
0.0125815887004137039 0.501548886299133301 0.304306387901306152
-0.236215457320213318 0.611815810203552246 0.309270143508911133
-0.636727333068847656 0.501207709312438965 0.197947144508361816
-0.688216924667358398 0.504183292388916016 0.231072917580604553
-0.402440905570983887 0.467705696821212769 0.245839998126029968
0.659625828266143799 -0.46277773380279541 -0.376354455947875977
0.662290573120117188 0.188375353813171387 -0.0852322056889533997
0.645572960376739502 -0.494255006313323975 -0.314586251974105835
-0.107023186981678009 -0.594259977340698242 -0.175958424806594849
0.650018036365509033 0.357193887233734131 -0.132620170712471008
0.711156308650970459 0.343866974115371704 -0.183260858058929443
-0.243717595934867859 -0.573443174362182617 -0.224440708756446838
-0.364828050136566162 -0.546713173389434814 -0.254649102687835693
0.70086216926574707 0.297941744327545166 0.131815388798713684
-0.436366617679595947 -0.346915245056152344 -0.17182883620262146
-0.385970115661621094 -0.342490494251251221 -0.13244570791721344
-0.369527876377105713 -0.331544548273086548 -0.118927612900733948
0.492848813533782959 -0.338127255439758301 0.066979527473449707
0.101108960807323456 -0.523528158664703369 0.0783658325672149658
0.499140620231628418 0.361421734094619751 -0.0468941815197467804
0.476905465126037598 -0.207548484206199646 -0.103700190782546997
0.686729550361633301 -0.182447686791419983 0.0728941485285758972
0.592458963394165039 -0.213086754083633423 -0.176798149943351746
-0.482931703329086304 -0.227324560284614563 -0.109118059277534485
0.595809578895568848 -0.42646297812461853 -0.248685091733932495
-0.415859431028366089 -0.401106119155883789 -0.221034884452819824
-0.458463996648788452 -0.324142545461654663 -0.170427575707435608
-0.487027376890182495 -0.232365652918815613 -0.115211814641952515
-0.0368375480175018311 -0.593982815742492676 0.0839172601699829102
0.497774600982666016 -0.191622406244277954 -0.0813897997140884399
0.500635325908660889 -0.307043999433517456 -0.214473322033882141
0.706182003021240234 -0.161597847938537598 0.0591498762369155884
0.604871153831481934 -0.198468878865242004 -0.200845718383789062
-0.35988306999206543 -0.383682101964950562 -0.163849040865898132
0.602228045463562012 -0.371462762355804443 -0.214205622673034668
-0.582750141620635986 -0.219568714499473572 -0.150509551167488098
-0.452914208173751831 -0.346920371055603027 -0.154144808650016785
-0.525088310241699219 -0.367187142372131348 -0.243314504623413086
0.649222493171691895 0.0223616063594818115 -0.171355292201042175
0.675370872020721436 -0.155364155769348145 -0.269814282655715942
0.636752605438232422 -0.0263869278132915497 -0.230385318398475647
0.716048657894134521 -0.380413442850112915 -0.316480696201324463
-0.59457099437713623 0.232229530811309814 -0.111617922782897949
0.676901698112487793 0.483694553375244141 -0.135888129472732544
0.486872196197509766 0.356315076351165771 0.103977307677268982
0.602037787437438965 0.184358879923820496 -0.157600894570350647
0.589211463928222656 -0.216453492641448975 -0.234568163752555847
0.667463958263397217 -0.103810809552669525 0.0484602600336074829
0.538238644599914551 -0.0961950123310089111 -0.160383731126785278
0.647565543651580811 -0.0780517607927322388 -0.247992679476737976
0.660178601741790771 -0.0425334461033344269 -0.115530028939247131
0.698075294494628906 0.154815018177032471 -0.249900251626968384
0.760301709175109863 -0.288869142532348633 -0.294311940670013428
0.627355456352233887 0.312678664922714233 -0.157796770334243774
0.697707533836364746 0.120471253991127014 -0.180411621928215027
-0.534120738506317139 -0.0537097044289112091 -0.0760567784309387207
0.486488997936248779 -0.470840781927108765 -0.242045730352401733
0.436880588531494141 0.447945833206176758 0.00600811885669827461
0.446283906698226929 -0.266797572374343872 0.0731850564479827881
0.695237219333648682 0.261725842952728271 -0.219598829746246338
0.684444248676300049 0.332658320665359497 -0.17658407986164093
-0.601219534873962402 0.0141325034201145172 -0.152043804526329041
-0.686669290065765381 0.460863888263702393 0.242437854409217834
0.0762243270874023438 0.557945072650909424 0.322600603103637695
0.608752071857452393 -0.164098978042602539 -0.15729166567325592
0.621453702449798584 0.0574537329375743866 -0.198612526059150696
0.674963414669036865 -0.101419024169445038 -0.127653077244758606
-0.768807709217071533 0.185625076293945312 0.142342805862426758
0.696833968162536621 -0.223414629697799683 -0.270749598741531372
-0.78969496488571167 0.38391876220703125 0.232418641448020935
-0.468845546245574951 -0.346052229404449463 -0.21614992618560791
0.500154197216033936 0.286291033029556274 0.110151678323745728
0.475827634334564209 0.340476036071777344 0.108810856938362122
0.695010364055633545 -0.120231285691261292 0.00899268686771392822
-0.393865525722503662 -0.403594613075256348 -0.18451206386089325
-0.245520561933517456 -0.401675879955291748 -0.202440053224563599
-0.494421601295471191 -0.281212210655212402 -0.177174091339111328
-0.365940749645233154 -0.359764844179153442 -0.138677388429641724
0.674702942371368408 0.133467376232147217 -0.141941666603088379
-0.705558419227600098 0.403713077306747437 0.256089717149734497
0.757780313491821289 -0.236607849597930908 -0.293256133794784546
-0.892301201820373535 0.218241631984710693 0.120933756232261658
0.587881863117218018 -0.437802165746688843 -0.290742248296737671
-0.632394909858703613 0.574275374412536621 0.240434557199478149
-0.715100884437561035 0.442051827907562256 0.25652766227722168
-0.866668701171875 0.181856781244277954 0.130982428789138794
0.296140551567077637 -0.661949515342712402 -0.219614148139953613
0.562210798263549805 -0.0518497340381145477 -0.102691464126110077
0.670162498950958252 0.0699167996644973755 -0.173737600445747375
-0.742656826972961426 0.622220277786254883 0.270228296518325806
-0.715283334255218506 0.415101051330566406 0.254224538803100586
-0.69024956226348877 0.589052200317382812 0.267559289932250977
-0.679946839809417725 0.509846925735473633 0.246859252452850342
-0.612582981586456299 0.637817740440368652 0.266704797744750977
0.6391143798828125 -0.482276618480682373 -0.321258813142776489
-0.612531840801239014 0.574016571044921875 0.250699311494827271
0.70577538013458252 0.398861736059188843 -0.136365488171577454
0.674874782562255859 0.266567438840866089 -0.160746544599533081
-0.189294561743736267 -0.509866416454315186 -0.145387023687362671
0.52122950553894043 0.322937428951263428 0.10115320235490799
-0.478885382413864136 -0.282379955053329468 -0.148029744625091553
-0.223539397120475769 0.550370573997497559 0.283031761646270752
-0.531348586082458496 0.450812220573425293 -0.0388731546700000763
-0.616236209869384766 0.201466292142868042 -0.117076411843299866
0.422008782625198364 -0.210073709487915039 0.0611918345093727112
-0.448486328125 -0.391173064708709717 -0.21527862548828125
0.465482085943222046 -0.368349999189376831 0.118207387626171112
-0.752502560615539551 0.459996074438095093 0.198371425271034241
-0.623838663101196289 0.320930659770965576 -0.0996588170528411865
-0.916794657707214355 0.289413601160049438 0.131708577275276184
-0.632883548736572266 0.6786346435546875 0.272546350955963135
-0.719941437244415283 0.541481077671051025 0.230377122759819031
-0.331966549158096313 -0.387101441621780396 -0.163986325263977051
0.503356516361236572 -0.378265261650085449 0.104124724864959717
-0.698142528533935547 0.549541234970092773 0.225383862853050232
-0.638940751552581787 -0.293801188468933105 -0.275245755910873413
-0.510095953941345215 -0.252204865217208862 -0.167574137449264526
-0.291511714458465576 -0.541381895542144775 -0.214663147926330566
0.0324703231453895569 -0.670499145984649658 0.0591761171817779541
0.5623282790184021 -0.15071636438369751 0.0714009776711463928
0.601039230823516846 -0.441176652908325195 -0.301919102668762207
0.522081613540649414 -0.0839739590883255005 0.0678740739822387695
-0.442514359951019287 -0.357899725437164307 -0.173443779349327087
-0.432794690132141113 -0.387356668710708618 -0.244578361511230469
-0.932743966579437256 0.120753958821296692 0.150864630937576294
-0.626945853233337402 0.363144814968109131 -0.0851632803678512573
-0.624591946601867676 -0.275578141212463379 -0.270402789115905762
0.623498618602752686 -0.456594407558441162 -0.325386404991149902
-0.543090343475341797 -0.208825245499610901 -0.153331607580184937
-0.360165953636169434 -0.343900382518768311 -0.124668553471565247
-0.570574164390563965 -0.209187820553779602 -0.170201539993286133
-0.572824180126190186 -0.060648210346698761 -0.0867840796709060669
-0.343286484479904175 -0.518807172775268555 -0.229400753974914551
-0.593406796455383301 0.384152650833129883 -0.0587525218725204468
0.609885990619659424 -0.00477635115385055542 0.0423934906721115112
-0.538234949111938477 -0.33268466591835022 -0.230996653437614441
-0.648930907249450684 -0.274413883686065674 -0.275576174259185791
-0.541426777839660645 0.350995153188705444 -0.038576073944568634
-0.598922848701477051 0.309755176305770874 -0.0587563216686248779
-0.705673635005950928 -0.484705477952957153 0.110451802611351013
-0.0460488274693489075 0.634130954742431641 0.308967858552932739
-0.495974630117416382 -0.141732662916183472 -0.101240992546081543
-0.51790696382522583 -0.238945305347442627 -0.165418490767478943
-0.976119637489318848 0.0681149959564208984 0.0368795841932296753
0.696189939975738525 0.118194214999675751 -0.247433692216873169
