ply
format ascii 1.0
element vertex 738
property float x
property float y
property float z
end_header
0.201747775077819824 0.0910579189658164978 0.222853779792785645
0.243917569518089294 0.105137035250663757 -0.0579634271562099457
-0.195175781846046448 0.202049285173416138 0.348103374242782593
0.249414741992950439 0.0255243908613920212 0.323384851217269897
0.238944545388221741 0.0195579752326011658 0.321085691452026367
-0.0308317746967077255 0.163677826523780823 0.382388561964035034
-0.482058882713317871 -0.015011955052614212 0.180411532521247864
0.483497470617294312 -0.368508219718933105 0.045589108020067215
-0.642517685890197754 0.287470310926437378 0.0863458812236785889
0.275780618190765381 -0.165420219302177429 -0.0709371268749237061
-0.411965608596801758 -0.056307818740606308 0.0783047303557395935
-0.642018675804138184 0.175689965486526489 -0.0819276720285415649
-0.226012557744979858 -0.133394703269004822 -0.0526340566575527191
0.254377931356430054 -0.265122830867767334 0.321054846048355103
-0.345835030078887939 0.0178714878857135773 -0.117571502923965454
-0.287760376930236816 -0.0906935632228851318 -0.106635868549346924
-0.584444046020507812 0.209996238350868225 -0.218200281262397766
0.266896069049835205 -0.296502619981765747 0.315034627914428711
-0.026043180376291275 -0.186774536967277527 -0.0438025966286659241
-0.617136538028717041 0.277440160512924194 0.0316040180623531342
-0.607192754745483398 0.298255831003189087 0.0923340991139411926
-0.397292375564575195 -0.0621751323342323303 0.118906974792480469
-0.450849145650863647 -0.0375077091157436371 0.118923529982566833
0.430274426937103271 -0.271128594875335693 0.329167932271957397
-0.0517451576888561249 0.14103265106678009 0.091479964554309845
-0.502923250198364258 0.151784360408782959 0.355237305164337158
0.240187972784042358 -0.318954646587371826 0.322646439075469971
0.497123628854751587 -0.370296716690063477 0.0568997375667095184
0.398214668035507202 -0.256234318017959595 0.322383910417556763
-0.157833009958267212 -0.263036966323852539 0.180904477834701538
-0.498982787132263184 0.0145608950406312943 0.157490178942680359
0.416819542646408081 -0.296669572591781616 0.328439265489578247
0.535382270812988281 -0.339406073093414307 -0.0188245568424463272
0.343045890331268311 -0.266591757535934448 -0.128425434231758118
-0.495913296937942505 0.0724081099033355713 0.203419357538223267
0.442770063877105713 -0.27153739333152771 0.333522319793701172
0.522233545780181885 -0.334677159786224365 0.0324273593723773956
0.452681928873062134 -0.319452971220016479 -0.293527215719223022
0.473597437143325806 -0.311081916093826294 0.1164974644780159
0.516687750816345215 -0.278076410293579102 -0.313442081212997437
0.501850724220275879 -0.325817495584487915 -0.315060883760452271
0.518032670021057129 -0.326342314481735229 0.101560063660144806
0.478288710117340088 -0.311277389526367188 -0.302959799766540527
0.114328019320964813 0.119089968502521515 0.288700610399246216
-0.121595665812492371 0.269139409065246582 0.15835137665271759
-0.613962173461914062 0.265709012746810913 0.0517031103372573853
-0.479039013385772705 0.00361557537689805031 0.181235700845718384
0.42605474591255188 -0.354567915201187134 0.158122077584266663
-0.292727202177047729 -0.109829306602478027 -0.105990484356880188
0.130238741636276245 0.0662074238061904907 0.320805162191390991
0.252477765083312988 0.0393012277781963348 -0.0781656950712203979
0.235120832920074463 0.0944740474224090576 -0.0536395907402038574
0.416841626167297363 -0.260913431644439697 -0.20289185643196106
0.521655440330505371 -0.353763610124588013 -0.0197618715465068817
-0.608307301998138428 0.381453782320022583 0.180979624390602112
0.517066478729248047 -0.278966009616851807 -0.315384030342102051
0.49890589714050293 -0.349436253309249878 0.0238181222230195999
-0.587175190448760986 0.369923532009124756 0.112962231040000916
0.50529557466506958 -0.10413806140422821 0.146971151232719421
-0.197300329804420471 0.311945199966430664 0.112592257559299469
0.263327807188034058 -0.286142259836196899 0.319739282131195068
0.236861348152160645 0.0627732276916503906 0.309949368238449097
-0.14477325975894928 -0.0429513528943061829 0.00388177391141653061
-0.656188726425170898 0.21483910083770752 -0.0460810065269470215
-0.289595723152160645 -0.0754943937063217163 -0.0688047409057617188
0.227232828736305237 0.0424423888325691223 -0.0488909222185611725
0.550846457481384277 -0.143956214189529419 0.131939783692359924
0.519464254379272461 -0.294723182916641235 0.0744736343622207642
0.517314910888671875 -0.283463567495346069 -0.181423276662826538
-0.357747197151184082 -0.0166560113430023193 -0.0282088182866573334
0.0914815664291381836 0.0883598998188972473 0.0852081179618835449
0.466348439455032349 -0.361301332712173462 -0.0112162632867693901
-0.432616889476776123 0.158164769411087036 -0.066596396267414093
0.523730695247650146 -0.334901988506317139 0.0686510279774665833
0.26221466064453125 -0.285466879606246948 0.318362712860107422
0.00937673076987266541 -0.0907286778092384338 -0.0263842362910509109
0.0326588600873947144 -0.130190327763557434 0.0215910375118255615
-0.629610002040863037 0.265297144651412964 0.029261615127325058
0.241416335105895996 0.0750932171940803528 0.318507611751556396
0.239290207624435425 0.0301305912435054779 0.318954646587371826
-0.17444320023059845 0.301438122987747192 0.116054326295852661
0.303500503301620483 -0.150852218270301819 0.307748615741729736
0.261145889759063721 -0.290329486131668091 0.321006208658218384
-0.475912183523178101 -0.00746031850576400757 0.166290074586868286
0.242325693368911743 0.0824876651167869568 0.311667114496231079
0.520252406597137451 -0.350586891174316406 0.0814335346221923828
-0.0349322706460952759 -0.237225994467735291 0.123465612530708313
-0.636820793151855469 0.290168285369873047 0.0988499671220779419
-0.234693780541419983 -0.132266178727149963 -0.0584873370826244354
-0.378827333450317383 -0.108076825737953186 0.105200186371803284
-0.236520856618881226 -0.147335350513458252 -0.0582920201122760773
-0.656429529190063477 0.214569747447967529 -0.0335836783051490784
0.528939366340637207 -0.351997882127761841 0.0773221775889396667
-0.620165586471557617 0.270613282918930054 0.0524184778332710266
-0.40369841456413269 -0.0638260394334793091 0.112155809998512268
-0.445749431848526001 -0.0409205704927444458 0.121404439210891724
0.267128318548202515 -0.285142898559570312 0.323561251163482666
0.127717405557632446 -0.326226353645324707 0.312091231346130371
0.152403399348258972 -0.342740416526794434 0.317450493574142456
0.447008371353149414 -0.335291445255279541 -0.293747037649154663
0.515673339366912842 -0.302252680063247681 -0.108213678002357483
0.514598667621612549 -0.279898107051849365 -0.313530027866363525
0.484034806489944458 -0.327448934316635132 -0.310468137264251709
0.463474750518798828 -0.345622509717941284 -0.303038269281387329
0.548618733882904053 -0.209779620170593262 -0.315991729497909546
0.523656666278839111 -0.299620717763900757 -0.322800099849700928
0.517484724521636963 -0.300467848777770996 -0.318956434726715088
0.246119052171707153 0.0577162057161331177 0.316120028495788574
0.240853846073150635 0.0883578211069107056 0.312268823385238647
-0.292436599731445312 -0.0997662320733070374 -0.102253645658493042
-0.452669292688369751 -0.0512162074446678162 0.116604521870613098
0.403856784105300903 -0.271618962287902832 0.322439819574356079
-0.502498805522918701 0.00416476745158433914 0.188593864440917969
0.400074869394302368 -0.286748558282852173 0.324996322393417358
0.398187905550003052 -0.272861957550048828 0.323387682437896729
0.341428220272064209 -0.258332371711730957 0.0896246209740638733
-0.0188847612589597702 -0.243980318307876587 0.128219246864318848
-0.464213579893112183 0.0362418964505195618 0.188925459980964661
-0.194234341382980347 0.222161814570426941 0.171462327241897583
0.365960270166397095 -0.328687340021133423 -0.0238283406943082809
0.322692215442657471 -0.389360159635543823 -0.15949346125125885
0.53540337085723877 -0.322822213172912598 -0.0587669722735881805
-0.441894769668579102 -0.00398780591785907745 0.152459517121315002
-0.0191020481288433075 -0.0592243112623691559 0.141267850995063782
-0.000390646979212760925 -0.235874250531196594 0.105903163552284241
0.525602817535400391 -0.201109170913696289 -0.0800511091947555542
0.448786497116088867 -0.30795133113861084 -0.293504178524017334
0.526349127292633057 -0.275112301111221313 -0.316158294677734375
0.499024510383605957 -0.324635595083236694 -0.31351470947265625
0.473793387413024902 -0.304921478033065796 -0.298088729381561279
-0.12649187445640564 0.246953129768371582 0.138759002089500427
-0.647529006004333496 0.282442569732666016 0.09451274573802948
-0.198960334062576294 0.287243515253067017 0.335326820611953735
0.497186511754989624 -0.086253046989440918 0.136208429932594299
0.200529947876930237 -0.358554750680923462 -0.0913859978318214417
0.505336105823516846 -0.366956919431686401 -0.0231824498623609543
0.527007043361663818 -0.24197976291179657 0.172573626041412354
-0.585725605487823486 0.379817992448806763 0.170177072286605835
0.444274842739105225 -0.314545899629592896 -0.288530230522155762
0.498139888048171997 -0.110469378530979156 0.111797593533992767
-0.654643356800079346 0.175454899668693542 -0.103708311915397644
-0.201650947332382202 0.309520721435546875 0.0890137180685997009
0.201069146394729614 -0.0130261089652776718 0.294957607984542847
0.160384595394134521 -0.0618675984442234039 -0.0444222614169120789
-0.578451097011566162 0.30261346697807312 0.368614614009857178
0.274694174528121948 0.0987421274185180664 -0.0296994969248771667
-0.435984551906585693 0.156272783875465393 -0.0864908024668693542
0.534506380558013916 -0.332276284694671631 0.012266102246940136
-0.568241715431213379 0.197574973106384277 -0.229221820831298828
-0.498237550258636475 0.0454641431570053101 -0.0874129980802536011
0.0318860635161399841 -0.103988930583000183 0.0324493870139122009
0.533461451530456543 -0.26395946741104126 -0.316547572612762451
0.00985346175730228424 0.197946876287460327 0.0271943546831607819
0.301185101270675659 0.0395409837365150452 -0.0851326882839202881
-0.332257121801376343 -0.0153153054416179657 -0.108146950602531433
0.235993087291717529 0.0149861341342329979 0.321450173854827881
0.12503303587436676 0.0135691976174712181 0.298423528671264648
0.527557015419006348 -0.354571223258972168 0.0657730400562286377
0.466092199087142944 -0.309476524591445923 -0.233556449413299561
-0.650876939296722412 0.285754740238189697 0.104774713516235352
0.546037018299102783 -0.219342544674873352 0.163362443447113037
0.528008222579956055 -0.322574526071548462 -0.0165436062961816788
-0.382854044437408447 -0.055634867399930954 0.0759380906820297241
0.455943465232849121 -0.310713231563568115 -0.292956531047821045
0.504501223564147949 -0.339941114187240601 -0.318441033363342285
0.477830857038497925 -0.314113050699234009 -0.300099074840545654
0.519920468330383301 -0.300831437110900879 -0.317847311496734619
-0.00291363894939422607 -0.139397978782653809 -0.0249811150133609772
0.396511375904083252 -0.272490233182907104 0.323601335287094116
0.400218546390533447 -0.270870357751846313 0.323812931776046753
0.505831360816955566 -0.3312416672706604 0.105618953704833984
-0.467627376317977905 0.0429541021585464478 0.17017364501953125
0.409500479698181152 -0.345381587743759155 0.156035825610160828
-0.36135023832321167 -0.0345868617296218872 -0.148742198944091797
-0.127988755702972412 -0.267163217067718506 0.111984968185424805
0.512748479843139648 -0.368287563323974609 -0.015250474214553833
-0.213324397802352905 0.31320461630821228 0.0973778590559959412
0.25001603364944458 -0.286748230457305908 0.323118507862091064
0.208442240953445435 0.0100387251004576683 -0.0465478524565696716
0.0702205300331115723 -0.151510849595069885 -0.0175260473042726517
-0.169138297438621521 0.30535656213760376 0.118716269731521606
0.47083166241645813 -0.363666713237762451 0.00654997210949659348
-0.291553854942321777 -0.0985371321439743042 -0.103426665067672729
0.0369472168385982513 -0.149725601077079773 -0.0220917891710996628
0.23206639289855957 0.0570196732878684998 0.308701902627944946
0.252760827541351318 -0.288270264863967896 0.320796728134155273
-0.471145182847976685 0.00165607919916510582 0.168663859367370605
0.240697473287582397 0.0633500367403030396 0.312805294990539551
0.508909463882446289 -0.351369291543960571 0.0634715184569358826
0.227178871631622314 -0.314251363277435303 0.314234375953674316
-0.375179260969161987 -0.0926204472780227661 0.0857549756765365601
-0.0624560713768005371 -0.241209790110588074 0.302148640155792236
-0.222351282835006714 -0.127158403396606445 -0.0533473379909992218
-0.40967831015586853 -0.0648098886013031006 0.0981756150722503662
-0.444862335920333862 -0.0441896542906761169 0.13184201717376709
0.238463371992111206 -0.293674200773239136 0.314373791217803955
0.153816133737564087 -0.323938280344009399 0.319795310497283936
0.424398601055145264 -0.255413055419921875 0.328707069158554077
0.437481313943862915 -0.342277050018310547 -0.29319995641708374
0.505857348442077637 -0.334392130374908447 -0.318620473146438599
0.444392085075378418 -0.351751178503036499 -0.287278890609741211
0.238193333148956299 0.0663736686110496521 0.31189301609992981
0.402380526065826416 -0.286943167448043823 0.326104104518890381
-0.494314849376678467 0.00730116432532668114 0.188143134117126465
0.485241502523422241 -0.0624640621244907379 0.131408676505088806
0.0129024572670459747 -0.170680701732635498 0.00947503559291362762
0.531411290168762207 -0.30678480863571167 -0.0625491440296173096
0.313811749219894409 -0.301692575216293335 -0.127020314335823059
0.444843262434005737 -0.291005253791809082 -0.286092430353164673
-0.336468100547790527 0.225484445691108704 0.125112682580947876
-0.399546921253204346 -0.0273988284170627594 -0.00173657666891813278
0.402320355176925659 -0.271049022674560547 0.324212849140167236
-0.132966235280036926 0.196432620286941528 0.167115837335586548
0.398201912641525269 -0.270972073078155518 0.324040979146957397
-0.445241183042526245 -0.0245439000427722931 0.0214231591671705246
-0.136708244681358337 0.245392471551895142 0.191599160432815552
-0.611247718334197998 0.294614136219024658 0.183834701776504517
0.124807380139827728 0.116837255656719208 0.31622081995010376
-0.120195135474205017 0.251213788986206055 0.161709338426589966
-0.582601189613342285 0.348488777875900269 0.0580486208200454712
0.426221102476119995 -0.34756132960319519 0.152446538209915161
-0.565678596496582031 0.29541170597076416 -0.0689749717712402344
0.250881552696228027 0.0273516476154327393 -0.0798810273408889771
0.24730546772480011 0.101171031594276428 -0.0487290360033512115
-0.358125001192092896 -0.0547617189586162567 -0.142469316720962524
0.199016883969306946 0.120491482317447662 0.0354432202875614166
0.545148670673370361 -0.130978107452392578 0.112087368965148926
-0.580448329448699951 0.321771293878555298 -0.0229802560061216354
0.206330850720405579 0.0252819433808326721 0.176503032445907593
-0.594904720783233643 0.375620484352111816 0.171911776065826416
0.444450438022613525 -0.318632930517196655 0.12687528133392334
0.254791527986526489 -0.278096199035644531 0.316428095102310181
0.235026806592941284 0.0243915393948554993 0.316421687602996826
-0.363040775060653687 -0.0488631129264831543 -0.0239942893385887146
-0.182066485285758972 0.118681743741035461 0.042018841952085495
0.254302024841308594 -0.287633538246154785 0.319320619106292725
0.241354942321777344 0.0337962135672569275 0.321954846382141113
0.399164646863937378 0.0240391790866851807 0.114591814577579498
-0.34079289436340332 -0.0652562156319618225 -0.14789213240146637
0.0763191282749176025 -0.332513481378555298 0.298581451177597046
-0.386153161525726318 -0.0598738640546798706 0.0937388241291046143
-0.447642594575881958 -0.040479712188243866 0.127167880535125732
0.4386025071144104 -0.278469502925872803 0.333687514066696167
0.0346574857831001282 -0.122428953647613525 -0.0259130820631980896
0.413642019033432007 -0.279903769493103027 0.326915591955184937
0.432511627674102783 -0.295320063829421997 0.33314049243927002
0.366659700870513916 -0.277921676635742188 -0.130833402276039124
-0.477388262748718262 0.00211193226277828217 0.188059389591217041
-0.2918892502784729 -0.0952197089791297913 -0.104663804173469543
0.241255804896354675 -0.312301278114318848 0.309433609247207642
0.473119407892227173 -0.353554993867874146 0.00664970651268959045
-0.296801596879959106 -0.0953427180647850037 -0.107028409838676453
0.244159743189811707 -0.287962108850479126 0.320195138454437256
0.0627399682998657227 -0.329192817211151123 0.296616703271865845
0.158202528953552246 -0.267037361860275269 -0.105980284512042999
0.249758586287498474 0.0643247440457344055 0.315402001142501831
-0.481791108846664429 -0.00688735581934452057 0.178258642554283142
0.236410409212112427 0.0673622339963912964 0.314280986785888672
0.238530546426773071 -0.331203609704971313 0.321218222379684448
-0.381239593029022217 -0.0912133753299713135 0.0366748347878456116
-0.216188669204711914 -0.139317303895950317 -0.0546853393316268921
-0.382118791341781616 -0.0626735687255859375 0.083357594907283783
0.150138720870018005 -0.331047207117080688 0.331528395414352417
0.445135265588760376 -0.279008746147155762 0.333591669797897339
0.406758397817611694 -0.279658377170562744 0.32509806752204895
-0.501837432384490967 0.00720508396625518799 0.188198089599609375
-0.321978092193603516 0.0979478210210800171 -0.0707427710294723511
0.532267630100250244 -0.206549301743507385 -0.0527469180524349213
0.450115680694580078 -0.293465882539749146 -0.291344434022903442
0.486837565898895264 -0.324763119220733643 -0.311486750841140747
0.445757031440734863 -0.309159547090530396 -0.291686058044433594
-0.576139867305755615 0.269559204578399658 0.36582636833190918
-0.461562603712081909 0.106582462787628174 -0.231228485703468323
0.374305456876754761 -0.317919760942459106 0.198532164096832275
-0.589023947715759277 0.367585659027099609 0.131174862384796143
0.392080694437026978 -0.352335125207901001 -0.218317091464996338
0.440534412860870361 -0.309641361236572266 -0.289738833904266357
-0.199638932943344116 0.306194901466369629 0.094941064715385437
-0.155215978622436523 0.268763422966003418 0.151397377252578735
0.530112922191619873 -0.33764725923538208 0.0713017210364341736
0.462809294462203979 -0.265585869550704956 -0.217952892184257507
-0.63235396146774292 0.276419788599014282 0.107170820236206055
0.437730908393859863 -0.307928264141082764 -0.287843137979507446
0.515115201473236084 -0.276751965284347534 -0.317547053098678589
0.51634293794631958 -0.339703112840652466 -0.321353435516357422
0.453760236501693726 -0.306529253721237183 -0.293875157833099365
0.490846544504165649 -0.321092307567596436 0.0938475728034973145
0.0209914259612560272 -0.27514919638633728 -0.0187991708517074585
-0.652492702007293701 0.171977892518043518 -0.107915662229061127
-0.223579257726669312 0.319243252277374268 0.120876200497150421
0.465191483497619629 -0.363303422927856445 0.00543960649520158768
0.481020539999008179 -0.336065948009490967 0.0498129092156887054
0.511354565620422363 -0.338878482580184937 -0.320204198360443115
0.439474701881408691 -0.355813890695571899 -0.298488348722457886
-0.269681662321090698 0.322806626558303833 0.041797783225774765
0.423382878303527832 -0.312822043895721436 -0.282202154397964478
0.415046781301498413 -0.294400602579116821 0.328299015760421753
-0.326322108507156372 -0.0746781155467033386 0.122788697481155396
-0.367171376943588257 -0.065968640148639679 0.154137954115867615
-0.33788830041885376 0.215689554810523987 0.131873637437820435
0.010884435847401619 0.119473874568939209 0.104789972305297852
0.542182326316833496 -0.308319598436355591 -0.0466638505458831787
0.0138590112328529358 -0.261314421892166138 0.0391853153705596924
-0.00310965068638324738 -0.236072003841400146 0.0937300771474838257
0.00100952386856079102 -0.219430893659591675 0.0810437202453613281
0.464554369449615479 -0.360216319561004639 0.0300034806132316589
-0.269542008638381958 -0.13741658627986908 0.176762908697128296
-0.344585001468658447 -0.0650986731052398682 0.140835955739021301
0.123369805514812469 -0.276266872882843018 0.128322780132293701
-0.133927002549171448 0.0796050727367401123 0.089822821319103241
0.462643206119537354 -0.0536833256483078003 0.017487136647105217
-0.0136509593576192856 -0.216443538665771484 0.0798640996217727661
-0.554312169551849365 0.39242243766784668 0.147455513477325439
0.496656656265258789 -0.365955114364624023 0.00496964622288942337
-0.609313309192657471 0.294711649417877197 0.186491742730140686
0.529702484607696533 -0.274714082479476929 -0.318134874105453491
0.369906872510910034 -0.263914555311203003 0.180931150913238525
0.419856756925582886 -0.343800127506256104 0.150330856442451477
0.251061439514160156 0.03993196040391922 -0.0670113787055015564
0.54896622896194458 -0.149165317416191101 0.123979680240154266
-0.569770753383636475 0.284288406372070312 -0.00693557970225811005
0.50093543529510498 -0.36176636815071106 -0.0014322199858725071
0.208731353282928467 0.116098895668983459 -0.0111165419220924377
-0.289695858955383301 -0.0849596336483955383 -0.0667558386921882629
0.159017384052276611 -0.0826089754700660706 -0.0364353619515895844
-0.339332729578018188 -0.104850314557552338 0.140906244516372681
0.510589897632598877 -0.280873090028762817 -0.314018815755844116
-0.338906913995742798 -0.0788414925336837769 0.0383329465985298157
-0.368396848440170288 0.281507164239883423 -0.0625576227903366089
0.509835958480834961 -0.34020659327507019 0.0646935775876045227
0.301633954048156738 -0.205360054969787598 0.247757375240325928
0.542823135852813721 -0.311173409223556519 -0.0610092766582965851
0.141503915190696716 0.0701374709606170654 0.335948705673217773
-0.593057394027709961 0.267652958631515503 0.0118177365511655807
0.221984654664993286 -0.00641502626240253448 0.29516717791557312
0.230341196060180664 0.035021807998418808 0.312494665384292603
0.533536553382873535 -0.318720757961273193 -0.0132808629423379898
-0.389031559228897095 -0.0631268620491027832 0.105927199125289917
-0.44704514741897583 -0.0392741262912750244 0.12608984112739563
0.494812697172164917 -0.0906747728586196899 0.154067695140838623
0.250352442264556885 0.0639506354928016663 0.316613882780075073
-0.291546076536178589 -0.0920318737626075745 0.306915968656539917
-0.366148203611373901 -0.113941818475723267 0.103676624596118927
-0.562662184238433838 0.127664089202880859 -0.078409343957901001
-0.500848174095153809 0.0240008346736431122 0.186479479074478149
0.517664074897766113 -0.296868085861206055 -0.314847022294998169
0.471710622310638428 -0.327803313732147217 -0.300626993179321289
-0.572762548923492432 0.269350051879882812 0.362784773111343384
-0.570326149463653564 0.355316072702407837 0.166762501001358032
-0.19084930419921875 0.305125832557678223 0.101057201623916626
-0.660650551319122314 0.240128010511398315 0.0418918803334236145
-0.504343330860137939 0.145055204629898071 0.352981477975845337
0.506570100784301758 -0.346842646598815918 -0.318977624177932739
-0.199490398168563843 0.305533111095428467 0.101955816149711609
0.474995851516723633 -0.357036113739013672 0.00418265070766210556
0.509664714336395264 -0.329997837543487549 0.0659314319491386414
-0.609830260276794434 0.367884218692779541 0.0876293182373046875
-0.560858726501464844 0.288353621959686279 -0.0559991896152496338
0.219992548227310181 0.0110044479370117188 0.308758646249771118
0.239826932549476624 0.00587923545390367508 0.321404933929443359
-0.360031783580780029 -0.0559499077498912811 -0.138461753726005554
0.398153990507125854 -0.25203743577003479 0.32190355658531189
0.398587167263031006 -0.262423157691955566 0.324802488088607788
0.223746836185455322 -0.323586851358413696 0.320500195026397705
0.410325378179550171 -0.267203837633132935 0.325106889009475708
-0.508601784706115723 0.0501476526260375977 0.194732785224914551
-0.629366219043731689 0.15669625997543335 -0.0519764572381973267
-0.501199543476104736 0.147600501775741577 0.345111668109893799
0.520466089248657227 -0.350197315216064453 -0.323809981346130371
0.495246529579162598 -0.347714722156524658 -2.41054221987724304e-05
-0.197726726531982422 0.0167798716574907303 -0.0503385290503501892
-0.556058287620544434 0.341915607452392578 -0.00581425242125988007
0.488308876752853394 -0.35994371771812439 0.0405829437077045441
0.448495388031005859 -0.0735329389572143555 0.00154798990115523338
-0.555815994739532471 0.385732293128967285 0.157389551401138306
0.373582839965820312 -0.0803436413407325745 -0.120500937104225159
-0.388497143983840942 0.320196270942687988 0.16846911609172821
-0.383952528238296509 0.329030096530914307 0.196823954582214355
-0.364107519388198853 0.238785460591316223 -0.0840068459510803223
-0.40675652027130127 0.199995234608650208 0.0405791327357292175
-0.642769396305084229 0.287299811840057373 0.094165503978729248
0.40840756893157959 -0.346604764461517334 0.135690689086914062
0.222439169883728027 0.0832740217447280884 -0.0340765342116355896
0.497997105121612549 -0.16070084273815155 0.123636111617088318
0.499579846858978271 -0.0921175405383110046 0.134135738015174866
0.215182289481163025 0.00240284530445933342 0.299065262079238892
-0.353167176246643066 -0.0672361403703689575 -0.00957692507654428482
-0.384817242622375488 0.266566038131713867 -0.0719223916530609131
0.506502509117126465 -0.346486568450927734 0.0543867126107215881
-0.357459753751754761 -0.0553319677710533142 -0.145994752645492554
0.132047563791275024 0.0732314959168434143 0.321609139442443848
-0.0995339900255203247 -0.264962315559387207 0.00587536906823515892
0.241524457931518555 0.0239620041102170944 0.321850895881652832
-0.479623317718505859 -0.0109083577990531921 0.185659080743789673
0.241791784763336182 0.0489038079977035522 0.317048549652099609
-0.277933776378631592 0.333533495664596558 0.0406278781592845917
0.369014531373977661 -0.0303520690649747849 -0.0406387299299240112
0.520371377468109131 -0.347235590219497681 -0.0369443707168102264
0.293125838041305542 -0.0117643848061561584 0.0365502871572971344
-0.642538249492645264 0.285268038511276245 0.0930719971656799316
0.0364510789513587952 0.137065127491950989 0.0848838910460472107
-0.396913588047027588 -0.0568519756197929382 0.125362232327461243
-0.441229462623596191 -0.0378397256135940552 0.130416631698608398
0.523621439933776855 -0.316827297210693359 -0.0658962875604629517
0.421699255704879761 -0.279286086559295654 0.331117719411849976
0.509798705577850342 -0.344347596168518066 0.0566482134163379669
0.40293651819229126 -0.258206993341445923 0.32342180609703064
-0.479702413082122803 0.0187190491706132889 0.176473855972290039
0.235380172729492188 0.06922188401222229 0.313952118158340454
-0.479074865579605103 -0.00752514787018299103 0.167436540126800537
0.239018946886062622 0.0680622011423110962 0.314212977886199951
0.38693884015083313 0.0265444163233041763 0.105191364884376526
0.219398200511932373 -0.315668284893035889 0.309992611408233643
0.38195529580116272 0.0435369610786437988 0.0682497769594192505
0.461932003498077393 0.011472899466753006 0.174191504716873169
0.398619771003723145 -0.258076339960098267 0.327024757862091064
-0.498791754245758057 0.021657843142747879 0.180519625544548035
-0.571918964385986328 0.266559839248657227 0.360008001327514648
-0.662864148616790771 0.230128452181816101 0.0220394153147935867
-0.148307442665100098 0.275753229856491089 0.0788665860891342163
0.522005379199981689 -0.33441510796546936 -0.323148787021636963
-0.219789415597915649 0.31621059775352478 0.0965685844421386719
0.499707996845245361 -0.346001416444778442 0.0664596855640411377
-0.189026445150375366 0.303436994552612305 0.114601388573646545
0.31238478422164917 -0.129523500800132751 0.300606220960617065
0.225090757012367249 -0.0347537882626056671 0.304776608943939209
0.0578086636960506439 -0.33048701286315918 0.29077070951461792
0.434464484453201294 -0.279313236474990845 0.332616746425628662
0.408330172300338745 -0.28527560830116272 0.330664515495300293
0.384680241346359253 -0.26526215672492981 0.318725824356079102
0.396809697151184082 -0.384013861417770386 -0.226248443126678467
-0.161123767495155334 0.278803735971450806 0.128474578261375427
0.379611492156982422 0.0444637089967727661 0.0761840865015983582
0.389722645282745361 -0.255293846130371094 0.318657487630844116
-0.499729543924331665 0.0248000007122755051 0.185486257076263428
0.498847931623458862 -0.325689822435379028 -0.314178824424743652
0.379767358303070068 -0.375285297632217407 -0.217128276824951172
0.520885229110717773 -0.348827004432678223 -0.325669467449188232
0.520196378231048584 -0.347975462675094604 -0.322650372982025146
0.512881815433502197 -0.319284230470657349 -0.319515794515609741
0.254220038652420044 -0.221787095069885254 0.0569592677056789398
0.185775801539421082 -0.141697973012924194 -0.106076642870903015
0.507541775703430176 -0.319518595933914185 0.0289352722465991974
-0.468233674764633179 -0.011332876980304718 0.18091331422328949
0.495610624551773071 -0.348827362060546875 -0.310769915580749512
0.521255195140838623 -0.327095091342926025 -0.322786092758178711
0.475191950798034668 -0.320035099983215332 -0.303773462772369385
-0.34042656421661377 0.230347484350204468 -0.0448867343366146088
0.202146470546722412 0.133181944489479065 0.111855611205101013
-0.172398582100868225 0.0224711485207080841 0.0251477975398302078
0.265528112649917603 -0.165556952357292175 0.00560142518952488899
0.544793188571929932 -0.327615708112716675 -0.0485618263483047485
-0.45587611198425293 -0.0525606609880924225 0.161569446325302124
0.468859165906906128 -0.355823397636413574 -0.307878732681274414
0.477451026439666748 -0.269631117582321167 -0.302691757678985596
0.466405004262924194 -0.361704826354980469 -0.309112250804901123
-0.31936219334602356 0.267249763011932373 0.0110755655914545059
0.0333034694194793701 0.0990161299705505371 0.128305226564407349
-0.285097241401672363 -0.0993478819727897644 -0.0877255573868751526
-0.615416765213012695 0.217252105474472046 -0.104705408215522766
0.244049385190010071 0.104974396526813507 -0.030348803848028183
0.465051084756851196 -0.234600484371185303 -0.22861596941947937
-0.294293195009231567 -0.087839759886264801 -0.0962117165327072144
0.248441174626350403 -0.275488495826721191 0.322620004415512085
0.222191333770751953 0.0669721513986587524 -0.0285898000001907349
-0.250629216432571411 -0.1296672523021698 -0.0559639967978000641
-0.210717707872390747 0.302489489316940308 0.148378878831863403
0.338333100080490112 -0.140058219432830811 0.318494826555252075
0.529880702495574951 -0.355976313352584839 0.0689321607351303101
-0.59912031888961792 0.357054829597473145 0.0602937564253807068
-0.346868515014648438 -0.0548910051584243774 -0.144291967153549194
-0.432768583297729492 0.158152207732200623 -0.0851707309484481812
0.5267220139503479 -0.330877244472503662 0.0197960827499628067
0.527772903442382812 -0.287349581718444824 -0.0706671029329299927
-0.498673558235168457 0.143081218004226685 -0.254203468561172485
0.146849766373634338 0.157342538237571716 0.0579589009284973145
0.252511829137802124 -0.00716066546738147736 0.327604711055755615
0.348389416933059692 -0.146779730916023254 0.320742130279541016
0.441467076539993286 -0.322159320116043091 -0.230346769094467163
-0.223735243082046509 -0.139504477381706238 -0.0540516600012779236
0.522766947746276855 -0.349563330411911011 0.0962024480104446411
-0.644626259803771973 0.253901571035385132 0.024406135082244873
0.392277300357818604 -0.279598891735076904 0.322228223085403442
-0.473844707012176514 -0.00913799554109573364 0.164902687072753906
0.224050477147102356 -0.324557036161422729 0.318662196397781372
-0.363482356071472168 -0.120733484625816345 0.129584953188896179
-0.23848530650138855 -0.140156865119934082 -0.0543493255972862244
-0.113479115068912506 -0.00881886109709739685 -0.0169022902846336365
0.388388067483901978 -0.277788043022155762 0.320592373609542847
-0.506619751453399658 0.0118111670017242432 0.201541319489479065
0.461131572723388672 -0.296859979629516602 -0.295449972152709961
0.349862813949584961 -0.147641211748123169 0.321546852588653564
0.456509798765182495 -0.303240805864334106 -0.229666918516159058
0.0252849273383617401 -0.143717736005783081 -0.0204154141247272491
0.367947995662689209 -0.327161997556686401 0.318497300148010254
0.390813469886779785 -0.280886828899383545 0.316706240177154541
0.128511860966682434 -0.318536460399627686 -0.0977732390165328979
-0.133891373872756958 0.278939872980117798 0.117278628051280975
-0.333509504795074463 0.0952748954296112061 -0.10310373455286026
0.373198091983795166 -0.375088095664978027 -0.215727657079696655
0.519393324851989746 -0.345195174217224121 -0.323237717151641846
0.523398458957672119 -0.357382357120513916 -0.326960951089859009
-0.0683569759130477905 -0.254315674304962158 0.0983339324593544006
0.324689030647277832 -0.130273982882499695 0.314879357814788818
0.423384666442871094 -0.259179025888442993 0.328169703483581543
-0.479744523763656616 0.0324205346405506134 0.196147546172142029
0.526320040225982666 -0.299046099185943604 -0.322460204362869263
0.537704229354858398 -0.29188266396522522 -0.324981063604354858
0.377117276191711426 -0.373385339975357056 -0.214569061994552612
0.370407283306121826 -0.356169700622558594 -0.214509844779968262
0.524026215076446533 -0.351111918687820435 -0.325368583202362061
0.525302350521087646 -0.362627387046813965 -0.323570013046264648
0.515070140361785889 -0.326636821031570435 -0.320778489112854004
0.478802710771560669 -0.351603537797927856 -0.31263163685798645
0.478084951639175415 -0.365056782960891724 -0.313338518142700195
-0.361713498830795288 0.311363399028778076 0.238513410091400146
-0.320933610200881958 0.105003535747528076 0.0214774496853351593
-0.446539610624313354 0.204656749963760376 -0.0406696982681751251
-0.376828581094741821 0.279796898365020752 -0.00795204099267721176
-0.0228120684623718262 -0.26031079888343811 0.143077775835990906
-0.591252267360687256 0.36194649338722229 0.0641547292470932007
0.366729110479354858 -0.372656971216201782 -0.213142484426498413
-0.123806193470954895 -0.0101853758096694946 0.00774212554097175598
0.396038979291915894 -0.352448970079421997 -0.219085395336151123
0.506821990013122559 -0.158969119191169739 0.124919429421424866
0.195874780416488647 0.124840885400772095 0.00589091284200549126
-0.0262865591794252396 0.167624965310096741 0.382540285587310791
-0.333838820457458496 -0.120503194630146027 0.0997624844312667847
-0.324469655752182007 0.303336471319198608 -0.0373023822903633118
0.534128427505493164 -0.346213251352310181 0.0374841988086700439
0.525511026382446289 -0.33113744854927063 0.0340757966041564941
-0.594972610473632812 0.382867693901062012 0.113210439682006836
-0.0112609602510929108 -0.143734440207481384 -0.0271386858075857162
-0.235312238335609436 0.172929525375366211 -0.00208377931267023087
-0.484578073024749756 -0.00987339206039905548 0.177519276738166809
-0.277785539627075195 0.336836844682693481 0.0421136096119880676
0.5136147141456604 -0.348328649997711182 0.0965812429785728455
-0.447742313146591187 -0.0350839383900165558 0.116671055555343628
0.433465540409088135 -0.252610683441162109 0.331747084856033325
0.413940846920013428 -0.2776050865650177 0.327171921730041504
-0.46861189603805542 0.0349534898996353149 0.192904502153396606
0.502208292484283447 -0.338714540004730225 0.00779824238270521164
-0.480579376220703125 -0.00218867138028144836 0.177899003028869629
-0.376773029565811157 -0.105994090437889099 0.0925273746252059937
-0.500339388847351074 0.022623768076300621 0.184058651328086853
0.359365642070770264 -0.286232262849807739 -0.142229706048965454
0.00190010108053684235 -0.231015875935554504 0.0895473062992095947
-0.1395149827003479 0.265731662511825562 0.0883140414953231812
-0.128920048475265503 0.255055934190750122 0.0710927322506904602
0.311608314514160156 -0.292603045701980591 -0.131512612104415894
0.427439361810684204 -0.254922270774841309 0.330203980207443237
-0.613820493221282959 0.307322263717651367 0.392523199319839478
0.410115182399749756 -0.356967717409133911 -0.227181404829025269
0.504434168338775635 -0.34625852108001709 -0.320495396852493286
0.507425129413604736 -0.352078497409820557 -0.323240309953689575
0.523220539093017578 -0.298030227422714233 -0.31916084885597229
0.50916367769241333 -0.346236824989318848 -0.320784062147140503
0.26960909366607666 -0.168803960084915161 -0.0799813419580459595
0.133619457483291626 0.120899021625518799 0.328619152307510376
0.251087605953216553 -0.284605920314788818 0.328363537788391113
0.3235207200050354 -0.119461141526699066 0.310319095849990845
0.301745742559432983 -0.204044744372367859 0.250851094722747803
0.249334543943405151 -0.00314930826425552368 0.325015276670455933
0.507155656814575195 -0.34238135814666748 0.0871850699186325073
0.241391748189926147 0.090755559504032135 0.309681683778762817
0.461858689785003662 -0.283683091402053833 -0.231541544198989868
-0.261841893196105957 0.314735740423202515 0.0458841286599636078
0.342736482620239258 -0.139424532651901245 0.329674392938613892
0.373086631298065186 -0.36294245719909668 -0.209442839026451111
0.33629608154296875 -0.128761798143386841 0.320799380540847778
0.52653038501739502 -0.34656563401222229 -0.324264347553253174
0.524289548397064209 -0.351462125778198242 -0.32686731219291687
0.479634225368499756 -0.371684253215789795 -0.313410162925720215
-0.359980195760726929 -0.0641525015234947205 0.0824538767337799072
-0.407421022653579712 0.089398406445980072 -0.113701790571212769
0.0151736214756965637 0.0985550731420516968 0.216976851224899292
-0.377752304077148438 -0.0928051769733428955 -0.0285718739032745361
0.265095800161361694 0.0690011903643608093 -0.0923339501023292542
-0.10816878080368042 -0.014690665528178215 0.0455581396818161011
-0.358333200216293335 -0.0913110151886940002 0.0126622887328267097
-0.289382874965667725 0.305490046739578247 0.166289329528808594
-0.355505973100662231 -0.0728321895003318787 0.0403359420597553253
-0.597106218338012695 0.295114338397979736 0.18653067946434021
0.248835638165473938 0.0975334644317626953 -0.0347356647253036499
0.378567397594451904 -0.354184240102767944 -0.210201531648635864
0.469123393297195435 -0.324063152074813843 0.137647897005081177
0.463803589344024658 -0.271149277687072754 -0.0935378819704055786
-0.439537405967712402 -0.0425390526652336121 0.0836154669523239136
-0.336499273777008057 -0.123956114053726196 0.127212882041931152
0.528503477573394775 -0.341219305992126465 0.0505144819617271423
0.391653656959533691 0.0478168167173862457 0.133270263671875
-0.184850066900253296 0.314550280570983887 0.107729524374008179
-0.440956979990005493 -0.0423170477151870728 0.117275938391685486
0.537401974201202393 -0.325343668460845947 -0.0561390556395053864
-0.352388978004455566 0.307167917490005493 0.113756045699119568
0.493908703327178955 -0.345441669225692749 0.0437896847724914551
-0.57421576976776123 0.305936574935913086 0.379668980836868286
0.430250436067581177 -0.28030705451965332 0.33364570140838623
-0.477673619985580444 0.00466839177533984184 0.16364230215549469
0.525191426277160645 -0.349007010459899902 -0.00295422179624438286
-0.0669201910495758057 -0.262583523988723755 0.297868221998214722
-0.511862099170684814 0.00521474983543157578 0.187594354152679443
0.389339208602905273 -0.359364926815032959 -0.216413915157318115
-0.118296012282371521 0.255369722843170166 0.0637781918048858643
-0.499787420034408569 0.0053287171758711338 0.192885652184486389
0.425718605518341064 -0.273845583200454712 0.330706208944320679
-0.333644598722457886 0.104577153921127319 -0.119263634085655212
-0.104915320873260498 0.254723250865936279 0.0935695618391036987
0.510284245014190674 -0.341277241706848145 -0.320348769426345825
-0.611132323741912842 0.30287894606590271 0.396653622388839722
-0.508484721183776855 0.0370645970106124878 0.188453957438468933
-0.291800439357757568 -0.0885122939944267273 -0.0788224488496780396
0.508997321128845215 -0.344428002834320068 -0.321664154529571533
0.0724553987383842468 0.139546379446983337 0.0722406432032585144
0.244835630059242249 0.10801716148853302 0.320979207754135132
0.472226589918136597 -0.286432117223739624 -0.231243953108787537
0.304441064596176147 -0.314257234334945679 0.331631928682327271
0.511261224746704102 -0.349552154541015625 -0.322797805070877075
-0.3156089186668396 -0.0863834992051124573 -0.0348475724458694458
0.514030992984771729 -0.355268388986587524 -0.323896557092666626
-0.624178528785705566 0.180505663156509399 -0.086114048957824707
-0.354163050651550293 -0.0548922941088676453 -0.144463241100311279
-0.330155640840530396 0.269829928874969482 -0.0555304624140262604
-0.177141249179840088 0.139819875359535217 0.00482879253104329109
0.544875681400299072 -0.216901794075965881 0.159039765596389771
0.0310591086745262146 0.103069871664047241 0.0653749704360961914
0.509428322315216064 -0.330392569303512573 -0.320011734962463379
0.585714817047119141 -0.324515014886856079 -0.320451527833938599
0.24908524751663208 -0.28779911994934082 0.318449795246124268
0.255048871040344238 -0.00245062354952096939 0.327824950218200684
0.300741970539093018 -0.281911611557006836 0.331051349639892578
-0.34379240870475769 -0.0898320525884628296 0.0177519042044878006
-0.37377813458442688 -0.089443109929561615 -0.0185011755675077438
-0.0655279383063316345 -0.27295231819152832 0.1588173508644104
-0.629377663135528564 0.276242524385452271 0.0759835913777351379
0.365876138210296631 -0.364907830953598022 -0.213061079382896423
-0.123826861381530762 -0.0286802593618631363 -0.00670322496443986893
-0.597620248794555664 0.342827379703521729 0.0904622972011566162
0.443000316619873047 -0.24912610650062561 -0.286843240261077881
0.381845921277999878 -0.347243130207061768 -0.212959215044975281
0.311437666416168213 -0.371917515993118286 -0.156658008694648743
-0.178569361567497253 0.313077241182327271 0.0997976884245872498
0.535167872905731201 -0.31854817271232605 -0.0329204536974430084
-0.653696954250335693 0.238704845309257507 0.0145443286746740341
-0.45270124077796936 -0.0532730668783187866 0.162726998329162598
0.499849259853363037 -0.348045825958251953 0.0707822591066360474
0.439820140600204468 -0.260184884071350098 0.334247291088104248
0.507023990154266357 -0.343043804168701172 0.0296340752393007278
0.26416778564453125 0.122139208018779755 0.0267362520098686218
0.39899832010269165 0.0330580547451972961 0.139214202761650085
-0.10564953088760376 0.252979099750518799 0.0722839236259460449
0.315896898508071899 -0.37991863489151001 -0.157688915729522705
-0.565257668495178223 0.295490533113479614 -0.0517236180603504181
0.389913648366928101 -0.361986935138702393 -0.221656203269958496
0.358070284128189087 0.0339808166027069092 0.0479320921003818512
0.19443809986114502 -0.364834696054458618 -0.0964927300810813904
0.390709787607192993 -0.354785263538360596 -0.217988342046737671
0.519659876823425293 -0.334592640399932861 -0.32301667332649231
0.522801637649536133 -0.332580775022506714 -0.324487209320068359
0.243284627795219421 0.0247159563004970551 0.323979675769805908
0.212290793657302856 -0.338074773550033569 0.318475157022476196
0.236857086420059204 0.107005789875984192 0.314635336399078369
0.521506965160369873 -0.336291134357452393 -0.326182544231414795
0.317541211843490601 -0.379042893648147583 -0.151791080832481384
0.584161341190338135 -0.317372828722000122 -0.334706544876098633
-0.380096614360809326 -0.0927585288882255554 -0.0179655756801366806
0.457643270492553711 -0.32499423623085022 0.124528855085372925
0.388119935989379883 0.0543055832386016846 0.131029605865478516
-0.172913700342178345 0.307751983404159546 0.10568515956401825
-0.461800932884216309 -0.0292905643582344055 0.134123623371124268
0.43899187445640564 -0.260752558708190918 0.33500179648399353
0.399345874786376953 0.0253779217600822449 0.127390831708908081
0.426519006490707397 -0.262974679470062256 0.332124501466751099
-0.509842514991760254 0.00481773633509874344 0.190504372119903564
-0.130442142486572266 0.254344820976257324 0.081523403525352478
-0.284107685089111328 0.336817443370819092 0.0342823192477226257
0.454461902379989624 -0.258869290351867676 0.336463987827301025
-0.330837637186050415 0.0983382239937782288 -0.118473328649997711
-0.508007407188415527 0.0366181805729866028 0.188411876559257507
0.257243484258651733 0.00817026104778051376 0.327367156744003296
0.44512215256690979 -0.2553558349609375 0.333826541900634766
0.236353620886802673 0.109880536794662476 0.308326214551925659
0.301764458417892456 -0.328662127256393433 0.334160506725311279
-0.319569617509841919 0.267290264368057251 -0.0472295507788658142
-0.133148297667503357 -0.268054068088531494 -0.00516690313816070557
-0.376114875078201294 -0.0748965367674827576 0.0238116253167390823
-0.375734806060791016 -0.0630054324865341187 -0.160702943801879883
-0.494230419397354126 -0.0223069656640291214 0.173878133296966553
-0.526864230632781982 -0.00642852019518613815 0.18698352575302124
0.38144528865814209 -0.365724414587020874 -0.219991564750671387
0.388881057500839233 -0.329581171274185181 0.185984969139099121
-0.576723277568817139 0.292029619216918945 -0.0411645993590354919
0.241111993789672852 0.08903464674949646 -0.0401118770241737366
0.373769909143447876 -0.350619137287139893 -0.210774868726730347
0.188223898410797119 0.108031593263149261 0.00145894777961075306
-0.340400516986846924 0.273329675197601318 -0.0522000603377819061
0.532619833946228027 -0.353166729211807251 0.0528637394309043884
-0.11342061311006546 0.186067670583724976 0.354222327470779419
-0.215171948075294495 0.313878774642944336 0.111841171979904175
0.469422876834869385 -0.304539531469345093 -0.236170917749404907
0.536482512950897217 -0.320162445306777954 -0.026793893426656723
-0.265995681285858154 0.310830295085906982 0.045285690575838089
0.27842673659324646 0.00883790664374828339 -0.0277464427053928375
0.3838672935962677 -0.361528962850570679 -0.217672601342201233
0.0280161239206790924 -0.0950584858655929565 0.0184977035969495773
-0.416417479515075684 -0.0569041483104228973 0.132744595408439636
0.384501487016677856 -0.286927461624145508 -0.110328659415245056
0.381453543901443481 -0.362406790256500244 -0.2202787846326828
0.199795991182327271 -0.365785002708435059 -0.0966226160526275635
0.386922389268875122 -0.353102147579193115 -0.217419490218162537
0.511461615562438965 -0.336400926113128662 -0.320554286241531372
0.512817203998565674 -0.336112469434738159 -0.322637438774108887
0.232491612434387207 0.0348832905292510986 0.318580538034439087
0.241615012288093567 0.0898581594228744507 0.309500604867935181
0.36164170503616333 -0.282321333885192871 0.31575322151184082
0.530284285545349121 -0.345543473958969116 -0.330579400062561035
0.199920415878295898 -0.189739197492599487 -0.0719567090272903442
-0.19279874861240387 0.134057611227035522 0.00867936480790376663
0.320488125085830688 -0.373655855655670166 -0.15916578471660614
0.20430310070514679 -0.325111865997314453 0.315425753593444824
0.321857929229736328 -0.277033776044845581 0.317317187786102295
-0.498385906219482422 0.01676202192902565 0.183328807353973389
0.346278131008148193 -0.272259265184402466 -0.132689371705055237
0.243923693895339966 0.0218637697398662567 0.321841001510620117
0.194964766502380371 -0.166941672563552856 -0.067926064133644104
0.0380277074873447418 0.13188973069190979 0.105322375893592834
-0.455325186252593994 -0.0501057058572769165 0.154115825891494751
-0.139256566762924194 0.26966974139213562 0.0794367417693138123
0.539726436138153076 -0.225639969110488892 0.172615677118301392
0.236262053251266479 0.105234280228614807 0.308877527713775635
-0.451243370771408081 -0.0268754642456769943 0.123726062476634979
-0.509346723556518555 0.00196549529209733009 0.17321641743183136
0.236536607146263123 0.0844731256365776062 0.309968799352645874
-0.487534552812576294 -0.0222750287503004074 0.178083181381225586
-0.52061992883682251 -0.000910197384655475616 0.186732560396194458
-0.0837992876768112183 0.0745813474059104919 0.0415625125169754028
0.366809546947479248 -0.0221388395875692368 -0.0825089141726493835
-0.232274651527404785 0.0475330576300621033 -0.0687614455819129944
