ply
format ascii 1.0
element vertex 738
property float x
property float y
property float z
end_header
0.249226421117782593 -0.00464202836155891418 0.0219011437147855759
-0.555707275867462158 0.205159574747085571 0.118310719728469849
-0.457420468330383301 0.217134580016136169 0.0236076116561889648
-0.463502079248428345 0.26747623085975647 -0.0031059938482940197
-0.574960887432098389 0.248104631900787354 -0.076558336615562439
-0.389828711748123169 0.275852978229522705 -0.0849103182554244995
0.342672169208526611 -0.133911535143852234 0.319044321775436401
-0.498390853404998779 0.207835465669631958 -0.0117918103933334351
-0.346010267734527588 0.293534994125366211 -0.0508337579667568207
0.52596360445022583 -0.360302150249481201 0.0412406660616397858
-0.540135383605957031 0.215883046388626099 0.200648874044418335
-0.56941753625869751 0.295050621032714844 -0.00357323326170444489
0.315552890300750732 0.0244810972362756729 0.0482630468904972076
0.480938911437988281 -0.306519001722335815 -0.304408639669418335
0.478716880083084106 -0.325785160064697266 0.124991565942764282
0.522854268550872803 -0.306061893701553345 -0.0989115685224533081
0.489502012729644775 -0.310161590576171875 -0.307743728160858154
0.515871167182922363 -0.324234127998352051 0.119758963584899902
0.443286001682281494 -0.299740463495254517 -0.29124942421913147
0.522822678089141846 -0.303607702255249023 -0.097562059760093689
0.134335160255432129 0.11722283810377121 0.33679547905921936
-0.641894102096557617 0.243176043033599854 -0.00938469544053077698
-0.293079525232315063 -0.113048210740089417 -0.105767540633678436
0.538131594657897949 -0.254806458950042725 0.0923166126012802124
0.129298761487007141 0.0983898714184761047 0.31697535514831543
-0.235767319798469543 -0.142736062407493591 -0.0715150162577629089
0.251687347888946533 0.0307293366640806198 -0.0864384397864341736
0.53052818775177002 -0.322342425584793091 0.00659247208386659622
-0.598867118358612061 0.307866722345352173 0.104218617081642151
0.531335353851318359 -0.243925392627716064 0.0864474028348922729
-0.373754203319549561 -0.0604054927825927734 0.0916526615619659424
0.52613598108291626 -0.27439764142036438 -0.123323157429695129
-0.501107335090637207 0.14954841136932373 0.352873414754867554
0.384393036365509033 -0.296895861625671387 0.13132929801940918
0.132700353860855103 -0.330975741147994995 -0.100937366485595703
0.522268772125244141 -0.353991806507110596 -0.0150702744722366333
-0.437046706676483154 0.151716768741607666 -0.0856179893016815186
0.515299558639526367 -0.299325883388519287 0.0644436180591583252
0.392050415277481079 -0.367048412561416626 -0.214093729853630066
0.499488770961761475 -0.170889303088188171 0.130196139216423035
0.533214092254638672 -0.333275318145751953 0.0278994478285312653
-0.580148577690124512 0.349705547094345093 0.0400548949837684631
0.519095480442047119 -0.240582048892974854 -0.309251368045806885
-0.601024270057678223 0.371413528919219971 0.104451894760131836
-0.500592172145843506 0.147979781031608582 0.35505947470664978
0.233917474746704102 -0.27714422345161438 0.31697380542755127
-0.182121872901916504 -0.136014118790626526 -0.0557624697685241699
-0.229197189211845398 -0.137082070112228394 -0.0539136677980422974
-0.204238831996917725 0.299194663763046265 0.126161783933639526
0.262641668319702148 -0.288871735334396362 0.323249638080596924
-0.362837642431259155 -0.0297451317310333252 0.118981726467609406
-0.499451547861099243 0.0196994394063949585 0.0313062593340873718
0.242132872343063354 0.000987098552286624908 0.322165012359619141
0.141404539346694946 -0.289650231599807739 0.311309605836868286
0.306650310754776001 -0.206907078623771667 0.248219132423400879
-0.385222971439361572 0.255696982145309448 0.0339348241686820984
0.530633330345153809 -0.261779695749282837 0.102940216660499573
0.224088788032531738 0.0233666207641363144 0.30506366491317749
0.529598116874694824 -0.146517336368560791 -0.308504194021224976
-0.643781125545501709 0.231722146272659302 -0.0475201010704040527
0.540838181972503662 -0.310118436813354492 -0.0446736179292201996
0.50715339183807373 -0.267221003770828247 -0.311880052089691162
0.513710319995880127 -0.31550908088684082 -0.2953835129737854
0.457656532526016235 -0.290388792753219604 -0.297136783599853516
-0.542911171913146973 0.268529236316680908 -0.189789712429046631
-0.621561348438262939 0.289620935916900635 0.0666526705026626587
0.362538695335388184 -0.383320540189743042 -0.206701010465621948
-0.0923037678003311157 0.26818278431892395 0.189186587929725647
-0.448463469743728638 0.13184240460395813 -0.209311902523040771
-0.575468122959136963 0.204404830932617188 -0.127252429723739624
-0.629673123359680176 0.192176952958106995 -0.0398661978542804718
-0.469931542873382568 0.139855057001113892 -0.231351882219314575
0.257356941699981689 -0.0163651444017887115 -0.0724672228097915649
0.230309829115867615 0.0544256791472434998 -0.0458120591938495636
0.113081760704517365 0.110425502061843872 0.301274806261062622
-0.584379196166992188 0.218806207180023193 -0.221755474805831909
-0.597590446472167969 0.235671550035476685 -0.0111733600497245789
-0.367392659187316895 -0.090889662504196167 0.122160464525222778
-0.330545961856842041 -0.124356396496295929 0.136731952428817749
-0.634105265140533447 0.199981987476348877 -0.0384134240448474884
-0.425783753395080566 -0.0543534159660339355 0.098418116569519043
-0.477977752685546875 0.0206655226647853851 -0.0370342396199703217
0.208405435085296631 0.00921385642141103745 0.300262629985809326
-0.634297072887420654 0.248711377382278442 -0.0059888102114200592
-0.127827554941177368 0.270719379186630249 0.131734371185302734
0.2706584632396698 -0.329564511775970459 0.179610878229141235
0.532434940338134766 -0.209249705076217651 -0.098885267972946167
-0.127123787999153137 -0.111763052642345428 -0.0548650138080120087
0.453248560428619385 -0.338141560554504395 -0.298570990562438965
-0.21328049898147583 0.0370540022850036621 -0.0601887889206409454
-0.553283989429473877 0.176338747143745422 0.0121596725657582283
-0.198762685060501099 0.140435725450515747 0.0205177944153547287
-0.0130336657166481018 -0.10186411440372467 -0.0434587262570858002
0.26437532901763916 -0.274174392223358154 0.202012404799461365
0.348054885864257812 -0.320289582014083862 -0.000750744249671697617
-0.156188547611236572 0.0703901946544647217 0.0265429429709911346
-0.249296143651008606 0.131532490253448486 -0.0348753556609153748
0.199192732572555542 0.00224814377725124359 0.0186605602502822876
0.0765650421380996704 0.0814568325877189636 0.0234291516244411469
-0.283446967601776123 0.288973867893218994 -0.00635441113263368607
0.47612491250038147 -0.289215266704559326 -0.302362918853759766
-0.557016253471374512 0.266450583934783936 -0.0174099821597337723
-0.23767562210559845 0.0984790623188018799 -0.0327908769249916077
0.13742440938949585 -0.280059128999710083 0.14944128692150116
0.296061217784881592 -0.296720057725906372 0.0565424486994743347
-0.28603971004486084 0.257907241582870483 0.000296839047223329544
-0.0216433238238096237 -0.0398270636796951294 0.0888510048389434814
0.20427626371383667 0.0433880165219306946 0.0652181059122085571
-0.1442280113697052 -0.0844527482986450195 0.0914081037044525146
0.371343433856964111 -0.0724801719188690186 0.0311482641845941544
0.520854413509368896 -0.198221474885940552 -0.0987469181418418884
0.486292332410812378 -0.297120422124862671 -0.305938214063644409
0.479443103075027466 -0.314226835966110229 0.122025102376937866
0.513281047344207764 -0.30619513988494873 -0.102796018123626709
0.495367050170898438 -0.3086567223072052 -0.310100793838500977
0.505573391914367676 -0.326865583658218384 -0.00418496783822774887
0.51133352518081665 -0.323748588562011719 0.118173643946647644
0.464540749788284302 -0.288309842348098755 -0.297419130802154541
0.437042355537414551 -0.262750506401062012 -0.194686174392700195
0.135067537426948547 0.117888666689395905 0.336700171232223511
0.395572423934936523 -0.243637830018997192 0.318736433982849121
-0.601763486862182617 0.355267137289047241 0.0654458552598953247
-0.505669116973876953 0.358142673969268799 0.177789419889450073
0.542162001132965088 -0.281721502542495728 0.0976967066526412964
0.255848020315170288 0.0376799628138542175 -0.0726131200790405273
-0.233813509345054626 0.156799688935279846 -0.00576379150152206421
0.505617856979370117 -0.330970585346221924 -0.00258542317897081375
0.442807674407958984 -0.249541357159614563 -0.228251948952674866
-0.638825297355651855 0.255175799131393433 0.0545604042708873749
0.532001852989196777 -0.261907279491424561 0.0931649506092071533
-0.392837554216384888 -0.0586668290197849274 0.0999944061040878296
0.523649513721466064 -0.288548976182937622 -0.0924779921770095825
0.027888815850019455 -0.273341566324234009 -0.0357049033045768738
0.38427656888961792 -0.305253386497497559 0.118426620960235596
-0.582878232002258301 0.367876201868057251 0.131391853094100952
0.239224612712860107 0.00375890592113137245 0.180272132158279419
-0.113248541951179504 0.166416212916374207 0.347320050001144409
0.481373488903045654 -0.367598384618759155 -0.0223605223000049591
0.411047816276550293 -0.320583105087280273 -0.211892455816268921
0.506390631198883057 -0.15482756495475769 0.124129004776477814
0.528537571430206299 -0.333880424499511719 0.0122517328709363937
-0.584119141101837158 0.337301254272460938 0.0340114682912826538
-0.591259121894836426 0.382811933755874634 0.131025135517120361
0.525470256805419922 -0.244002759456634521 -0.311101824045181274
0.473341405391693115 -0.290225118398666382 -0.300240606069564819
-0.59777534008026123 0.354546666145324707 0.169494479894638062
-0.587763488292694092 0.372413992881774902 0.100769057869911194
-0.212802484631538391 -0.128538474440574646 -0.0582133084535598755
0.234307274222373962 -0.292217522859573364 0.314571648836135864
0.237658277153968811 0.0680994093418121338 0.319623768329620361
0.541487216949462891 -0.312866717576980591 -0.0584192946553230286
-0.444880664348602295 -0.0478147268295288086 0.125880181789398193
0.358314037322998047 -0.387418985366821289 -0.20971447229385376
-0.556558847427368164 0.212090715765953064 -0.113863036036491394
0.520449995994567871 -0.278595238924026489 -0.177383884787559509
0.241355374455451965 0.0357608087360858917 0.314128965139389038
0.242354124784469604 0.00135363172739744186 0.0231676492840051651
0.379689127206802368 0.0396898165345191956 0.0113234138116240501
0.526091098785400391 -0.230264663696289062 -0.310486495494842529
0.325954556465148926 0.0970860570669174194 -0.0365327261388301849
-0.374559938907623291 -0.0594036281108856201 -0.1333342045545578
0.511955320835113525 -0.166802108287811279 0.136048793792724609
-0.575069308280944824 0.323100656270980835 0.0493678152561187744
-0.5589028000831604 0.284146219491958618 0.363994508981704712
0.22382315993309021 0.0327704213559627533 -0.0586060471832752228
-0.574577987194061279 0.215252280235290527 -0.221421867609024048
-0.0446181967854499817 0.157462775707244873 0.0810179263353347778
0.114096552133560181 0.110737830400466919 0.0250463876873254776
0.342251956462860107 -0.246141389012336731 -0.0972144752740859985
-0.28504633903503418 0.301200777292251587 -0.00325916986912488937
0.152883574366569519 -0.00379831902682781219 -0.0038865627720952034
0.0689126476645469666 0.139674097299575806 0.0752804949879646301
-0.270300090312957764 0.281023025512695312 0.00138649740256369114
0.502799093723297119 -0.291625827550888062 -0.159740984439849854
0.13652724027633667 -0.0251229740679264069 0.012600473128259182
-0.33952784538269043 -0.0310424212366342545 0.022389974445104599
0.37266877293586731 -0.0911230295896530151 0.0440363176167011261
0.199786007404327393 0.102062821388244629 -0.00237065739929676056
-0.297554582357406616 -0.0241273678839206696 0.03566698357462883
0.131721019744873047 -0.0171651411801576614 -0.0266829337924718857
0.101238921284675598 0.0166602600365877151 0.0907988697290420532
0.176039755344390869 0.120184838771820068 0.0377416051924228668
-0.231024742126464844 -0.0629069656133651733 0.104390732944011688
0.485198110342025757 -0.296005547046661377 -0.304253041744232178
-0.603429436683654785 0.29063752293586731 0.184991538524627686
0.4659157395362854 -0.308174252510070801 0.119824521243572235
0.377403616905212402 -0.0137357041239738464 0.0059038638137280941
0.514198422431945801 -0.294257819652557373 -0.103810116648674011
0.517966747283935547 -0.239299118518829346 -0.308361589908599854
0.47642594575881958 -0.309244364500045776 -0.301107078790664673
0.482395857572555542 -0.274018645286560059 -0.300669550895690918
0.116904743015766144 0.11954701691865921 0.297133862972259521
-0.58462226390838623 0.357263803482055664 0.0654776021838188171
0.383001267910003662 -0.336572915315628052 0.124972432851791382
-0.574617683887481689 0.318268060684204102 -0.0268510542809963226
-0.604205071926116943 0.217818468809127808 -0.087035641074180603
0.267420411109924316 0.0401283726096153259 -0.0868024975061416626
-0.357278168201446533 -0.0214026365429162979 -0.131745815277099609
-0.565100610256195068 0.315226107835769653 -0.00816890597343444824
0.190438300371170044 -0.340063303709030151 -0.0752395913004875183
0.403006166219711304 -0.356696963310241699 -0.224736243486404419
-0.500324368476867676 0.146549656987190247 0.354465335607528687
0.508865594863891602 -0.150768280029296875 0.115164332091808319
0.495577633380889893 -0.263493120670318604 -0.305158019065856934
0.456596225500106812 -0.280257374048233032 -0.290294677019119263
0.439569622278213501 -0.264656364917755127 -0.284299701452255249
-0.588297009468078613 0.358404070138931274 0.0614062882959842682
0.504259109497070312 -0.125940755009651184 0.124107286334037781
-0.206207215785980225 0.313015908002853394 0.10818752646446228
0.268000334501266479 -0.283170789480209351 0.318772882223129272
0.231877654790878296 0.00447025522589683533 0.317586332559585571
0.512111902236938477 -0.17508639395236969 -0.281609535217285156
-0.115856245160102844 0.0106115750968456268 0.00540862744674086571
0.402856737375259399 -0.358758717775344849 -0.225234150886535645
0.416587144136428833 -0.312605679035186768 0.143439367413520813
-0.556029438972473145 0.37742951512336731 0.186394289135932922
-0.175934165716171265 0.310125648975372314 0.118186935782432556
-0.390360057353973389 0.276860594749450684 -0.0857997983694076538
0.364909440279006958 0.0524010807275772095 0.0239847879856824875
0.129578292369842529 0.116725549101829529 0.318293064832687378
-0.287334054708480835 -0.0996505692601203918 -0.0923042893409729004
0.257733136415481567 0.101822882890701294 -0.062631949782371521
-0.361978262662887573 -0.0585980452597141266 -0.144398599863052368
0.134148955345153809 0.114617824554443359 0.337479978799819946
-0.563696384429931641 0.199907258152961731 -0.229552805423736572
-0.27659723162651062 0.288801580667495728 -0.00143558438867330551
0.453563511371612549 -0.24608534574508667 -0.288835644721984863
0.459169864654541016 -0.274787694215774536 -0.291318446397781372
-0.634945452213287354 0.308866739273071289 0.170363575220108032
0.512048602104187012 -0.316511780023574829 -0.0388043373823165894
0.467561662197113037 -0.26546788215637207 -0.2985515296459198
0.476806521415710449 -0.294431239366531372 -0.301083505153656006
0.456776291131973267 -0.245978251099586487 -0.290218591690063477
0.38015592098236084 -0.360189318656921387 -0.21466904878616333
-0.479771077632904053 -0.0116567760705947876 0.185409680008888245
-0.516961574554443359 0.366640865802764893 0.173428356647491455
-0.618126869201660156 0.202510327100753784 -0.0874449089169502258
-0.237719208002090454 0.0194634236395359039 -0.0727933943271636963
-0.382423520088195801 -0.0583058968186378479 0.0230711661279201508
0.474290072917938232 -0.3676128089427948 0.0214710459113121033
-0.648523926734924316 0.237392336130142212 0.0324425846338272095
0.411583811044692993 -0.345944106578826904 -0.222489923238754272
0.525701582431793213 -0.336364686489105225 0.0795782953500747681
0.505045771598815918 -0.238598421216011047 -0.308649241924285889
0.249403730034828186 -0.281418830156326294 0.317852050065994263
0.23895716667175293 0.0674955993890762329 0.313975244760513306
0.539182007312774658 -0.300956219434738159 -0.0939386487007141113
-0.448131769895553589 -0.0406598187983036041 0.125315487384796143
-0.0441646464169025421 0.105431988835334778 0.317396581172943115
0.247256219387054443 0.0219413787126541138 0.322062253952026367
-0.285526365041732788 -0.0986363440752029419 -0.0993078798055648804
-0.138411939144134521 -0.0143397673964500427 -0.0493539869785308838
-0.278296858072280884 0.338717937469482422 0.0466995388269424438
-0.255139529705047607 0.290637701749801636 -0.00373454391956329346
-0.219251424074172974 0.32285761833190918 0.0694247633218765259
-0.573325932025909424 0.15299031138420105 -0.0748930200934410095
-0.290088623762130737 0.293548792600631714 0.0156476162374019623
0.525367140769958496 -0.319712013006210327 0.0268021207302808762
0.345267146825790405 -0.0296896304935216904 -0.0349890105426311493
0.52196735143661499 -0.362156152725219727 0.0888753682374954224
-0.0841958522796630859 -0.111061140894889832 0.0780821889638900757
-0.403965115547180176 0.327032238245010376 0.120670460164546967
0.504174649715423584 -0.366331994533538818 -0.00495397672057151794
-0.118879280984401703 0.267125725746154785 0.120647050440311432
0.5185089111328125 -0.342096090316772461 0.0355012789368629456
0.130500853061676025 -0.333828657865524292 0.300688982009887695
0.465806901454925537 -0.31028902530670166 0.0723436921834945679
0.482254356145858765 -0.373432934284210205 0.0520035885274410248
0.420356780290603638 -0.0252218618988990784 0.0642756447196006775
0.493579119443893433 -0.362804949283599854 -0.0159975383430719376
-0.233011201024055481 0.287928968667984009 0.0836731418967247009
0.530838906764984131 -0.330862253904342651 -0.00766675453633069992
-0.272359132766723633 0.316273957490921021 0.1134805828332901
0.307394891977310181 0.00334639055654406548 0.0456729792058467865
0.465710490942001343 -0.262979507446289062 -0.296499252319335938
0.47243925929069519 -0.303777486085891724 0.114017128944396973
0.51092684268951416 -0.312621355056762695 -0.10472463071346283
0.508441805839538574 -0.244995817542076111 -0.308828979730606079
0.446784257888793945 -0.291964918375015259 -0.29341733455657959
0.464862585067749023 -0.28289458155632019 -0.298103809356689453
0.138333320617675781 0.113598272204399109 0.336402267217636108
-0.651483714580535889 0.286395162343978882 0.0982283800840377808
-0.637910425662994385 0.245542585849761963 -0.0380453504621982574
0.13617745041847229 0.0699689760804176331 0.337366312742233276
-0.577022135257720947 0.304379791021347046 -0.0558817200362682343
0.262068122625350952 0.0313434451818466187 -0.0740644782781600952
0.540719330310821533 -0.216150104999542236 0.111763074994087219
-0.360686570405960083 -0.0349996313452720642 -0.135021567344665527
-0.574914693832397461 0.328072071075439453 -0.0299483537673950195
-0.362616121768951416 -0.0700275078415870667 -0.0344057902693748474
-0.130867764353752136 -0.26697462797164917 0.118615768849849701
0.494534105062484741 -0.365212857723236084 -0.000841741450130939484
0.372632473707199097 -0.358548671007156372 -0.21091344952583313
-0.378665059804916382 -0.106033988296985626 0.100904121994972229
-0.0674041062593460083 -0.263440072536468506 0.296108663082122803
0.518943607807159424 -0.242901235818862915 -0.309902220964431763
0.509047746658325195 -0.329553842544555664 0.014994901604950428
-0.593780398368835449 0.370171248912811279 0.120566651225090027
-0.654399871826171875 0.175958156585693359 -0.102981396019458771
-0.223528891801834106 -0.143254905939102173 -0.0540054701268672943
-0.191141113638877869 0.317343801259994507 0.100263684988021851
0.256760597229003906 -0.282730996608734131 0.319139242172241211
0.238611847162246704 0.0332404077053070068 0.318897545337677002
-0.120723448693752289 -0.0453943163156509399 0.00685450714081525803
-0.640894293785095215 0.309167861938476562 0.10193924605846405
0.363599210977554321 -0.372952908277511597 -0.207727372646331787
0.536546766757965088 -0.217035099864006042 0.161995381116867065
-0.553748905658721924 0.383604049682617188 0.157603740692138672
-0.122524276375770569 0.260150730609893799 0.11476781964302063
0.119605816900730133 0.10312332957983017 0.0890459269285202026
-0.375599861145019531 0.266438394784927368 -0.090086817741394043
0.516546785831451416 -0.348373264074325562 0.0982933714985847473
-0.294085651636123657 -0.106228858232498169 -0.109346769750118256
0.274551749229431152 0.103711888194084167 -0.0583269447088241577
-0.575399935245513916 0.220162495970726013 -0.213097363710403442
-0.115654692053794861 0.269431710243225098 0.179405823349952698
0.236123710870742798 -0.287248700857162476 0.313767910003662109
0.309112012386322021 -0.18662707507610321 0.240983530879020691
0.541389346122741699 -0.325023412704467773 -0.0211979299783706665
0.0786402523517608643 -0.337157756090164185 0.28160017728805542
-0.00673539284616708755 -0.171084955334663391 0.00386858801357448101
-0.282361268997192383 0.262576788663864136 0.00638764351606369019
0.512343704700469971 -0.236656650900840759 -0.309889554977416992
-0.646652400493621826 0.278902143239974976 0.0797077864408493042
-0.645494580268859863 0.183382660150527954 -0.09090442955493927
0.513648033142089844 -0.321520894765853882 0.0241125151515007019
-0.407055377960205078 -0.063045009970664978 0.113051481544971466
0.516378462314605713 -0.35474887490272522 -0.0209698360413312912
-0.567463815212249756 0.37539207935333252 0.151999592781066895
0.235469609498977661 0.0440224111080169678 0.313131064176559448
-0.663881599903106689 0.22749696671962738 0.0231169480830430984
-0.448505997657775879 -0.0378103815019130707 0.125789418816566467
0.502349555492401123 -0.301297903060913086 -0.179151862859725952
-0.589481115341186523 0.362069696187973022 0.0856761187314987183
-0.194074973464012146 0.315713167190551758 0.104440227150917053
0.246341466903686523 0.0249126441776752472 0.323517978191375732
0.53056943416595459 -0.322845280170440674 -0.0585460178554058075
-0.182946160435676575 0.307855039834976196 0.128095522522926331
0.246322870254516602 0.00793704763054847717 0.323820441961288452
0.0589315183460712433 0.140414267778396606 0.345149129629135132
-0.505944192409515381 0.150361940264701843 0.35649445652961731
0.27029496431350708 -0.310537576675415039 0.325857758522033691
-0.254475414752960205 0.02422366663813591 -0.0713085383176803589
0.240928426384925842 -0.294515311717987061 0.322139889001846313
0.248322367668151855 0.0448162034153938293 0.313974052667617798
0.467735409736633301 -0.10126139223575592 0.0342817530035972595
-0.124843195080757141 0.196059674024581909 0.11500847339630127
0.239735662937164307 -0.325909852981567383 0.317369699478149414
0.499758899211883545 -0.365967512130737305 0.0742711573839187622
0.523094415664672852 -0.323800384998321533 0.0257684569805860519
0.443633973598480225 -0.252467930316925049 0.332322061061859131
0.32053104043006897 -0.130635738372802734 -0.107147842645645142
0.0632104277610778809 -0.00998428836464881897 0.321237385272979736
0.510989844799041748 -0.360181838274002075 0.0470460765063762665
0.135657042264938354 -0.0998650640249252319 0.0399965159595012665
0.0492486245930194855 0.0121999401599168777 0.0290824975818395615
0.0205807164311408997 0.0489430204033851624 0.0419983640313148499
0.0871870666742324829 -0.0654060468077659607 0.289535462856292725
-0.162580668926239014 -0.264987289905548096 0.147299662232398987
0.264658808708190918 -0.0194950364530086517 0.060934998095035553
-0.0295225121080875397 -0.0283107031136751175 0.29510962963104248
0.501396119594573975 -0.240044131875038147 -0.302347660064697266
0.475015342235565186 -0.31443101167678833 -0.302429765462875366
-0.630888104438781738 0.307056337594985962 0.16733667254447937
0.474400222301483154 -0.320209980010986328 0.120682492852210999
0.508794665336608887 -0.299824148416519165 -0.105824835598468781
0.52772986888885498 -0.274289697408676147 -0.31756216287612915
0.492849498987197876 -0.331894457340240479 -0.311256825923919678
0.502851963043212891 -0.319343030452728271 0.097662702202796936
0.4726218581199646 -0.305179387331008911 -0.298741370439529419
-0.559041917324066162 0.268828839063644409 0.364210933446884155
0.125315368175506592 0.117746651172637939 0.313297271728515625
-0.633758306503295898 0.283155828714370728 0.0544941239058971405
-0.587774395942687988 0.363710880279541016 0.101987287402153015
0.370134830474853516 -0.37325015664100647 -0.213469699025154114
0.437487244606018066 -0.347642511129379272 0.153708159923553467
0.0579947493970394135 0.122093282639980316 0.320643424987792969
-0.574798941612243652 0.369695186614990234 0.21533261239528656
0.264582067728042603 0.0253479611128568649 -0.0591313689947128296
0.367834776639938354 -0.336310267448425293 0.160066887736320496
0.510278522968292236 -0.30057099461555481 -0.112284764647483826
0.133509904146194458 -0.319615811109542847 -0.0983160287141799927
0.516190409660339355 -0.347953885793685913 -0.0206977799534797668
0.388331979513168335 -0.345773965120315552 -0.214763373136520386
-0.577119410037994385 0.320133745670318604 0.040754362940788269
0.535638332366943359 -0.277140349149703979 -0.321008682250976562
0.466326355934143066 -0.310401290655136108 -0.299804508686065674
0.506798684597015381 -0.346321016550064087 0.0174869168549776077
-0.555781960487365723 0.310529559850692749 0.101743012666702271
0.193720608949661255 -0.338675916194915771 -0.0597649961709976196
0.0701849758625030518 -0.281487196683883667 -0.0782702714204788208
0.252264678478240967 -0.249617502093315125 0.31988757848739624
0.239305615425109863 0.0318108350038528442 0.316597819328308105
-0.121738359332084656 -0.0470720008015632629 0.00772018358111381531
0.178369343280792236 -0.0996506810188293457 -0.0150348246097564697
0.532031774520874023 -0.331466346979141235 -0.013459494337439537
0.369337379932403564 -0.348707884550094604 -0.209786146879196167
0.534322738647460938 -0.245193049311637878 0.177121937274932861
0.560919463634490967 -0.315006047487258911 -0.331370353698730469
0.55352330207824707 -0.211121633648872375 0.134177178144454956
-0.543958663940429688 0.381846427917480469 0.164216697216033936
0.123112805187702179 0.117815382778644562 0.132725343108177185
-0.582453012466430664 0.352958142757415771 0.0974021703004837036
-0.482139438390731812 0.186648443341255188 -0.0922400727868080139
0.515441715717315674 -0.338326632976531982 0.0385701730847358704
0.25367698073387146 -0.278485119342803955 0.321523845195770264
0.277659177780151367 -0.35511016845703125 -0.126601263880729675
0.507186353206634521 -0.285949885845184326 -0.314265578985214233
-0.432221442461013794 -0.0565768368542194366 0.116101168096065521
0.201544761657714844 0.0912836566567420959 0.222782835364341736
0.243777930736541748 0.105279937386512756 -0.0580477938055992126
-0.195668712258338928 0.202181637287139893 0.348318636417388916
0.250070631504058838 0.0257902704179286957 0.322965383529663086
0.239341527223587036 0.0198051910847425461 0.320835232734680176
-0.0312896966934204102 0.163646399974822998 0.382538884878158569
-0.482782572507858276 -0.0151075944304466248 0.179639041423797607
0.483240693807601929 -0.368538528680801392 0.0457282215356826782
-0.643398284912109375 0.287738889455795288 0.0861711502075195312
0.275708407163619995 -0.16515013575553894 -0.0709320753812789917
-0.412141233682632446 -0.0562220141291618347 0.0783849358558654785
-0.642186641693115234 0.175876423716545105 -0.0819823741912841797
-0.226498633623123169 -0.133221030235290527 -0.0526162274181842804
0.254930585622787476 -0.264938294887542725 0.320635974407196045
-0.345609664916992188 0.0177882760763168335 -0.117467202246189117
-0.287716478109359741 -0.0905712172389030457 -0.106430508196353912
-0.585440993309020996 0.210360780358314514 -0.218400716781616211
0.267346560955047607 -0.296246886253356934 0.314814269542694092
-0.0263978876173496246 -0.186641782522201538 -0.0437893867492675781
-0.61793750524520874 0.277772843837738037 0.0316241532564163208
-0.608345746994018555 0.298835456371307373 0.0923786982893943787
-0.397577553987503052 -0.0622458569705486298 0.118557825684547424
-0.451632469892501831 -0.0375459641218185425 0.118589617311954498
0.430505901575088501 -0.271069347858428955 0.329089760780334473
-0.0525748059153556824 0.141411006450653076 0.0911173522472381592
-0.503275632858276367 0.151973649859428406 0.355187356472015381
0.240603446960449219 -0.318733870983123779 0.322481125593185425
0.496883898973464966 -0.370386481285095215 0.0569406412541866302
0.398553937673568726 -0.256240367889404297 0.322283089160919189
-0.158292382955551147 -0.263028860092163086 0.181219488382339478
-0.499425768852233887 0.0144656132906675339 0.1571216881275177
0.417170405387878418 -0.296629339456558228 0.328293085098266602
0.53516000509262085 -0.339556843042373657 -0.0188158359378576279
0.343669414520263672 -0.266537606716156006 -0.128110900521278381
-0.496442496776580811 0.0725479498505592346 0.203266099095344543
0.442853838205337524 -0.271511852741241455 0.333448857069015503
0.52219235897064209 -0.334677159786224365 0.0323229506611824036
0.452566802501678467 -0.319383889436721802 -0.293482303619384766
0.473219722509384155 -0.311255961656570435 0.116501614451408386
0.516898036003112793 -0.277880638837814331 -0.313264995813369751
0.501840949058532715 -0.325641423463821411 -0.315019130706787109
0.517663061618804932 -0.326435476541519165 0.101681575179100037
0.478290587663650513 -0.311150819063186646 -0.302972763776779175
0.114391714334487915 0.119205236434936523 0.288585752248764038
-0.121971726417541504 0.269384890794754028 0.158406764268875122
-0.614741683006286621 0.265985876321792603 0.0517382025718688965
-0.47982633113861084 0.00355381565168499947 0.180629104375839233
0.425891220569610596 -0.354629307985305786 0.15831291675567627
-0.292807638645172119 -0.109721429646015167 -0.10578097403049469
0.130609810352325439 0.0663111060857772827 0.320622384548187256
0.253113776445388794 0.0393866635859012604 -0.0783780515193939209
0.235052362084388733 0.0945164412260055542 -0.0537110231816768646
0.416753143072128296 -0.260996520519256592 -0.202794566750526428
0.521274745464324951 -0.35387149453163147 -0.0196723975241184235
-0.609118640422821045 0.381768345832824707 0.181115224957466125
0.517222762107849121 -0.278787523508071899 -0.315192639827728271
0.498729050159454346 -0.34951367974281311 0.0238477084785699844
-0.588119745254516602 0.370254933834075928 0.113003894686698914
0.504913747310638428 -0.104247048497200012 0.14728991687297821
-0.197829693555831909 0.312174767255783081 0.112634778022766113
0.264281332492828369 -0.286011636257171631 0.319236963987350464
0.236827731132507324 0.0628738701343536377 0.30965876579284668
-0.145338848233222961 -0.0430328808724880219 0.00387828703969717026
-0.656907320022583008 0.215008407831192017 -0.0462271049618721008
-0.289501398801803589 -0.0754730924963951111 -0.0689904391765594482
0.227042630314826965 0.0426912084221839905 -0.0487717725336551666
0.550430595874786377 -0.144008845090866089 0.132410258054733276
0.519342899322509766 -0.294705629348754883 0.0746705234050750732
0.517169773578643799 -0.283363819122314453 -0.181366562843322754
-0.358554810285568237 -0.0164303481578826904 -0.0282718613743782043
0.090929567813873291 0.0887397825717926025 0.0851206183433532715
0.466097712516784668 -0.361416429281234741 -0.0111913932487368584
-0.433299660682678223 0.158483132719993591 -0.0670865327119827271
0.523550689220428467 -0.33509102463722229 0.0685598254203796387
0.263063877820968628 -0.285352826118469238 0.317968219518661499
0.00901371613144874573 -0.09041595458984375 -0.0264465902000665665
0.03235587477684021 -0.129936337471008301 0.0215406380593776703
-0.630469202995300293 0.265582412481307983 0.0291295312345027924
0.241607651114463806 0.075200594961643219 0.318318963050842285
0.239627435803413391 0.0303935986012220383 0.31873631477355957
-0.175147980451583862 0.301599830389022827 0.115943409502506256
0.30358394980430603 -0.150730237364768982 0.307753205299377441
0.262015372514724731 -0.290097743272781372 0.320512712001800537
-0.476570606231689453 -0.00744189880788326263 0.165775224566459656
0.242358356714248657 0.0825569778680801392 0.311648130416870117
0.519974291324615479 -0.350794523954391479 0.0813979879021644592
-0.0355460047721862793 -0.237062722444534302 0.123602442443370819
-0.637749314308166504 0.290528208017349243 0.098852992057800293
-0.234957039356231689 -0.13204878568649292 -0.0583216547966003418
-0.379486739635467529 -0.108136661350727081 0.104941464960575104
-0.236914440989494324 -0.147210031747817993 -0.0582115389406681061
-0.657409548759460449 0.21479874849319458 -0.0337556824088096619
0.528551697731018066 -0.352151989936828613 0.0774331539869308472
-0.621090233325958252 0.270929068326950073 0.0523856282234191895
-0.404183626174926758 -0.0639153718948364258 0.111839592456817627
-0.446400940418243408 -0.0410255119204521179 0.120979204773902893
0.267954736948013306 -0.285020828247070312 0.323135554790496826
0.127816334366798401 -0.32603222131729126 0.311956137418746948
0.152387946844100952 -0.342589735984802246 0.317309588193893433
0.446537375450134277 -0.335326820611953735 -0.293783873319625854
0.515604317188262939 -0.302139520645141602 -0.108170345425605774
0.514776945114135742 -0.279729604721069336 -0.313253611326217651
0.48403245210647583 -0.327450305223464966 -0.310432195663452148
0.463409572839736938 -0.345588147640228271 -0.303034991025924683
0.548459649085998535 -0.209866553544998169 -0.3157997727394104
0.523621797561645508 -0.299428313970565796 -0.322904795408248901
0.517466068267822266 -0.30033460259437561 -0.318876028060913086
0.246337652206420898 0.0577993914484977722 0.315954715013504028
0.240762725472450256 0.0884878337383270264 0.312241524457931519
-0.29241374135017395 -0.0996720343828201294 -0.101981073617935181
-0.453284204006195068 -0.0513190180063247681 0.116335928440093994
0.404472857713699341 -0.271589040756225586 0.322266161441802979
-0.503188073635101318 0.0042347228154540062 0.188090160489082336
0.400672674179077148 -0.286573529243469238 0.324683606624603271
0.398736357688903809 -0.272850900888442993 0.323144704103469849
0.34134337306022644 -0.258392006158828735 0.089850597083568573
-0.0193728785961866379 -0.244036450982093811 0.1285390704870224
-0.464821964502334595 0.0364992693066596985 0.188853368163108826
-0.194917365908622742 0.222272872924804688 0.171362727880477905
0.365922540426254272 -0.328625202178955078 -0.0238387752324342728
0.322646111249923706 -0.389418840408325195 -0.159422636032104492
0.535202443599700928 -0.322882711887359619 -0.058655373752117157
-0.44267389178276062 -0.00398258306086063385 0.152078106999397278
-0.0194403380155563354 -0.0590197294950485229 0.14129212498664856
-0.00073767639696598053 -0.235736683011054993 0.105856932699680328
0.525530815124511719 -0.201172232627868652 -0.0800267010927200317
0.4486275315284729 -0.308016926050186157 -0.293376028537750244
0.526410102844238281 -0.274982541799545288 -0.316056817770004272
0.499044448137283325 -0.324512302875518799 -0.3134651780128479
0.473646998405456543 -0.304701715707778931 -0.29790186882019043
-0.127358466386795044 0.247296929359436035 0.138618603348731995
-0.648553073406219482 0.282669991254806519 0.0944623798131942749
-0.199522197246551514 0.287527740001678467 0.335386782884597778
0.496962517499923706 -0.0863647833466529846 0.136488586664199829
0.200639054179191589 -0.358554214239120483 -0.091348603367805481
0.504986047744750977 -0.367004871368408203 -0.0229246821254491806
0.526633083820343018 -0.242102563381195068 0.172921568155288696
-0.586602449417114258 0.380159109830856323 0.170171365141868591
0.443971782922744751 -0.314551085233688354 -0.288408517837524414
0.49763074517250061 -0.110619887709617615 0.112210825085639954
-0.654727935791015625 0.175556063652038574 -0.103680439293384552
-0.202189534902572632 0.309702873229980469 0.0889841765165328979
0.201096117496490479 -0.0129998829215764999 0.294974267482757568
0.159836024045944214 -0.0616598501801490784 -0.0444616116583347321
-0.579330742359161377 0.30295485258102417 0.368532836437225342
0.274512767791748047 0.0989196300506591797 -0.0296753868460655212
-0.435997605323791504 0.156542137265205383 -0.0866386741399765015
0.534201622009277344 -0.332371562719345093 0.0123430518433451653
-0.569052696228027344 0.197794586420059204 -0.229489609599113464
-0.497986108064651489 0.0455697253346443176 -0.087420344352722168
0.0319733843207359314 -0.103703014552593231 0.0326776430010795593
0.533359229564666748 -0.264005184173583984 -0.316626042127609253
0.00978378765285015106 0.198189258575439453 0.0271492749452590942
0.301472097635269165 0.0395313724875450134 -0.0851687341928482056
-0.332165986299514771 -0.0152784008532762527 -0.10808572918176651
0.236228719353675842 0.0151427695527672768 0.321350574493408203
0.125057846307754517 0.0136233223602175713 0.29830634593963623
0.527281463146209717 -0.35461050271987915 0.065963059663772583
0.466071099042892456 -0.309440910816192627 -0.233577504754066467
-0.651896655559539795 0.286083459854125977 0.104599788784980774
0.545586585998535156 -0.219403639435768127 0.16367378830909729
0.527644813060760498 -0.322674989700317383 -0.0162902940064668655
-0.383263617753982544 -0.0556354038417339325 0.0757006257772445679
0.455972105264663696 -0.310672998428344727 -0.292787134647369385
0.50438392162322998 -0.339781731367111206 -0.318325400352478027
0.477775126695632935 -0.314094662666320801 -0.30016016960144043
0.519970834255218506 -0.3007659912109375 -0.317851841449737549
-0.00313825905323028564 -0.139261186122894287 -0.0249868147075176239
0.397103786468505859 -0.272418886423110962 0.323312610387802124
0.400776654481887817 -0.270837545394897461 0.323658853769302368
0.50559234619140625 -0.331313550472259521 0.105564974248409271
-0.467839956283569336 0.0430280491709709167 0.169915914535522461
0.409145593643188477 -0.34551846981048584 0.156108438968658447
-0.361293405294418335 -0.0345833636820316315 -0.148700237274169922
-0.128432884812355042 -0.267063349485397339 0.112059995532035828
0.512241959571838379 -0.368445217609405518 -0.015234820544719696
-0.213690370321273804 0.313272863626480103 0.097410351037979126
0.25078350305557251 -0.286499321460723877 0.322504699230194092
0.208291202783584595 0.0100102340802550316 -0.0465508922934532166
0.0697786062955856323 -0.151213958859443665 -0.0176729504019021988
-0.169823259115219116 0.305500984191894531 0.118550091981887817
0.470591366291046143 -0.363841533660888672 0.00652290787547826767
-0.291428267955780029 -0.0984402596950531006 -0.103246927261352539
0.0362203270196914673 -0.149263933300971985 -0.0222200844436883926
0.23210260272026062 0.0569463372230529785 0.308608740568161011
0.253686368465423584 -0.288029015064239502 0.320092320442199707
-0.472063452005386353 0.00167957646772265434 0.167994886636734009
0.240712821483612061 0.0634854286909103394 0.312668532133102417
0.508680105209350586 -0.351431548595428467 0.063665539026260376
0.227259367704391479 -0.314181208610534668 0.314266085624694824
-0.375926971435546875 -0.0924935191869735718 0.0855181068181991577
-0.0631691664457321167 -0.241180866956710815 0.302286386489868164
-0.223122000694274902 -0.126926064491271973 -0.0532834231853485107
-0.409997045993804932 -0.0649129226803779602 0.0980287864804267883
-0.445518434047698975 -0.044112667441368103 0.13159477710723877
0.238995820283889771 -0.293439924716949463 0.31410863995552063
0.154173702001571655 -0.323892265558242798 0.319608688354492188
0.424554377794265747 -0.255443185567855835 0.328674226999282837
0.437095105648040771 -0.342296391725540161 -0.293183088302612305
0.505798637866973877 -0.33417317271232605 -0.318566381931304932
0.444203406572341919 -0.351889282464981079 -0.287241160869598389
0.238243460655212402 0.0664744824171066284 0.31178244948387146
0.403003275394439697 -0.28679656982421875 0.325728803873062134
-0.4951058030128479 0.00725161237642168999 0.18752095103263855
0.485172897577285767 -0.0625857114791870117 0.13152487576007843
0.0122489966452121735 -0.170245379209518433 0.0094369594007730484
0.531246185302734375 -0.306759417057037354 -0.0624487102031707764
0.314054965972900391 -0.301527321338653564 -0.126996651291847229
0.444977313280105591 -0.29090040922164917 -0.28600648045539856
-0.336841195821762085 0.225549861788749695 0.125159084796905518
-0.400871604681015015 -0.0274222511798143387 -0.00219424348324537277
0.402830839157104492 -0.271030277013778687 0.324005186557769775
-0.133567988872528076 0.196520745754241943 0.167069509625434875
0.398759663105010986 -0.270934909582138062 0.323859959840774536
-0.446141690015792847 -0.024380100890994072 0.020876644179224968
-0.137533873319625854 0.24557030200958252 0.19153963029384613
-0.612476348876953125 0.294967353343963623 0.183736085891723633
0.124998308718204498 0.117018274962902069 0.316078662872314453
-0.120677351951599121 0.251425802707672119 0.161665216088294983
-0.583573400974273682 0.349057465791702271 0.0579632706940174103
0.42618095874786377 -0.347768872976303101 0.152421623468399048
-0.566360712051391602 0.295741081237792969 -0.0691162794828414917
0.251250237226486206 0.0274887457489967346 -0.0800928771495819092
0.247259795665740967 0.101186320185661316 -0.0489264503121376038
-0.357870548963546753 -0.0547425076365470886 -0.142192944884300232
0.19900938868522644 0.120928868651390076 0.0352435186505317688
0.54470217227935791 -0.131087079644203186 0.112726107239723206
-0.581549704074859619 0.322370707988739014 -0.0230591762810945511
0.206121146678924561 0.0254316218197345734 0.176398575305938721
-0.595474898815155029 0.375873029232025146 0.171886980533599854
0.44410976767539978 -0.318663984537124634 0.126999393105506897
0.255536198616027832 -0.277970641851425171 0.316029816865921021
0.235376834869384766 0.0246515590697526932 0.316165357828140259
-0.363418698310852051 -0.0488145872950553894 -0.0239529572427272797
-0.182678639888763428 0.118908897042274475 0.0420413762331008911
0.255233675241470337 -0.28745386004447937 0.318730473518371582
0.241606578230857849 0.0340082794427871704 0.321709871292114258
0.399255841970443726 0.0239393897354602814 0.114585980772972107
-0.341075688600540161 -0.0652351602911949158 -0.147873520851135254
0.0759028643369674683 -0.332345247268676758 0.298486828804016113
-0.386582434177398682 -0.0600352287292480469 0.0932902544736862183
-0.448222994804382324 -0.0405761823058128357 0.12654799222946167
0.438819319009780884 -0.278493106365203857 0.333551883697509766
0.033954918384552002 -0.122069180011749268 -0.0261090733110904694
0.414032995700836182 -0.27982330322265625 0.32660520076751709
0.43257749080657959 -0.295299291610717773 0.332979023456573486
0.367273330688476562 -0.277761459350585938 -0.130563855171203613
-0.477930754423141479 0.00211176462471485138 0.187551900744438171
-0.291888654232025146 -0.0950539261102676392 -0.104465201497077942
0.241307765245437622 -0.312171101570129395 0.309382170438766479
0.472814291715621948 -0.353689044713973999 0.00659750401973724365
-0.296738564968109131 -0.0952346175909042358 -0.106694802641868591
0.244783908128738403 -0.287810802459716797 0.3197651207447052
0.062490217387676239 -0.32905346155166626 0.296521216630935669
0.158229455351829529 -0.266974955797195435 -0.106009379029273987
0.249990358948707581 0.0644105225801467896 0.315218269824981689
-0.482478201389312744 -0.00698757544159889221 0.17762012779712677
0.236434772610664368 0.0674894005060195923 0.314184635877609253
0.238956242799758911 -0.3310699462890625 0.321005821228027344
-0.381817072629928589 -0.0910437405109405518 0.0365499928593635559
-0.216584652662277222 -0.139049679040908813 -0.0546264760196208954
-0.382676899433135986 -0.0627677589654922485 0.0829549133777618408
0.150208890438079834 -0.330958276987075806 0.33139193058013916
0.445386260747909546 -0.279038012027740479 0.333445459604263306
0.407129436731338501 -0.279548943042755127 0.324792742729187012
-0.502474188804626465 0.0073301754891872406 0.187786102294921875
-0.321690797805786133 0.0979517921805381775 -0.0709469616413116455
0.531842231750488281 -0.206597357988357544 -0.0525174327194690704
0.450297921895980835 -0.293298900127410889 -0.291118472814559937
0.48681795597076416 -0.324665218591690063 -0.311494350433349609
0.44540289044380188 -0.309122651815414429 -0.291482061147689819
-0.577042520046234131 0.269935011863708496 0.36571386456489563
-0.461672365665435791 0.10665179044008255 -0.231271371245384216
0.373893588781356812 -0.317891150712966919 0.198596030473709106
-0.589845716953277588 0.367895662784576416 0.131067425012588501
0.391610711812973022 -0.352248460054397583 -0.217986315488815308
0.440355151891708374 -0.309674561023712158 -0.289652317762374878
-0.200166910886764526 0.306399166584014893 0.09493294358253479
-0.155721992254257202 0.268827825784683228 0.151370495557785034
0.529807746410369873 -0.337792873382568359 0.0713884085416793823
0.462738901376724243 -0.265594065189361572 -0.217810198664665222
-0.633365392684936523 0.276679247617721558 0.107120051980018616
0.43742215633392334 -0.307899117469787598 -0.287787377834320068
0.515221059322357178 -0.276489108800888062 -0.317277610301971436
0.5163155198097229 -0.33974534273147583 -0.321347892284393311
0.453698158264160156 -0.306533098220825195 -0.293710708618164062
0.490632951259613037 -0.321212708950042725 0.0940162688493728638
0.0209069401025772095 -0.275009900331497192 -0.0188212208449840546
-0.652534067630767822 0.172005102038383484 -0.107945673167705536
-0.224343881011009216 0.319389432668685913 0.120927855372428894
0.464897811412811279 -0.363486289978027344 0.005276472307741642
0.480792820453643799 -0.336017757654190063 0.0499038659036159515
0.511259734630584717 -0.338824450969696045 -0.320157676935195923
0.439269155263900757 -0.355922013521194458 -0.298400700092315674
-0.269904851913452148 0.322973340749740601 0.0417991243302822113
0.423480302095413208 -0.312745332717895508 -0.282110989093780518
0.415343672037124634 -0.29435122013092041 0.32807546854019165
-0.326800107955932617 -0.0745676383376121521 0.122876718640327454
-0.367881834506988525 -0.0659283474087715149 0.153815478086471558
-0.3383980393409729 0.21562647819519043 0.131941348314285278
0.0103108901530504227 0.119805634021759033 0.104645594954490662
0.541884899139404297 -0.30835723876953125 -0.046513579785823822
0.0139394514262676239 -0.261265814304351807 0.0390585735440254211
-0.0036925729364156723 -0.235913693904876709 0.0937975272536277771
0.000555206090211868286 -0.219055861234664917 0.0810212939977645874
0.464701145887374878 -0.360153734683990479 0.0299136191606521606
-0.270096242427825928 -0.13728785514831543 0.176773965358734131
-0.345327794551849365 -0.0651957616209983826 0.14062190055847168
0.123596765100955963 -0.276130169630050659 0.128270015120506287
-0.134258091449737549 0.0797318369150161743 0.0899131298065185547
0.462825149297714233 -0.0537674874067306519 0.017514178529381752
-0.0140604879707098007 -0.216285616159439087 0.0798705369234085083
-0.555261015892028809 0.392594188451766968 0.147351384162902832
0.496429234743118286 -0.366107761859893799 0.00494047347456216812
-0.610531091690063477 0.295070022344589233 0.186544895172119141
0.529801905155181885 -0.274612575769424438 -0.318082302808761597
0.369609475135803223 -0.263824909925460815 0.181249037384986877
0.419568300247192383 -0.343962550163269043 0.150337859988212585
0.251465529203414917 0.0399645119905471802 -0.0672677010297775269
0.548637986183166504 -0.149186983704566956 0.124419718980789185
-0.57079392671585083 0.284703820943832397 -0.006814589723944664
0.500543892383575439 -0.362233340740203857 -0.00152738252654671669
0.208299294114112854 0.116164706647396088 -0.0110531747341156006
-0.289631754159927368 -0.0849414393305778503 -0.0668553262948989868
0.158956035971641541 -0.0827137082815170288 -0.0362998396158218384
-0.34008556604385376 -0.104656517505645752 0.140822470188140869
0.510724842548370361 -0.280727624893188477 -0.31383785605430603
-0.33921322226524353 -0.0787096917629241943 0.0383106395602226257
-0.369332820177078247 0.281681567430496216 -0.0627455264329910278
