ply
format ascii 1.0
element vertex 738
property float x
property float y
property float z
end_header
0.466294556856155396 -0.282222002744674683 -0.297810792922973633
0.138224750757217407 0.113600291311740875 0.336201518774032593
-0.652103185653686523 0.286644458770751953 0.0980288535356521606
-0.638435244560241699 0.24558982253074646 -0.0383652299642562866
0.136101484298706055 0.0700471848249435425 0.337173908948898315
-0.577389895915985107 0.304544448852539062 -0.0560421384871006012
0.261930465698242188 0.0309452824294567108 -0.074244961142539978
0.541737079620361328 -0.215874195098876953 0.111100561916828156
-0.360684603452682495 -0.0349719412624835968 -0.135223418474197388
-0.5750541090965271 0.328157812356948853 -0.0300104208290576935
-0.362303346395492554 -0.070173993706703186 -0.0347772985696792603
-0.13067232072353363 -0.266900360584259033 0.118367858231067657
0.495655268430709839 -0.364509731531143188 -0.000710600055754184723
0.373845577239990234 -0.358284443616867065 -0.210668578743934631
-0.378636181354522705 -0.105845078825950623 0.100900039076805115
-0.0669841766357421875 -0.263601869344711304 0.295872747898101807
0.520049393177032471 -0.242303133010864258 -0.3097209632396698
0.51032865047454834 -0.328994929790496826 0.0152179794386029243
-0.593950867652893066 0.370362788438796997 0.12032492458820343
-0.654951274394989014 0.176073461771011353 -0.103105872869491577
-0.223132863640785217 -0.143311232328414917 -0.0542878769338130951
-0.191417917609214783 0.317574024200439453 0.100287050008773804
0.256560325622558594 -0.282769620418548584 0.319208323955535889
0.238519966602325439 0.0330771505832672119 0.318507850170135498
-0.120688371360301971 -0.0455291531980037689 0.00658341031521558762
-0.641632556915283203 0.309539854526519775 0.101706564426422119
0.364727407693862915 -0.372952550649642944 -0.207324638962745667
0.537556052207946777 -0.216912761330604553 0.1613197922706604
-0.553855597972869873 0.383892357349395752 0.157448247075080872
-0.122692674398422241 0.260337233543395996 0.114714540541172028
0.119482547044754028 0.103071063756942749 0.0888463780283927917
-0.376055777072906494 0.266560912132263184 -0.0903529226779937744
0.517488777637481689 -0.347951829433441162 0.0981003940105438232
-0.293807297945022583 -0.106220372021198273 -0.109533146023750305
0.274717718362808228 0.103457704186439514 -0.0584483928978443146
-0.57562565803527832 0.220214799046516418 -0.213135898113250732
-0.115638554096221924 0.269535958766937256 0.1793937087059021
0.236501961946487427 -0.287280261516571045 0.313482999801635742
0.309648334980010986 -0.186641082167625427 0.240536972880363464
0.54229426383972168 -0.324710577726364136 -0.0215195231139659882
0.0792554467916488647 -0.337320417165756226 0.281609117984771729
-0.00626487378031015396 -0.171368345618247986 0.0038411326240748167
-0.282276540994644165 0.26251673698425293 0.00624239072203636169
0.513303995132446289 -0.236089229583740234 -0.309706032276153564
-0.647387564182281494 0.279082238674163818 0.0794688090682029724
-0.646480798721313477 0.183708474040031433 -0.0909997895359992981
0.515079617500305176 -0.321204632520675659 0.0235280506312847137
-0.407119542360305786 -0.0628490820527076721 0.113075226545333862
0.517266333103179932 -0.354347318410873413 -0.0211866702884435654
-0.567653298377990723 0.375558197498321533 0.151874825358390808
0.23550771176815033 0.0438537895679473877 0.312962859869003296
-0.664660274982452393 0.22762906551361084 0.0228994954377412796
-0.448088765144348145 -0.0376396998763084412 0.126240774989128113
0.503242790699005127 -0.301115572452545166 -0.17930448055267334
-0.589624285697937012 0.362227261066436768 0.0857280120253562927
-0.194478496909141541 0.31597486138343811 0.104352191090583801
0.246107891201972961 0.0246983803808689117 0.323325902223587036
0.531518042087554932 -0.322473078966140747 -0.0588745549321174622
-0.183187365531921387 0.308092951774597168 0.127988383173942566
0.246342211961746216 0.00774605199694633484 0.323425799608230591
0.0586419105529785156 0.140444457530975342 0.345109760761260986
-0.506792604923248291 0.150395750999450684 0.356013447046279907
0.270537823438644409 -0.310556620359420776 0.325810790061950684
-0.254523545503616333 0.024098249152302742 -0.0713776648044586182
0.241070717573165894 -0.294567614793777466 0.321867823600769043
0.248216569423675537 0.0445898585021495819 0.31363186240196228
0.468282878398895264 -0.101324290037155151 0.0341585874557495117
-0.125148355960845947 0.196134358644485474 0.114747598767280579
0.240177333354949951 -0.325942248106002808 0.317307442426681519
0.500661969184875488 -0.365540385246276855 0.0737369954586029053
0.524282932281494141 -0.323516428470611572 0.0254146885126829147
0.444500088691711426 -0.252408027648925781 0.331893950700759888
0.321065127849578857 -0.13052801787853241 -0.107270687818527222
0.0627247542142868042 -0.0100023150444030762 0.321341454982757568
0.512019932270050049 -0.359593808650970459 0.0469676777720451355
0.135407447814941406 -0.100014768540859222 0.0398746579885482788
0.0492282174527645111 0.012126898393034935 0.0289528016000986099
0.020452648401260376 0.0489705130457878113 0.0418268963694572449
0.0869058296084403992 -0.0655107870697975159 0.289473891258239746
-0.162156745791435242 -0.265123903751373291 0.146940082311630249
0.265073001384735107 -0.0194328706711530685 0.061407778412103653
-0.0295631326735019684 -0.0284175574779510498 0.294835567474365234
0.50219416618347168 -0.239434212446212769 -0.302448630332946777
0.476196587085723877 -0.313790768384933472 -0.302237749099731445
-0.631420552730560303 0.307230442762374878 0.166979238390922546
0.476084321737289429 -0.319683849811553955 0.120129123330116272
0.509700000286102295 -0.299573332071304321 -0.106418222188949585
0.528608202934265137 -0.273708701133728027 -0.317577928304672241
0.493897020816802979 -0.331247895956039429 -0.311027079820632935
0.503822803497314453 -0.318822473287582397 0.0974969342350959778
0.474275916814804077 -0.304654210805892944 -0.298519372940063477
-0.55990135669708252 0.269034057855606079 0.363908201456069946
0.124987274408340454 0.117559336125850677 0.313376903533935547
-0.634197354316711426 0.283318608999252319 0.0541663952171802521
-0.587953925132751465 0.363907575607299805 0.10205078125
0.371367931365966797 -0.373064041137695312 -0.213216200470924377
0.438512653112411499 -0.34703555703163147 0.153520494699478149
0.0577383004128932953 0.121973380446434021 0.320512235164642334
-0.575094401836395264 0.369847774505615234 0.215217188000679016
0.264564096927642822 0.0250648260116577148 -0.059464089572429657
0.36888614296913147 -0.335901260375976562 0.159737229347229004
0.511237025260925293 -0.300288408994674683 -0.112746089696884155
0.134053394198417664 -0.319848835468292236 -0.098185807466506958
0.517168521881103516 -0.347461998462677002 -0.0207474008202552795
0.38944283127784729 -0.345792204141616821 -0.214822441339492798
-0.577493727207183838 0.320125550031661987 0.0405090861022472382
0.536739766597747803 -0.276996314525604248 -0.320985198020935059
0.467969834804534912 -0.309761941432952881 -0.299662947654724121
0.507922112941741943 -0.345725327730178833 0.0176726188510656357
-0.556331753730773926 0.310852676630020142 0.101743601262569427
0.19406244158744812 -0.338574975728988647 -0.0598153918981552124
0.0706913173198699951 -0.281568735837936401 -0.0780614316463470459
0.251993775367736816 -0.249750196933746338 0.319720745086669922
0.239364653825759888 0.0316830351948738098 0.316182106733322144
-0.121679887175559998 -0.047155335545539856 0.00736678764224052429
0.178320541977882385 -0.0996939986944198608 -0.0153748244047164917
0.533032476902008057 -0.331010818481445312 -0.0139254797250032425
0.370495975017547607 -0.348510533571243286 -0.209351584315299988
0.535351693630218506 -0.244922026991844177 0.176716536283493042
0.561649739742279053 -0.314922690391540527 -0.331311881542205811
0.554531633853912354 -0.210951253771781921 0.133397921919822693
-0.544339895248413086 0.382145166397094727 0.164059892296791077
0.123163275420665741 0.117650389671325684 0.132476955652236938
-0.582645654678344727 0.353094607591629028 0.0974302738904953003
-0.482998073101043701 0.186833590269088745 -0.0924764722585678101
0.516491591930389404 -0.338018625974655151 0.0379118062555789948
0.253403991460800171 -0.278534591197967529 0.321472972631454468
0.278412759304046631 -0.35510563850402832 -0.126595184206962585
0.508205652236938477 -0.285427778959274292 -0.313911706209182739
-0.432332217693328857 -0.0565645992755889893 0.11603005975484848
0.201466560363769531 0.0910335630178451538 0.222591191530227661
0.244114771485328674 0.10510580986738205 -0.0580902956426143646
-0.196336045861244202 0.202292785048484802 0.348248749971389771
0.249656319618225098 0.02552751824259758 0.322818547487258911
0.23925645649433136 0.0197307970374822617 0.320520013570785522
-0.0316914692521095276 0.163402870297431946 0.382234930992126465
-0.48276519775390625 -0.0148160401731729507 0.179908260703086853
0.484284818172454834 -0.368078887462615967 0.0452339909970760345
-0.643936216831207275 0.287924677133560181 0.0859681814908981323
0.276215046644210815 -0.165548443794250488 -0.0710896551609039307
-0.412420153617858887 -0.0562742911279201508 0.0780354887247085571
-0.643178164958953857 0.176171973347663879 -0.0821318328380584717
-0.225925624370574951 -0.133282676339149475 -0.0528190620243549347
0.254769176244735718 -0.265011310577392578 0.320723116397857666
-0.346191942691802979 0.017890583723783493 -0.117749795317649841
-0.287687629461288452 -0.0906398892402648926 -0.106729671359062195
-0.585600376129150391 0.210479855537414551 -0.218453735113143921
0.267599433660507202 -0.296367675065994263 0.314834624528884888
-0.0260015092790126801 -0.186764359474182129 -0.0439561307430267334
-0.618426144123077393 0.277882039546966553 0.0312698408961296082
-0.608898580074310303 0.2991352379322052 0.0921719819307327271
-0.397513389587402344 -0.0621961876749992371 0.118612170219421387
-0.451607108116149902 -0.0373779870569705963 0.118812084197998047
0.431161463260650635 -0.271041572093963623 0.328556925058364868
-0.0526755563914775848 0.141304865479469299 0.0911016836762428284
-0.504034638404846191 0.152032628655433655 0.354679465293884277
0.241009727120399475 -0.318699300289154053 0.322318971157073975
0.497592449188232422 -0.369947969913482666 0.0565908625721931458
0.399173378944396973 -0.256100386381149292 0.322102844715118408
-0.157919213175773621 -0.262965589761734009 0.180795490741729736
-0.499749958515167236 0.0146712996065616608 0.157142281532287598
0.417750924825668335 -0.296559900045394897 0.328164786100387573
0.536275386810302734 -0.339326471090316772 -0.0190202239900827408
0.34458470344543457 -0.266369342803955078 -0.128358274698257446
-0.497026234865188599 0.0727200806140899658 0.203126281499862671
0.44368705153465271 -0.271374523639678955 0.333032429218292236
0.523136913776397705 -0.334313392639160156 0.032052166759967804
0.453584522008895874 -0.319045573472976685 -0.293647736310958862
0.474757552146911621 -0.310794860124588013 0.116076946258544922
0.517754018306732178 -0.27745354175567627 -0.313212066888809204
0.50319141149520874 -0.32483905553817749 -0.314259111881256104
0.518844783306121826 -0.326069802045822144 0.101287625730037689
0.479623377323150635 -0.310441523790359497 -0.302609145641326904
0.113964840769767761 0.11902271956205368 0.288576990365982056
-0.121897995471954346 0.269410192966461182 0.158507257699966431
-0.615000724792480469 0.266203790903091431 0.0517200641334056854
-0.479953378438949585 0.00383076490834355354 0.180609226226806641
0.426891505718231201 -0.354273140430450439 0.157848209142684937
-0.292549878358840942 -0.109751023352146149 -0.105976015329360962
0.130280196666717529 0.0661717355251312256 0.320573806762695312
0.252968668937683105 0.0391557365655899048 -0.0784984976053237915
0.235259205102920532 0.0944120064377784729 -0.0538640879094600677
0.417648404836654663 -0.260539412498474121 -0.202795088291168213
0.522379875183105469 -0.35361790657043457 -0.020154956728219986
-0.609514832496643066 0.382129132747650146 0.181192591786384583
0.518149077892303467 -0.278341054916381836 -0.315133750438690186
0.49990960955619812 -0.348965197801589966 0.0236673448234796524
-0.588345468044281006 0.370399922132492065 0.112793132662773132
0.505681812763214111 -0.10401560366153717 0.14678056538105011
-0.198354020714759827 0.312408715486526489 0.112461261451244354
0.264032900333404541 -0.285951018333435059 0.319415181875228882
0.236788049340248108 0.0628653466701507568 0.309639841318130493
-0.145175471901893616 -0.0430540740489959717 0.00354647170752286911
-0.657243430614471436 0.214993506669998169 -0.0463185496628284454
-0.289561688899993896 -0.0755594745278358459 -0.0691322386264801025
0.227068036794662476 0.0425167828798294067 -0.0489049293100833893
0.551530599594116211 -0.143816083669662476 0.131492599844932556
0.520372629165649414 -0.294356733560562134 0.0741569921374320984
0.518272936344146729 -0.283263683319091797 -0.181697219610214233
-0.358223527669906616 -0.0165872722864151001 -0.0284487418830394745
0.0907378196716308594 0.0886857956647872925 0.0850332155823707581
0.467057675123214722 -0.360998332500457764 -0.0114280199632048607
-0.434023171663284302 0.158354237675666809 -0.0673407763242721558
0.524547696113586426 -0.334484368562698364 0.0682294368743896484
0.262917399406433105 -0.285340577363967896 0.318100392818450928
0.00920983031392097473 -0.0908584743738174438 -0.0264702904969453812
0.0325709506869316101 -0.130130529403686523 0.021490003913640976
-0.631061255931854248 0.265681624412536621 0.0288645774126052856
0.241675630211830139 0.0750596672296524048 0.318017840385437012
0.239609792828559875 0.0302428733557462692 0.318334192037582397
-0.175124362111091614 0.301665604114532471 0.115781113505363464
0.30365753173828125 -0.150875821709632874 0.30764317512512207
0.261951833963394165 -0.2901325523853302 0.320601165294647217
-0.476672232151031494 -0.00734395161271095276 0.165921837091445923
0.242365851998329163 0.0823594555258750916 0.311398178339004517
0.52088618278503418 -0.350303292274475098 0.0811722874641418457
-0.0349022410809993744 -0.237284436821937561 0.123357996344566345
-0.638335108757019043 0.290853917598724365 0.098799489438533783
-0.234666094183921814 -0.132190659642219543 -0.058522343635559082
-0.379213809967041016 -0.107882514595985413 0.105107083916664124
-0.236575007438659668 -0.147251099348068237 -0.058368489146232605
-0.657614946365356445 0.214788123965263367 -0.0339307226240634918
0.529528677463531494 -0.351802021265029907 0.0770398527383804321
-0.621516704559326172 0.271046280860900879 0.0522411428391933441
-0.404111951589584351 -0.0637380257248878479 0.111860543489456177
-0.44655841588973999 -0.0407352596521377563 0.121225982904434204
0.267913371324539185 -0.285041302442550659 0.323055386543273926
0.128230050206184387 -0.326156437397003174 0.312073707580566406
0.152827471494674683 -0.342754095792770386 0.317050576210021973
0.447973459959030151 -0.3347206711769104 -0.293362617492675781
0.516720354557037354 -0.301918923854827881 -0.108679763972759247
0.515723586082458496 -0.279266208410263062 -0.313169121742248535
0.485196590423583984 -0.32673954963684082 -0.310171842575073242
0.464571237564086914 -0.345094740390777588 -0.303143560886383057
0.549447953701019287 -0.209677189588546753 -0.316052883863449097
0.524806022644042969 -0.299223572015762329 -0.322819709777832031
0.518500089645385742 -0.299816340208053589 -0.318638890981674194
0.246340975165367126 0.0576675906777381897 0.315685749053955078
0.240846410393714905 0.0882170051336288452 0.311945199966430664
-0.292254924774169922 -0.0997289493680000305 -0.102163441479206085
-0.453558444976806641 -0.0512005239725112915 0.116508215665817261
0.404772162437438965 -0.271476596593856812 0.322168290615081787
-0.503194212913513184 0.00452009681612253189 0.188272044062614441
0.401201218366622925 -0.286536574363708496 0.324377179145812988
0.399228483438491821 -0.272746771574020386 0.323066532611846924
0.341972857713699341 -0.258097589015960693 0.0893758907914161682
-0.018741196021437645 -0.243945866823196411 0.128000304102897644
-0.465290307998657227 0.0366452112793922424 0.188368573784828186
-0.195043385028839111 0.22232171893119812 0.171114593744277954
0.366918563842773438 -0.328394919633865356 -0.0239956211298704147
0.323506057262420654 -0.389332056045532227 -0.159456640481948853
0.536080420017242432 -0.32247394323348999 -0.0589589439332485199
-0.442312687635421753 -0.00382085517048835754 0.152089908719062805
-0.0192911699414253235 -0.0592193156480789185 0.141069129109382629
-0.000329071655869483948 -0.235930144786834717 0.105809636414051056
0.526111602783203125 -0.200932323932647705 -0.0803561210632324219
0.449893593788146973 -0.307503461837768555 -0.293414652347564697
0.527358293533325195 -0.274435669183731079 -0.316074013710021973
0.500400781631469727 -0.32380339503288269 -0.312843441963195801
0.475361466407775879 -0.304161429405212402 -0.297807574272155762
-0.127596274018287659 0.247373968362808228 0.138573288917541504
-0.649182498455047607 0.282848179340362549 0.0942380949854850769
-0.199966594576835632 0.287615507841110229 0.335027158260345459
0.497498154640197754 -0.0859908387064933777 0.135961428284645081
0.200899273157119751 -0.358630329370498657 -0.0914351344108581543
0.506017446517944336 -0.366706371307373047 -0.0233089793473482132
0.527731955051422119 -0.241888999938964844 0.172515779733657837
-0.586850166320800781 0.380449861288070679 0.170203566551208496
0.445150703191757202 -0.313953816890716553 -0.288247257471084595
0.498394787311553955 -0.110473655164241791 0.111588634550571442
-0.655235767364501953 0.175670281052589417 -0.103777751326560974
-0.202579796314239502 0.309771806001663208 0.0887376070022583008
0.200341939926147461 -0.013163737952709198 0.294919013977050781
0.159954965114593506 -0.0617436282336711884 -0.0446607433259487152
-0.580458402633666992 0.303054302930831909 0.368239134550094604
0.274818003177642822 0.0987440720200538635 -0.0298647172749042511
-0.436692327260971069 0.156225427985191345 -0.0869975090026855469
0.535208702087402344 -0.331824719905853271 0.0119538074359297752
-0.569321572780609131 0.197881773114204407 -0.229624882340431213
-0.498623847961425781 0.0455830208957195282 -0.0876477509737014771
0.0319816693663597107 -0.103984691202640533 0.032396264374256134
0.534682095050811768 -0.263759106397628784 -0.316715240478515625
0.00953887589275836945 0.198266655206680298 0.0268148928880691528
0.301366150379180908 0.0394603833556175232 -0.0853470414876937866
-0.332613468170166016 -0.0153906289488077164 -0.10826537013053894
0.236046880483627319 0.0150935472920536995 0.321162760257720947
0.124721214175224304 0.0135047910735011101 0.298257559537887573
0.52825462818145752 -0.354259610176086426 0.0655228421092033386
0.467200636863708496 -0.308919638395309448 -0.233505547046661377
-0.652250528335571289 0.286165088415145874 0.104365125298500061
0.546466946601867676 -0.219250038266181946 0.163033604621887207
0.528779268264770508 -0.322297513484954834 -0.0168630350381135941
-0.382953375577926636 -0.0554478317499160767 0.0757040679454803467
0.457063645124435425 -0.310045540332794189 -0.292862981557846069
0.505704104900360107 -0.338508427143096924 -0.317756086587905884
0.479166030883789062 -0.313335329294204712 -0.299974024295806885
0.52093583345413208 -0.300208389759063721 -0.31761208176612854
-0.00270899757742881775 -0.139379605650901794 -0.0251617692410945892
0.397560775279998779 -0.272328406572341919 0.323256492614746094
0.401217818260192871 -0.270744889974594116 0.323450833559036255
0.506659388542175293 -0.330884784460067749 0.105454981327056885
-0.468068093061447144 0.0431518480181694031 0.169803619384765625
0.410321921110153198 -0.344961702823638916 0.155775934457778931
-0.361454427242279053 -0.0344679057598114014 -0.14886590838432312
-0.127999737858772278 -0.267172932624816895 0.111876651644706726
0.513243138790130615 -0.368031680583953857 -0.015390545129776001
-0.213901489973068237 0.313485085964202881 0.0972577035427093506
0.250458091497421265 -0.286518096923828125 0.322530806064605713
0.208603888750076294 0.0100229149684309959 -0.046728622168302536
0.0701119154691696167 -0.151322856545448303 -0.0176182780414819717
-0.169945240020751953 0.305602401494979858 0.118485063314437866
0.47139507532119751 -0.363271892070770264 0.00624719541519880295
-0.291431427001953125 -0.0985389426350593567 -0.103431761264801025
0.036814175546169281 -0.149645030498504639 -0.0221394281834363937
0.231798171997070312 0.057059168815612793 0.308571457862854004
0.253376126289367676 -0.288070380687713623 0.320257365703582764
-0.471965372562408447 0.00174768967553973198 0.168164238333702087
0.240657016634941101 0.0634574443101882935 0.312407195568084717
0.509566187858581543 -0.351103782653808594 0.0632209479808807373
0.22777673602104187 -0.314206302165985107 0.314067155122756958
-0.375635147094726562 -0.0922960191965103149 0.0855851322412490845
-0.0627128332853317261 -0.24127766489982605 0.301965206861495972
-0.222626626491546631 -0.127040356397628784 -0.053572431206703186
-0.40996861457824707 -0.0647195577621459961 0.0979717746376991272
-0.445326566696166992 -0.0440691597759723663 0.131695091724395752
0.239398375153541565 -0.293526113033294678 0.313766837120056152
0.154381036758422852 -0.323915541172027588 0.31947934627532959
0.425247430801391602 -0.255279213190078735 0.328137010335922241
0.438566833734512329 -0.342067152261734009 -0.293223202228546143
0.507181227207183838 -0.333188027143478394 -0.317853331565856934
0.445263594388961792 -0.351309984922409058 -0.287175953388214111
0.238150984048843384 0.0664854943752288818 0.311582803726196289
0.403478026390075684 -0.286761879920959473 0.325529217720031738
-0.495331078767776489 0.0074718366377055645 0.187492445111274719
0.485633194446563721 -0.0625114738941192627 0.131077095866203308
0.0128054097294807434 -0.170614555478096008 0.00945051945745944977
0.532286226749420166 -0.306439489126205444 -0.062724575400352478
0.315174579620361328 -0.301510542631149292 -0.127192035317420959
0.445926189422607422 -0.290506660938262939 -0.285897016525268555
-0.337122321128845215 0.225612536072731018 0.124839536845684052
-0.400305569171905518 -0.0275263451039791107 -0.00240239780396223068
0.403230458498001099 -0.270899564027786255 0.323840141296386719
-0.13372214138507843 0.196617230772972107 0.166720330715179443
0.399207979440689087 -0.270850002765655518 0.323742687702178955
-0.446184277534484863 -0.0243971124291419983 0.0208428110927343369
-0.137883454561233521 0.245677322149276733 0.191289976239204407
-0.613035857677459717 0.2952384352684021 0.183572620153427124
0.124647170305252075 0.116824597120285034 0.316022247076034546
-0.120596662163734436 0.251448780298233032 0.161561504006385803
-0.583674132823944092 0.349096775054931641 0.0578286908566951752
0.426974326372146606 -0.34713667631149292 0.152336254715919495
-0.567270636558532715 0.295935839414596558 -0.0694349557161331177
0.25113263726234436 0.0274078045040369034 -0.0802985876798629761
0.247254610061645508 0.101197391748428345 -0.0490697994828224182
-0.358172059059143066 -0.0547501556575298309 -0.14239579439163208
0.198549419641494751 0.12074713408946991 0.0352281667292118073
0.545546352863311768 -0.130878031253814697 0.111703172326087952
-0.581690430641174316 0.322462797164916992 -0.023167116567492485
0.205916956067085266 0.0253845825791358948 0.176227286458015442
-0.595801472663879395 0.376241743564605713 0.171868696808815002
0.445307552814483643 -0.318247199058532715 0.126677259802818298
0.255453705787658691 -0.278033256530761719 0.315967470407485962
0.235423773527145386 0.0245892349630594254 0.315944701433181763
-0.363356351852416992 -0.0488661080598831177 -0.0243012867867946625
-0.182839766144752502 0.118863262236118317 0.0416210182011127472
0.254942506551742554 -0.287444591522216797 0.318891614675521851
0.241517558693885803 0.0338680185377597809 0.321312934160232544
0.399834036827087402 0.0241099763661623001 0.114416405558586121
-0.340973258018493652 -0.0652246624231338501 -0.148020699620246887
0.0765760838985443115 -0.332454979419708252 0.298564225435256958
-0.386245816946029663 -0.0597748830914497375 0.0933800935745239258
-0.448000818490982056 -0.0403864830732345581 0.127073913812637329
0.439727306365966797 -0.278314083814620972 0.333166152238845825
0.0346058979630470276 -0.122472390532493591 -0.0260737724602222443
0.41473090648651123 -0.279807955026626587 0.326436430215835571
0.433455318212509155 -0.295270293951034546 0.332782566547393799
0.368627369403839111 -0.277701467275619507 -0.130667075514793396
-0.478070676326751709 0.00234899111092090607 0.18757985532283783
-0.291904062032699585 -0.0951347127556800842 -0.104693591594696045
0.241854429244995117 -0.312128722667694092 0.309092521667480469
0.473843216896057129 -0.353149682283401489 0.00632083415985107422
-0.296793073415756226 -0.095267757773399353 -0.107033394277095795
0.244883686304092407 -0.287826806306838989 0.319663941860198975
0.0629259422421455383 -0.329042702913284302 0.296514183282852173
0.15843258798122406 -0.266898214817047119 -0.106004610657691956
0.249779850244522095 0.064203798770904541 0.314868539571762085
-0.482508301734924316 -0.00677410699427127838 0.177967563271522522
0.236438259482383728 0.0673570632934570312 0.313861191272735596
0.239334762096405029 -0.33102533221244812 0.32095181941986084
-0.381567329168319702 -0.0910674706101417542 0.036438576877117157
-0.216068685054779053 -0.139311105012893677 -0.0547818168997764587
-0.38237076997756958 -0.0625203028321266174 0.0828379243612289429
0.15064297616481781 -0.330999106168746948 0.331310868263244629
0.4462299644947052 -0.278927773237228394 0.333213925361633301
0.407838255167007446 -0.279536932706832886 0.324621349573135376
-0.502689778804779053 0.00748741254210472107 0.187805324792861938
-0.322273969650268555 0.0979630127549171448 -0.0709782689809799194
0.532844662666320801 -0.206526041030883789 -0.053038034588098526
0.451253265142440796 -0.292801022529602051 -0.290927678346633911
0.488061964511871338 -0.324102997779846191 -0.311336487531661987
0.446791201829910278 -0.30863615870475769 -0.291357696056365967
-0.577895939350128174 0.270054370164871216 0.365450501441955566
-0.462011635303497314 0.106611572206020355 -0.231489136815071106
0.374823242425918579 -0.317728340625762939 0.19845232367515564
-0.590096473693847656 0.368126839399337769 0.131050318479537964
0.392936944961547852 -0.352421820163726807 -0.218263179063796997
0.441450327634811401 -0.309143543243408203 -0.289645731449127197
-0.200762107968330383 0.306520968675613403 0.0947243049740791321
-0.15568186342716217 0.26882818341255188 0.150968894362449646
0.530806958675384521 -0.337397336959838867 0.0710860341787338257
0.463994413614273071 -0.265158534049987793 -0.218108296394348145
-0.633965432643890381 0.27680167555809021 0.106864452362060547
0.438657581806182861 -0.307501167058944702 -0.287900418043136597
0.516136407852172852 -0.276029497385025024 -0.317132174968719482
0.517499923706054688 -0.339121848344802856 -0.320903420448303223
0.454815566539764404 -0.306056201457977295 -0.293758660554885864
0.491516083478927612 -0.32079082727432251 0.0937111824750900269
0.0213223360478878021 -0.275142371654510498 -0.0187361277639865875
-0.653412401676177979 0.172294482588768005 -0.107991889119148254
-0.224511235952377319 0.319498389959335327 0.120802372694015503
0.465827047824859619 -0.36299172043800354 0.00506249535828828812
0.481821566820144653 -0.335812956094741821 0.0495219863951206207
0.512605965137481689 -0.338109523057937622 -0.319548428058624268
0.440534651279449463 -0.355416595935821533 -0.298269420862197876
-0.270253509283065796 0.323045492172241211 0.0415934808552265167
0.424549460411071777 -0.312360554933547974 -0.282434254884719849
0.416160434484481812 -0.294397354125976562 0.327933400869369507
-0.326343148946762085 -0.0746234655380249023 0.122803807258605957
-0.367643684148788452 -0.0656404495239257812 0.15388934314250946
-0.338403433561325073 0.215756088495254517 0.131790995597839355
0.010305626317858696 0.119776859879493713 0.104565300047397614
0.542943477630615234 -0.308010250329971313 -0.0468694716691970825
0.0143281407654285431 -0.261239230632781982 0.0391942374408245087
-0.00327613390982151031 -0.236110895872116089 0.0935881510376930237
0.000479135662317276001 -0.219273224472999573 0.0809264928102493286
0.465538829565048218 -0.359926700592041016 0.0296257920563220978
-0.269456684589385986 -0.137351557612419128 0.176650255918502808
-0.345056772232055664 -0.065040290355682373 0.140522420406341553
0.12371593713760376 -0.276208847761154175 0.128201797604560852
-0.134265467524528503 0.0797118991613388062 0.0896583423018455505
0.463268876075744629 -0.0538629069924354553 0.0171089973300695419
-0.0140859503298997879 -0.216341018676757812 0.0797949209809303284
-0.555315971374511719 0.392705827951431274 0.147268146276473999
0.497436165809631348 -0.365636706352233887 0.00453716609627008438
-0.611075162887573242 0.295281261205673218 0.186253830790519714
0.53068917989730835 -0.274074822664260864 -0.318072795867919922
0.370518505573272705 -0.263727277517318726 0.181001424789428711
0.420730471611022949 -0.343413591384887695 0.150116875767707825
0.251436233520507812 0.0397789925336837769 -0.0675387680530548096
0.54957890510559082 -0.149115055799484253 0.123646512627601624
-0.571039915084838867 0.28483891487121582 -0.00691451318562030792
0.501700878143310547 -0.361457496881484985 -0.00149032706394791603
0.208258554339408875 0.11614537239074707 -0.0113138332962989807
-0.28961712121963501 -0.0849688872694969177 -0.0670674443244934082
0.158922553062438965 -0.0827587395906448364 -0.036709371954202652
-0.339768350124359131 -0.104773610830307007 0.140642806887626648
0.511638760566711426 -0.280239969491958618 -0.313591748476028442
-0.339092910289764404 -0.078683607280254364 0.0384004339575767517
-0.369973480701446533 0.281740963459014893 -0.0631659775972366333
0.510590434074401855 -0.339804202318191528 0.0644992589950561523
0.301349818706512451 -0.205305188894271851 0.247669726610183716
0.543717443943023682 -0.31085658073425293 -0.061314709484577179
0.141625165939331055 0.070056423544883728 0.335818439722061157
-0.594474613666534424 0.268233835697174072 0.0116688106209039688
0.221353515982627869 -0.00643884018063545227 0.295287996530532837
0.230505242943763733 0.0350536629557609558 0.312225997447967529
0.534433066844940186 -0.3184967041015625 -0.0134774837642908096
-0.389406442642211914 -0.0627649426460266113 0.105701923370361328
-0.447432160377502441 -0.0391817241907119751 0.125928878784179688
0.495420873165130615 -0.090583309531211853 0.153767809271812439
0.250438481569290161 0.0638790354132652283 0.315991401672363281
-0.291714906692504883 -0.0921119153499603271 0.306747347116470337
-0.366504579782485962 -0.11377088725566864 0.103562012314796448
-0.563943326473236084 0.127992838621139526 -0.0789420902729034424
-0.501799106597900391 0.0243514534085988998 0.185956299304962158
0.518902778625488281 -0.296197175979614258 -0.314340412616729736
0.472819507122039795 -0.327164947986602783 -0.300323992967605591
-0.574412643909454346 0.269723892211914062 0.362404435873031616
-0.571501374244689941 0.355952531099319458 0.166731983423233032
-0.191738873720169067 0.305539041757583618 0.101056292653083801
-0.661758661270141602 0.240453779697418213 0.0417359694838523865
-0.505452275276184082 0.145285829901695251 0.352638334035873413
0.50812143087387085 -0.345928490161895752 -0.318234801292419434
-0.200526818633079529 0.305924862623214722 0.101789906620979309
0.475781083106994629 -0.356657058000564575 0.00389665272086858749
0.510406315326690674 -0.329537779092788696 0.0658648461103439331
-0.610937118530273438 0.368491202592849731 0.0875870287418365479
-0.562576591968536377 0.289045065641403198 -0.0563216172158718109
0.219725087285041809 0.0109014455229043961 0.308575332164764404
0.240032389760017395 0.00590851437300443649 0.321104317903518677
-0.360182970762252808 -0.0557737797498703003 -0.138312757015228271
0.399252057075500488 -0.251954525709152222 0.321524322032928467
0.399518996477127075 -0.262301117181777954 0.324511289596557617
0.224428743124008179 -0.323516160249710083 0.32020452618598938
0.411069363355636597 -0.267010509967803955 0.324701011180877686
-0.509351193904876709 0.0502890348434448242 0.194539919495582581
-0.631164908409118652 0.157048463821411133 -0.0528617352247238159
-0.502489686012268066 0.147890418767929077 0.344652235507965088
0.521632730960845947 -0.349561363458633423 -0.323314845561981201
0.495907038450241089 -0.347141355276107788 -0.000248040072619915009
-0.198303848505020142 0.0169592611491680145 -0.0505576394498348236
-0.558010578155517578 0.342801392078399658 -0.00602517090737819672
0.489119678735733032 -0.359453707933425903 0.0401672124862670898
0.448848754167556763 -0.0737786591053009033 0.00140370940789580345
-0.557048141956329346 0.386483758687973022 0.157364293932914734
0.374257743358612061 -0.0805732160806655884 -0.120668143033981323
-0.389762043952941895 0.320413023233413696 0.168034628033638
-0.385127514600753784 0.32918250560760498 0.196523129940032959
-0.364809513092041016 0.238976731896400452 -0.0842571556568145752
-0.407712638378143311 0.200262531638145447 0.0400235429406166077
-0.644280672073364258 0.287599831819534302 0.0937757194042205811
0.409253239631652832 -0.346383005380630493 0.135514885187149048
0.222026228904724121 0.0833097994327545166 -0.0342260189354419708
0.49861675500869751 -0.160582229495048523 0.123116053640842438
0.500050067901611328 -0.0920923277735710144 0.133959636092185974
0.214749351143836975 0.00239413930103182793 0.299133121967315674
-0.353408277034759521 -0.0672912672162055969 -0.00977271515876054764
-0.385820388793945312 0.266777187585830688 -0.0724329501390457153
0.50716710090637207 -0.346040815114974976 0.054212614893913269
-0.357545435428619385 -0.0552612990140914917 -0.145908311009407043
0.132077962160110474 0.0732076317071914673 0.321428149938583374
-0.0992927104234695435 -0.265017330646514893 0.0056929602287709713
0.241974160075187683 0.0239897910505533218 0.321299433708190918
-0.480701833963394165 -0.0106031019240617752 0.185107588768005371
0.242137253284454346 0.0490301996469497681 0.316467612981796265
-0.278243005275726318 0.33374488353729248 0.040582854300737381
0.370011061429977417 -0.0305479615926742554 -0.0407283976674079895
0.521177351474761963 -0.347024500370025635 -0.0371838919818401337
0.293206095695495605 -0.0117382891476154327 0.0362695157527923584
-0.644119739532470703 0.285600095987319946 0.0925939604640007019
0.0358941592276096344 0.137215510010719299 0.0843941569328308105
-0.397170454263687134 -0.0568301081657409668 0.125159814953804016
-0.441743344068527222 -0.0376685559749603271 0.130219414830207825
0.524592041969299316 -0.316497445106506348 -0.0661880373954772949
0.422760307788848877 -0.279208958148956299 0.330586731433868408
0.510439217090606689 -0.343930661678314209 0.0563930831849575043
0.403897017240524292 -0.258087366819381714 0.323122233152389526
-0.480479001998901367 0.0188014265149831772 0.1760672926902771
0.235567539930343628 0.0692491978406906128 0.313445568084716797
-0.479756563901901245 -0.00751820206642150879 0.167073220014572144
0.239197522401809692 0.068174019455909729 0.313847064971923828
0.387704998254776001 0.026598738506436348 0.105090662837028503
0.220011502504348755 -0.315596252679824829 0.309726923704147339
0.382694512605667114 0.0434656962752342224 0.0680124983191490173
0.462390094995498657 0.011420905590057373 0.174186363816261292
0.399360358715057373 -0.257934242486953735 0.326760292053222656
-0.499976128339767456 0.0219583697617053986 0.180128946900367737
-0.57352215051651001 0.266967296600341797 0.35965043306350708
-0.663966536521911621 0.230312764644622803 0.0218627806752920151
-0.149449720978736877 0.276269435882568359 0.0787100940942764282
0.523089349269866943 -0.334220081567764282 -0.322947472333908081
-0.22058357298374176 0.31660759449005127 0.0963143110275268555
0.500398755073547363 -0.345508337020874023 0.0662917345762252808
-0.19000612199306488 0.303739994764328003 0.11431884765625
0.312784731388092041 -0.129540115594863892 0.300252169370651245
0.224673688411712646 -0.0348161607980728149 0.304690957069396973
0.0579932257533073425 -0.330443710088729858 0.290954738855361938
0.435494303703308105 -0.27917945384979248 0.332131713628768921
0.409392952919006348 -0.285078495740890503 0.330319732427597046
0.385751038789749146 -0.26519012451171875 0.318299204111099243
0.397614002227783203 -0.383990198373794556 -0.226327270269393921
-0.162043243646621704 0.278935045003890991 0.127948418259620667
0.380173295736312866 0.0444559715688228607 0.0758407562971115112
0.390903830528259277 -0.255176752805709839 0.318360745906829834
-0.500618994235992432 0.0251720603555440903 0.184994682669639587
0.500169634819030762 -0.324900686740875244 -0.313578158617019653
0.380822449922561646 -0.375244259834289551 -0.216863155364990234
0.521793544292449951 -0.348277062177658081 -0.32540932297706604
0.521449029445648193 -0.347374290227890015 -0.322233855724334717
0.514003634452819824 -0.318606346845626831 -0.31880679726600647
0.254687488079071045 -0.22195136547088623 0.0567149296402931213
0.18614882230758667 -0.14183400571346283 -0.106274358928203583
0.508464455604553223 -0.319076299667358398 0.0285415388643741608
-0.468958824872970581 -0.0113052036613225937 0.180366814136505127
0.496693253517150879 -0.348014414310455322 -0.310261040925979614
0.522178828716278076 -0.326475918292999268 -0.322438538074493408
0.476332217454910278 -0.319287776947021484 -0.303645908832550049
-0.341325163841247559 0.230585575103759766 -0.0450681149959564209
0.201460734009742737 0.13339485228061676 0.111449405550956726
-0.172496005892753601 0.0225385800004005432 0.0249771159142255783
0.265901386737823486 -0.165695726871490479 0.00539622502401471138
0.545407295227050781 -0.327385365962982178 -0.0485227257013320923
-0.456464260816574097 -0.0524236857891082764 0.16147710382938385
0.469949662685394287 -0.355162918567657471 -0.307781517505645752
0.478603869676589966 -0.268880575895309448 -0.302200734615325928
0.467441976070404053 -0.360933214426040649 -0.308830052614212036
-0.320373982191085815 0.267434179782867432 0.0107824672013521194
0.0333408638834953308 0.098761923611164093 0.127823993563652039
-0.284868687391281128 -0.0994440913200378418 -0.087795451283454895
-0.616507411003112793 0.217584535479545593 -0.10503329336643219
0.243946284055709839 0.10495525598526001 -0.0305820181965827942
0.465958744287490845 -0.2343587726354599 -0.228925406932830811
-0.294345080852508545 -0.0877497345209121704 -0.0964185819029808044
0.249034076929092407 -0.27534252405166626 0.322085171937942505
0.221999466419219971 0.0670541003346443176 -0.0287636891007423401
-0.250733792781829834 -0.129526928067207336 -0.0561456158757209778
-0.211886763572692871 0.30279010534286499 0.147937506437301636
0.339009374380111694 -0.13995024561882019 0.317899465560913086
0.530609428882598877 -0.355770140886306763 0.0687187686562538147
-0.600046217441558838 0.357543051242828369 0.0601816438138484955
-0.346737682819366455 -0.0548545345664024353 -0.144137933850288391
-0.433931171894073486 0.158339336514472961 -0.085661664605140686
0.527456164360046387 -0.330556184053421021 0.0194906461983919144
0.52879178524017334 -0.287067919969558716 -0.0709435641765594482
-0.499443084001541138 0.143328800797462463 -0.254484355449676514
0.146401673555374146 0.157277673482894897 0.0578457452356815338
0.252367138862609863 -0.00715353153645992279 0.327238917350769043
0.349155604839324951 -0.14662720263004303 0.320155024528503418
0.442665547132492065 -0.321427851915359497 -0.229782640933990479
-0.223881155252456665 -0.139416292309761047 -0.0542717538774013519
0.523383557796478271 -0.349321842193603516 0.0959354788064956665
-0.645841360092163086 0.254128158092498779 0.0239582881331443787
0.393417507410049438 -0.279400110244750977 0.321752578020095825
-0.474639475345611572 -0.00892405584454536438 0.164569810032844543
0.224678158760070801 -0.324455976486206055 0.318481922149658203
-0.363674968481063843 -0.120565667748451233 0.129312247037887573
-0.238405033946037292 -0.140194088220596313 -0.0544614195823669434
-0.114185594022274017 -0.00883491151034832001 -0.0174327120184898376
0.389566630125045776 -0.27762642502784729 0.320058196783065796
-0.50773996114730835 0.0119552351534366608 0.200879037380218506
0.462806612253189087 -0.296013087034225464 -0.294807583093643188
0.350461989641189575 -0.14754486083984375 0.320995032787322998
0.45785406231880188 -0.302749693393707275 -0.229319840669631958
0.0252520106732845306 -0.143701806664466858 -0.0203955508768558502
0.369230449199676514 -0.327167361974716187 0.318165242671966553
0.391934305429458618 -0.280769258737564087 0.316210001707077026
0.129165634512901306 -0.31845468282699585 -0.0975794941186904907
-0.134742781519889832 0.27932623028755188 0.116902813315391541
-0.333783000707626343 0.0952010154724121094 -0.103339359164237976
0.374135226011276245 -0.375020742416381836 -0.215380355715751648
0.52072983980178833 -0.344636648893356323 -0.322826147079467773
0.524297237396240234 -0.357127398252487183 -0.327013492584228516
-0.0681613534688949585 -0.254340022802352905 0.0982440337538719177
0.325232952833175659 -0.130277782678604126 0.314294755458831787
0.424264103174209595 -0.259041309356689453 0.327655524015426636
-0.480575203895568848 0.0327993780374526978 0.195862337946891785
0.527571320533752441 -0.298815697431564331 -0.322472363710403442
0.539026379585266113 -0.291676104068756104 -0.324847310781478882
0.377899527549743652 -0.373305171728134155 -0.214261382818222046
0.371350288391113281 -0.356210172176361084 -0.214393183588981628
0.524836182594299316 -0.350620448589324951 -0.325325578451156616
0.526162028312683105 -0.362547963857650757 -0.323564380407333374
0.516240239143371582 -0.325913906097412109 -0.320144057273864746
0.480162143707275391 -0.351524770259857178 -0.312544763088226318
0.478905439376831055 -0.364571988582611084 -0.313268333673477173
-0.362277418375015259 0.31117701530456543 0.238506495952606201
-0.321477532386779785 0.104841455817222595 0.0212469249963760376
-0.447507232427597046 0.204767018556594849 -0.041131727397441864
-0.378278464078903198 0.280359834432601929 -0.00813918467611074448
-0.0224897898733615875 -0.26024290919303894 0.143008828163146973
-0.59197920560836792 0.362375080585479736 0.0641151219606399536
0.367654740810394287 -0.372686654329299927 -0.212982684373855591
-0.124327883124351501 -0.0102114863693714142 0.00721389800310134888
0.396914958953857422 -0.352451473474502563 -0.219068527221679688
0.507458508014678955 -0.158890262246131897 0.124377384781837463
0.195330113172531128 0.125012040138244629 0.00568345142528414726
-0.0270770173519849777 0.167514607310295105 0.38255012035369873
-0.334028780460357666 -0.120399728417396545 0.0997277125716209412
-0.325474023818969727 0.303733319044113159 -0.0374804362654685974
0.535127699375152588 -0.345791548490524292 0.0369573198258876801
0.526401519775390625 -0.330688297748565674 0.0337037444114685059
-0.596174478530883789 0.383296191692352295 0.113104537129402161
-0.0113995820283889771 -0.143582478165626526 -0.0271668341010808945
-0.236056670546531677 0.17302839457988739 -0.00262705329805612564
-0.485319167375564575 -0.00964918732643127441 0.177201300859451294
-0.278158128261566162 0.337153345346450806 0.0421488396823406219
0.514246582984924316 -0.348113685846328735 0.096324622631072998
-0.448463946580886841 -0.0348583236336708069 0.116441525518894196
0.43430638313293457 -0.252481758594512939 0.331376373767852783
0.415142446756362915 -0.277523159980773926 0.326668202877044678
-0.469358712434768677 0.035221293568611145 0.192459702491760254
0.50328218936920166 -0.338319897651672363 0.00765912886708974838
-0.481357157230377197 -0.00186652690172195435 0.177580088376998901
-0.377266943454742432 -0.105763092637062073 0.0922611355781555176
-0.501383721828460693 0.022984800860285759 0.183518707752227783
0.36085096001625061 -0.286080896854400635 -0.142343625426292419
0.00178027711808681488 -0.230998098850250244 0.0894837826490402222
-0.140517204999923706 0.266183376312255859 0.0880576521158218384
-0.129571914672851562 0.255340844392776489 0.0710050612688064575
0.312991142272949219 -0.29251253604888916 -0.131565123796463013
0.428243964910507202 -0.254784464836120605 0.329792171716690063
-0.615155458450317383 0.307419329881668091 0.392127901315689087
0.411182016134262085 -0.356989234685897827 -0.226936548948287964
0.505989789962768555 -0.345192193984985352 -0.31981360912322998
0.508442401885986328 -0.351369768381118774 -0.322833627462387085
0.524307012557983398 -0.29739728569984436 -0.318880438804626465
0.510534226894378662 -0.345597654581069946 -0.320183336734771729
0.270181000232696533 -0.168877482414245605 -0.0802665352821350098
0.133536338806152344 0.12093796581029892 0.328484326601028442
0.251826614141464233 -0.284448742866516113 0.327784121036529541
0.324058234691619873 -0.119560353457927704 0.31005328893661499
0.301354140043258667 -0.204026877880096436 0.250801771879196167
0.249280363321304321 -0.00318416766822338104 0.324797868728637695
0.507803738117218018 -0.341988265514373779 0.0870506390929222107
0.241488397121429443 0.0905737355351448059 0.309253960847854614
0.462940901517868042 -0.283196121454238892 -0.231529682874679565
-0.262416094541549683 0.315017163753509521 0.0456332340836524963
0.343397796154022217 -0.13941606879234314 0.329139173030853271
0.373932987451553345 -0.362874895334243774 -0.209265589714050293
0.336861580610275269 -0.128618672490119934 0.320325762033462524
0.527286112308502197 -0.346204906702041626 -0.324378669261932373
0.525088608264923096 -0.351117849349975586 -0.326875954866409302
0.480808496475219727 -0.371428757905960083 -0.313360810279846191
-0.360300570726394653 -0.0639768391847610474 0.0822797715663909912
-0.408226579427719116 0.0894190818071365356 -0.113969571888446808
0.0144232027232646942 0.0987013727426528931 0.216769307851791382
-0.378014326095581055 -0.0926609784364700317 -0.0289002358913421631
0.265215307474136353 0.0689036250114440918 -0.0924834161996841431
-0.108626514673233032 -0.0145794469863176346 0.0451171323657035828
-0.358704179525375366 -0.091319739818572998 0.0123167792335152626
-0.290436595678329468 0.305783748626708984 0.166023463010787964
-0.355675578117370605 -0.0726912170648574829 0.0401719771325588226
-0.598746657371520996 0.295705229043960571 0.186300188302993774
0.248800963163375854 0.0974243730306625366 -0.0350037813186645508
0.379666000604629517 -0.353968888521194458 -0.209779009222984314
0.470281541347503662 -0.323786377906799316 0.137159258127212524
0.464732557535171509 -0.27104872465133667 -0.0934571325778961182
-0.440183162689208984 -0.0424046255648136139 0.0834639295935630798
-0.336535125970840454 -0.123879656195640564 0.126928001642227173
0.529406070709228516 -0.341006189584732056 0.0502496138215065002
0.392488986253738403 0.0479703843593597412 0.132703065872192383
-0.185776785016059875 0.314863801002502441 0.107524380087852478
-0.441495984792709351 -0.04215201735496521 0.11709459125995636
0.538119375705718994 -0.324999839067459106 -0.0562568381428718567
-0.353367805480957031 0.307352006435394287 0.11343809962272644
0.494719922542572021 -0.344930887222290039 0.0435780100524425507
-0.575895845890045166 0.306107401847839355 0.379170835018157959
0.431277245283126831 -0.280162811279296875 0.333179503679275513
-0.478301465511322021 0.00485126068815588951 0.163360923528671265
0.525737285614013672 -0.34874427318572998 -0.00323599157854914665
-0.0670536905527114868 -0.262588530778884888 0.297764420509338379
-0.512236177921295166 0.00538555625826120377 0.187161415815353394
0.390242069959640503 -0.35942232608795166 -0.216351687908172607
-0.118699617683887482 0.255523711442947388 0.0636340230703353882
-0.500885605812072754 0.00563774676993489265 0.192329362034797668
0.426645517349243164 -0.273666858673095703 0.33009040355682373
-0.333996951580047607 0.104590758681297302 -0.119505316019058228
-0.10574515163898468 0.255142122507095337 0.093450985848903656
