ply
format ascii 1.0
element vertex 738
property float x
property float y
property float z
end_header
-0.517023682594299316 0.366674363613128662 0.173483520746231079
-0.618288159370422363 0.202461287379264832 -0.0875547677278518677
-0.238288342952728271 0.0196327250450849533 -0.0732429176568984985
-0.382233679294586182 -0.0582700744271278381 0.0231763795018196106
0.474145740270614624 -0.367948085069656372 0.0211751833558082581
-0.649023175239562988 0.237326100468635559 0.0321447625756263733
0.411648064851760864 -0.345781654119491577 -0.222715631127357483
0.525346755981445312 -0.336676716804504395 0.0794437825679779053
0.504854917526245117 -0.238984882831573486 -0.308816492557525635
0.249437183141708374 -0.281438052654266357 0.317655891180038452
0.239554792642593384 0.0675169378519058228 0.313421308994293213
0.539046108722686768 -0.301293998956680298 -0.0939146131277084351
-0.448158323764801025 -0.0403647497296333313 0.126731246709823608
-0.0439285449683666229 0.105389505624771118 0.317305535078048706
0.247670829296112061 0.0219445899128913879 0.321491777896881104
-0.2859305739402771 -0.0987075567245483398 -0.0996081903576850891
-0.13821844756603241 -0.0143103413283824921 -0.0497435815632343292
-0.278198301792144775 0.338581711053848267 0.0465522855520248413
-0.254995495080947876 0.29055941104888916 -0.00379091128706932068
-0.219324409961700439 0.3227425217628479 0.0692885592579841614
-0.573631763458251953 0.152970850467681885 -0.0749876797199249268
-0.289977967739105225 0.293328166007995605 0.0155343962833285332
0.524997472763061523 -0.319979488849639893 0.0270387660712003708
0.345406323671340942 -0.0296480376273393631 -0.0352569334208965302
0.521812736988067627 -0.362313687801361084 0.0891137272119522095
-0.0841697901487350464 -0.111198589205741882 0.0777664408087730408
-0.403734862804412842 0.326818406581878662 0.120971538126468658
0.504142105579376221 -0.367212295532226562 -0.00519477203488349915
-0.119002103805541992 0.266957581043243408 0.120493248105049133
0.518185853958129883 -0.34245145320892334 0.0354339443147182465
0.130430862307548523 -0.334045708179473877 0.300569146871566772
0.465884268283843994 -0.310458600521087646 0.0720710530877113342
0.482205182313919067 -0.37352067232131958 0.0519684106111526489
0.420304298400878906 -0.0251961145550012589 0.0640427619218826294
0.493455469608306885 -0.363379567861557007 -0.0163207892328500748
-0.233365088701248169 0.287874877452850342 0.0835904628038406372
0.531031489372253418 -0.33128887414932251 -0.00783330481499433517
-0.272300422191619873 0.316121667623519897 0.113416686654090881
0.307636529207229614 0.00339990807697176933 0.0455634705722332001
0.466140687465667725 -0.263068169355392456 -0.296872556209564209
0.472553849220275879 -0.303890377283096313 0.113735422492027283
0.510756433010101318 -0.312947601079940796 -0.105086848139762878
0.508213520050048828 -0.245293065905570984 -0.308972060680389404
0.447000116109848022 -0.292017608880996704 -0.293576836585998535
0.465132653713226318 -0.283094853162765503 -0.298362255096435547
0.138904362916946411 0.113697461783885956 0.336047917604446411
-0.651916086673736572 0.286543905735015869 0.0981367900967597961
-0.638025343418121338 0.24555717408657074 -0.038167860358953476
0.136474877595901489 0.0701602697372436523 0.337001562118530273
-0.577128589153289795 0.304350078105926514 -0.0559151284396648407
0.261772632598876953 0.0313173569738864899 -0.0742380023002624512
0.540670573711395264 -0.216077476739883423 0.111292034387588501
-0.360822916030883789 -0.0350708812475204468 -0.135160818696022034
-0.574738204479217529 0.32799762487411499 -0.0298982113599777222
-0.362365394830703735 -0.0701690688729286194 -0.0346250459551811218
-0.131195560097694397 -0.266965538263320923 0.118280574679374695
0.494387060403823853 -0.366025000810623169 -0.000971400178968906403
0.37291833758354187 -0.358493894338607788 -0.2109852135181427
-0.378924667835235596 -0.106020323932170868 0.100722253322601318
-0.0672369524836540222 -0.263411462306976318 0.295785695314407349
0.518817305564880371 -0.243125900626182556 -0.310082316398620605
0.508875787258148193 -0.330582290887832642 0.0148734496906399727
-0.593772947788238525 0.370091229677200317 0.12041512131690979
-0.65478825569152832 0.175985351204872131 -0.103139877319335938
-0.223864659667015076 -0.143327698111534119 -0.0543399788439273834
-0.191321507096290588 0.317301094532012939 0.100193619728088379
0.256705552339553833 -0.282746344804763794 0.319091141223907471
0.239196628332138062 0.0333658680319786072 0.318343460559844971
-0.120701603591442108 -0.0453209206461906433 0.00668058078736066818
-0.640999436378479004 0.309236645698547363 0.101810254156589508
0.364225208759307861 -0.372904360294342041 -0.207651704549789429
0.53660881519317627 -0.216947406530380249 0.161490157246589661
-0.553376615047454834 0.383487969636917114 0.157431438565254211
-0.122754454612731934 0.260105222463607788 0.11465202271938324
0.119559392333030701 0.103044778108596802 0.0889949947595596313
-0.375445783138275146 0.266150087118148804 -0.090368226170539856
0.51645195484161377 -0.348669767379760742 0.0980696380138397217
-0.294301867485046387 -0.106298044323921204 -0.109678223729133606
0.274524122476577759 0.103751063346862793 -0.0584649071097373962
-0.57540363073348999 0.220125257968902588 -0.213098078966140747
-0.115844674408435822 0.269458681344985962 0.179335296154022217
0.236508890986442566 -0.287338435649871826 0.313468039035797119
0.309322565793991089 -0.1866607666015625 0.240563824772834778
0.541237413883209229 -0.325320005416870117 -0.0212676674127578735
0.0787304341793060303 -0.337289482355117798 0.281592220067977905
-0.00680956710129976273 -0.171165496110916138 0.00377661059610545635
-0.28245118260383606 0.262356072664260864 0.00626496225595474243
0.512167811393737793 -0.236990004777908325 -0.31003376841545105
-0.647077739238739014 0.278943628072738647 0.0794685482978820801
-0.64593583345413208 0.183489099144935608 -0.0910227075219154358
0.513462245464324951 -0.322123855352401733 0.0237794406712055206
-0.407126843929290771 -0.0628580451011657715 0.113031558692455292
0.51627802848815918 -0.355285882949829102 -0.0215425360947847366
-0.567214667797088623 0.375345706939697266 0.151993155479431152
0.235705763101577759 0.0440504550933837891 0.312927365303039551
-0.664235830307006836 0.227529972791671753 0.0230192597955465317
-0.448489487171173096 -0.0375297553837299347 0.12701725959777832
0.502351760864257812 -0.301534533500671387 -0.179421991109848022
-0.589316487312316895 0.361960351467132568 0.0857460573315620422
-0.194429278373718262 0.315719127655029297 0.104362353682518005
0.246712803840637207 0.0248855780810117722 0.323062598705291748
0.530439972877502441 -0.323211789131164551 -0.0586894042789936066
-0.183097749948501587 0.307787954807281494 0.127850398421287537
0.246837705373764038 0.00795134715735912323 0.323234677314758301
0.0589965805411338806 0.140397951006889343 0.345054835081100464
-0.506400763988494873 0.150301307439804077 0.356232315301895142
0.270250946283340454 -0.310551702976226807 0.32580113410949707
-0.254843324422836304 0.0243581105023622513 -0.0715147256851196289
0.241119980812072754 -0.294530510902404785 0.321830630302429199
0.248457431793212891 0.0448676273226737976 0.313705086708068848
0.467462927103042603 -0.1010751873254776 0.0339818075299263
-0.125186800956726074 0.195981264114379883 0.114761531352996826
0.239846751093864441 -0.32593265175819397 0.317321747541427612
0.49937477707862854 -0.36631166934967041 0.074091985821723938
0.522992730140686035 -0.324151664972305298 0.0258338917046785355
0.444029808044433594 -0.252465575933456421 0.332072615623474121
0.320641040802001953 -0.130588337779045105 -0.107309751212596893
0.0635052323341369629 -0.0100214313715696335 0.321105897426605225
0.510676920413970947 -0.360923647880554199 0.0467345714569091797
0.135105535387992859 -0.0999641790986061096 0.040043313056230545
0.0491084568202495575 0.0122169386595487595 0.0289765615016222
0.0201131142675876617 0.0489367395639419556 0.0417663939297199249
0.0877035930752754211 -0.0654953569173812866 0.289084732532501221
-0.162868201732635498 -0.265100866556167603 0.146929770708084106
0.264820396900177002 -0.0194597858935594559 0.0610851570963859558
-0.0289956033229827881 -0.0283369496464729309 0.294565498828887939
0.501238226890563965 -0.240237519145011902 -0.302538663148880005
0.474849343299865723 -0.31461372971534729 -0.302390635013580322
-0.630835652351379395 0.307115375995635986 0.167099297046661377
0.474331140518188477 -0.320423036813735962 0.120514243841171265
0.508675217628479004 -0.300145655870437622 -0.106084644794464111
0.527557373046875 -0.274592190980911255 -0.317778497934341431
0.49268186092376709 -0.332568198442459106 -0.31159171462059021
0.502601206302642822 -0.319715142250061035 0.0972771197557449341
0.472968488931655884 -0.305653691291809082 -0.29909437894821167
-0.559138894081115723 0.268798470497131348 0.364151984453201294
0.125503361225128174 0.117766059935092926 0.312963306903839111
-0.63380885124206543 0.283145427703857422 0.0542692653834819794
-0.587595164775848389 0.363668203353881836 0.102140724658966064
0.370590329170227051 -0.373107254505157471 -0.213454723358154297
0.437591522932052612 -0.347566604614257812 0.153739571571350098
0.058315623551607132 0.122014552354812622 0.320508837699890137
-0.574860870838165283 0.369714558124542236 0.215219035744667053
0.264046162366867065 0.0254546720534563065 -0.0594546198844909668
0.367887824773788452 -0.336269587278366089 0.1599760502576828
0.510136723518371582 -0.300852954387664795 -0.112469494342803955
0.133421599864959717 -0.319927453994750977 -0.0983427464962005615
0.516076087951660156 -0.348393112421035767 -0.0210995040833950043
0.388477087020874023 -0.345735698938369751 -0.214931070804595947
-0.577160775661468506 0.319965928792953491 0.0406702123582363129
0.535454213619232178 -0.277451425790786743 -0.320985734462738037
0.466774016618728638 -0.310753554105758667 -0.300176560878753662
0.506506204605102539 -0.347028613090515137 0.0174867529422044754
-0.556252837181091309 0.310656845569610596 0.101772457361221313
0.193482637405395508 -0.338712900876998901 -0.0597923360764980316
0.0701109841465950012 -0.28157392144203186 -0.0783752948045730591
0.252377748489379883 -0.249636366963386536 0.319582551717758179
0.239863425493240356 0.031953565776348114 0.316050171852111816
-0.121695958077907562 -0.0470074675977230072 0.00753359124064445496
0.178085148334503174 -0.0995630249381065369 -0.0154262855648994446
0.532159149646759033 -0.331969648599624634 -0.0137316342443227768
0.369681745767593384 -0.348599344491958618 -0.209740996360778809
0.534348607063293457 -0.245195358991622925 0.176536679267883301
0.560502886772155762 -0.315259933471679688 -0.330996960401535034
0.553477108478546143 -0.211084991693496704 0.13379967212677002
-0.543715298175811768 0.381609529256820679 0.164018213748931885
0.123350240290164948 0.117669850587844849 0.132636189460754395
-0.582492649555206299 0.352906018495559692 0.0975138470530509949
-0.482427239418029785 0.186599388718605042 -0.0922726690769195557
0.515049099922180176 -0.338688105344772339 0.0383403226733207703
0.253725051879882812 -0.27851220965385437 0.321397691965103149
0.277633190155029297 -0.355101495981216431 -0.126662850379943848
0.506987154483795166 -0.286437749862670898 -0.31438446044921875
-0.431876540184020996 -0.0566583871841430664 0.116268329322338104
0.201561003923416138 0.0910899490118026733 0.222686454653739929
0.244067773222923279 0.105285100638866425 -0.0580677352845668793
-0.195958435535430908 0.202199935913085938 0.348250329494476318
0.250275075435638428 0.0257483962923288345 0.32258838415145874
0.239770203828811646 0.0199281256645917892 0.320388823747634888
-0.0307414587587118149 0.163671731948852539 0.382114768028259277
-0.482755094766616821 -0.0151122119277715683 0.179621517658233643
0.483249247074127197 -0.368795663118362427 0.0455680564045906067
-0.643524408340454102 0.287786126136779785 0.0861262977123260498
0.275458157062530518 -0.165209442377090454 -0.0711906701326370239
-0.412401944398880005 -0.0562955513596534729 0.0780174657702445984
-0.642389595508575439 0.175961047410964966 -0.0820273682475090027
-0.226591154932975769 -0.133261904120445251 -0.0528556592762470245
0.254915177822113037 -0.264915436506271362 0.320536792278289795
-0.345965772867202759 0.0178796760737895966 -0.117588117718696594
-0.287978291511535645 -0.0907260328531265259 -0.106923520565032959
-0.5852852463722229 0.210303470492362976 -0.218417182564735413
0.267521440982818604 -0.296405881643295288 0.314641892910003662
-0.0262053199112415314 -0.186662018299102783 -0.0441290512681007385
-0.617959976196289062 0.277662575244903564 0.0313156172633171082
-0.608187556266784668 0.298717319965362549 0.092289164662361145
-0.39756658673286438 -0.0622514784336090088 0.11889079213142395
-0.451665878295898438 -0.0373718179762363434 0.119382746517658234
0.430633068084716797 -0.27110639214515686 0.32885664701461792
-0.0528813451528549194 0.141435965895652771 0.0911297798156738281
-0.503596186637878418 0.151891648769378662 0.354950875043869019
0.240772217512130737 -0.318710923194885254 0.322282850742340088
0.496655881404876709 -0.370570272207260132 0.0570024065673351288
0.398803114891052246 -0.256179898977279663 0.322224915027618408
-0.158646225929260254 -0.263075649738311768 0.180807143449783325
-0.499768078327178955 0.0146391578018665314 0.157156422734260559
0.417242616415023804 -0.296722322702407837 0.328138053417205811
0.535046279430389404 -0.339744687080383301 -0.0187621656805276871
0.343476176261901855 -0.266675353050231934 -0.128641322255134583
-0.496522754430770874 0.0725291967391967773 0.203259319067001343
0.443085610866546631 -0.27154773473739624 0.333230525255203247
0.52186208963394165 -0.335084825754165649 0.0323914103209972382
0.452790826559066772 -0.319474279880523682 -0.293537884950637817
0.473296165466308594 -0.311494171619415283 0.116050653159618378
0.516671597957611084 -0.278183996677398682 -0.313525021076202393
0.501509428024291992 -0.326388508081436157 -0.314870387315750122
0.517580807209014893 -0.326776325702667236 0.101404696702957153
0.478376835584640503 -0.311500400304794312 -0.302991271018981934
0.114568620920181274 0.119193114340305328 0.288303494453430176
-0.122127681970596313 0.26927676796913147 0.158267855644226074
-0.614610612392425537 0.265927582979202271 0.0517643801867961884
-0.479695349931716919 0.00365286180749535561 0.180575907230377197
0.425986260175704956 -0.354606896638870239 0.158098191022872925
-0.293055951595306396 -0.109812304377555847 -0.106165841221809387
0.130677312612533569 0.066439211368560791 0.320400834083557129
0.252925634384155273 0.0394653826951980591 -0.0786992534995079041
0.235285833477973938 0.0945534184575080872 -0.0538734160363674164
0.417154818773269653 -0.261026442050933838 -0.202950596809387207
0.521128833293914795 -0.354478120803833008 -0.0201592296361923218
-0.608899593353271484 0.381813526153564453 0.181171044707298279
0.51707082986831665 -0.279058337211608887 -0.315430283546447754
0.498425394296646118 -0.350204288959503174 0.0238178502768278122
-0.588004946708679199 0.370142757892608643 0.112941831350326538
0.505079507827758789 -0.104099005460739136 0.146988332271575928
-0.198263779282569885 0.312133729457855225 0.112530894577503204
0.264078080654144287 -0.285978704690933228 0.319278240203857422
0.237287163734436035 0.0630179271101951599 0.309520602226257324
-0.145186766982078552 -0.0428841114044189453 0.00353503134101629257
-0.657030224800109863 0.215016886591911316 -0.0462074652314186096
-0.289657145738601685 -0.0754039883613586426 -0.0692405551671981812
0.226906761527061462 0.0427215471863746643 -0.0488307364284992218
0.550605297088623047 -0.143856644630432129 0.13194042444229126
0.519191443920135498 -0.294986337423324585 0.0743829309940338135
0.517118155956268311 -0.283558815717697144 -0.181401863694190979
-0.358231395483016968 -0.0165677908807992935 -0.0284037664532661438
0.0908568352460861206 0.0886606201529502869 0.0851206183433532715
0.466021329164505005 -0.361557185649871826 -0.0112152909860014915
-0.4332866370677948 0.158259689807891846 -0.0670313611626625061
0.523256897926330566 -0.335377722978591919 0.0683053284883499146
0.262985944747924805 -0.285359799861907959 0.317936688661575317
0.00893809273838996887 -0.0905845165252685547 -0.0264107976108789444
0.0322915315628051758 -0.13002370297908783 0.0214590840041637421
-0.630830526351928711 0.265545129776000977 0.028971593827009201
0.242249906063079834 0.0752534270286560059 0.317727208137512207
0.240059971809387207 0.0305208265781402588 0.318180769681930542
-0.174994885921478271 0.301493614912033081 0.11591203510761261
0.304215967655181885 -0.150808513164520264 0.307450950145721436
0.261959344148635864 -0.290153175592422485 0.32041400671005249
-0.476548582315444946 -0.00750238820910453796 0.165770202875137329
0.242927223443984985 0.0826053246855735779 0.31132584810256958
0.519742667675018311 -0.351092934608459473 0.0813121795654296875
-0.0352450981736183167 -0.237279221415519714 0.123443484306335449
-0.63792717456817627 0.290682762861251831 0.0988763049244880676
-0.235123872756958008 -0.13222801685333252 -0.0586895905435085297
-0.379500120878219604 -0.108060330152511597 0.104895174503326416
-0.237268358469009399 -0.147176653146743774 -0.0585311315953731537
-0.65736764669418335 0.21478213369846344 -0.0337414555251598358
0.528477907180786133 -0.352420032024383545 0.0773104876279830933
-0.620853126049041748 0.270778447389602661 0.0523332022130489349
-0.404102891683578491 -0.0637627094984054565 0.11182934045791626
-0.446575015783309937 -0.0406740009784698486 0.121959760785102844
0.26785627007484436 -0.285070121288299561 0.322979331016540527
0.127840250730514526 -0.326186329126358032 0.311890095472335815
0.15239262580871582 -0.342724263668060303 0.317241519689559937
0.446926236152648926 -0.335334926843643188 -0.293824464082717896
0.515463769435882568 -0.302425384521484375 -0.108337558805942535
0.514615654945373535 -0.280041873455047607 -0.313619762659072876
0.483927458524703979 -0.327724665403366089 -0.310536861419677734
0.463403075933456421 -0.345697611570358276 -0.302991032600402832
0.548283874988555908 -0.209813728928565979 -0.315957903861999512
0.523651719093322754 -0.29985472559928894 -0.32276114821434021
0.517310798168182373 -0.300755143165588379 -0.3190041184425354
0.246733427047729492 0.0578811876475811005 0.315633773803710938
0.241527482867240906 0.0883649736642837524 0.311882674694061279
-0.292711794376373291 -0.09980049729347229 -0.102343320846557617
-0.453469812870025635 -0.0511717945337295532 0.117068260908126831
0.404323488473892212 -0.271561115980148315 0.322155416011810303
-0.502855181694030762 0.00426158774644136429 0.188288897275924683
0.400584042072296143 -0.286617875099182129 0.324553430080413818
0.398669123649597168 -0.272836118936538696 0.323111295700073242
0.341427624225616455 -0.258351296186447144 0.0894488096237182617
-0.019570937380194664 -0.244041159749031067 0.128099307417869568
-0.464899390935897827 0.0364575609564781189 0.18857264518737793
-0.194978594779968262 0.222241878509521484 0.171244263648986816
0.366094619035720825 -0.328667283058166504 -0.0241033304482698441
0.323027700185775757 -0.38935011625289917 -0.15964093804359436
0.535035610198974609 -0.323242783546447754 -0.0587717518210411072
-0.442291945219039917 -0.0038557685911655426 0.152104318141937256
-0.0195640549063682556 -0.0591158419847488403 0.141155734658241272
-0.00103179551661014557 -0.235722571611404419 0.105713874101638794
0.525466263294219971 -0.201386824250221252 -0.0804904252290725708
0.448989361524581909 -0.307915210723876953 -0.293500781059265137
0.526334226131439209 -0.275294899940490723 -0.316184252500534058
0.498761355876922607 -0.325128078460693359 -0.313390344381332397
0.474001884460449219 -0.305242776870727539 -0.298290103673934937
-0.127636492252349854 0.247221037745475769 0.138494879007339478
-0.648837685585021973 0.282770127058029175 0.0943491607904434204
-0.199605494737625122 0.287350893020629883 0.335344523191452026
0.496932119131088257 -0.0862073749303817749 0.136177003383636475
0.200411751866340637 -0.358617484569549561 -0.0913911759853363037
0.504907071590423584 -0.367317229509353638 -0.0231589321047067642
0.526613712310791016 -0.242089405655860901 0.172307237982749939
-0.586520791053771973 0.380183130502700806 0.170277908444404602
0.444311022758483887 -0.314454138278961182 -0.288497775793075562
0.497514635324478149 -0.110487475991249084 0.112049609422683716
-0.655142664909362793 0.17559601366519928 -0.103839188814163208
-0.202405959367752075 0.309500008821487427 0.0888607203960418701
0.201215535402297974 -0.0131525881588459015 0.294710546731948853
0.159812480211257935 -0.0615738406777381897 -0.0446258820593357086
-0.579282402992248535 0.302898824214935303 0.368548274040222168
0.274744808673858643 0.0989669337868690491 -0.0298269800841808319
-0.436190605163574219 0.156503140926361084 -0.0865887105464935303
0.534171760082244873 -0.332694679498672485 0.0122624887153506279
-0.569086611270904541 0.197796478867530823 -0.229467853903770447
-0.498397320508956909 0.0455981418490409851 -0.0875606685876846313
0.0311178937554359436 -0.103563934564590454 0.0324547439813613892
0.533322691917419434 -0.264135092496871948 -0.316381514072418213
0.00947376526892185211 0.198128864169120789 0.0271000340580940247
0.301488399505615234 0.0395888388156890869 -0.0852284803986549377
-0.332564771175384521 -0.0153481345623731613 -0.108256176114082336
0.236650019884109497 0.0151613885536789894 0.321094006299972534
0.125230967998504639 0.0136938290670514107 0.297964721918106079
0.527001559734344482 -0.354820966720581055 0.0659708082675933838
0.466268837451934814 -0.309667259454727173 -0.233800679445266724
-0.652091801166534424 0.286071240901947021 0.104493916034698486
0.54561924934387207 -0.219381868839263916 0.163271933794021606
0.527679145336151123 -0.322969973087310791 -0.0164669323712587357
-0.38303762674331665 -0.0555405691266059875 0.0757796168327331543
0.456140339374542236 -0.31057441234588623 -0.292982220649719238
0.504110515117645264 -0.340552300214767456 -0.318403035402297974
0.477900505065917969 -0.314298778772354126 -0.300093203783035278
0.519790768623352051 -0.301182150840759277 -0.317953705787658691
-0.00294409692287445068 -0.139423593878746033 -0.0252088867127895355
0.396977335214614868 -0.272423028945922852 0.323336035013198853
0.40072256326675415 -0.270828515291213989 0.32350650429725647
0.50531160831451416 -0.331920236349105835 0.105304732918739319
-0.46796870231628418 0.043004356324672699 0.169755011796951294
0.409235894680023193 -0.345542877912521362 0.15584389865398407
-0.36144566535949707 -0.0346618779003620148 -0.14890386164188385
-0.128780379891395569 -0.267204612493515015 0.111774861812591553
0.512366652488708496 -0.36870872974395752 -0.0153044275939464569
-0.213835716247558594 0.313174664974212646 0.0971735119819641113
0.250653862953186035 -0.286503225564956665 0.322416931390762329
0.208381280303001404 0.0101650962606072426 -0.0468015782535076141
0.0697676241397857666 -0.15115182101726532 -0.0175852272659540176
-0.169885605573654175 0.305423974990844727 0.118590489029884338
0.470702320337295532 -0.36429789662361145 0.00644491147249937057
-0.291802644729614258 -0.0986111685633659363 -0.103633403778076172
0.03620949387550354 -0.149195417761802673 -0.0219910908490419388
0.231954276561737061 0.0571991726756095886 0.308429569005966187
0.253588557243347168 -0.288076192140579224 0.320120275020599365
-0.471567511558532715 0.00165993301197886467 0.168225973844528198
0.241277456283569336 0.0634962916374206543 0.312184512615203857
0.50855022668838501 -0.35166323184967041 0.0635960400104522705
0.227370843291282654 -0.314184069633483887 0.31405147910118103
-0.375785857439041138 -0.0924702882766723633 0.0855623185634613037
-0.0628890246152877808 -0.241254985332489014 0.301965683698654175
-0.223166018724441528 -0.126959472894668579 -0.0535153821110725403
-0.410032510757446289 -0.0649285763502120972 0.0977474674582481384
-0.445227146148681641 -0.0440032035112380981 0.13228394091129303
0.239314287900924683 -0.293544918298721313 0.313683688640594482
0.154030665755271912 -0.32392534613609314 0.319564551115036011
0.424767047166824341 -0.25543174147605896 0.328352779150009155
0.437564313411712646 -0.342346906661987305 -0.293111354112625122
0.505549311637878418 -0.335237562656402588 -0.318715095520019531
0.444445759057998657 -0.351760894060134888 -0.287206083536148071
0.238664329051971436 0.0665737390518188477 0.311373502016067505
0.402865350246429443 -0.286837279796600342 0.325699448585510254
-0.494992315769195557 0.00731193041428923607 0.187568187713623047
0.485120981931686401 -0.0625152960419654846 0.131140604615211487
0.012473665177822113 -0.170429885387420654 0.00949592702090740204
0.531213939189910889 -0.307059168815612793 -0.0627443268895149231
0.314107239246368408 -0.301675319671630859 -0.127348959445953369
0.44524151086807251 -0.290876388549804688 -0.286073386669158936
-0.336986124515533447 0.225463151931762695 0.125233918428421021
-0.400511771440505981 -0.02757219597697258 -0.00247678067535161972
0.40268552303314209 -0.271014004945755005 0.323897063732147217
-0.133676677942276001 0.196450769901275635 0.166850417852401733
0.398699939250946045 -0.270931005477905273 0.323774278163909912
-0.445984601974487305 -0.0244387760758399963 0.0210592541843652725
-0.137659937143325806 0.245520889759063721 0.191407144069671631
-0.612179279327392578 0.294857174158096313 0.183696508407592773
0.125231891870498657 0.117042809724807739 0.315653830766677856
-0.120836511254310608 0.251300394535064697 0.161423712968826294
-0.583185553550720215 0.348631054162979126 0.0579809620976448059
0.42617952823638916 -0.347736448049545288 0.152260482311248779
-0.566747784614562988 0.295753240585327148 -0.069252602756023407
0.251231849193572998 0.0275469254702329636 -0.0802687183022499084
0.247358575463294983 0.101328015327453613 -0.0490110069513320923
-0.358088672161102295 -0.054907478392124176 -0.142507478594779968
0.198564529418945312 0.120807439088821411 0.0352644920349121094
0.544822156429290771 -0.130956888198852539 0.112015433609485626
-0.581326186656951904 0.322172850370407104 -0.0230747368186712265
0.205922096967697144 0.0253774598240852356 0.176248401403427124
-0.595428526401519775 0.376086026430130005 0.17193228006362915
0.44424089789390564 -0.318830013275146484 0.126685097813606262
0.255591213703155518 -0.278007000684738159 0.315965712070465088
0.235858649015426636 0.0247067995369434357 0.315822035074234009
-0.363272756338119507 -0.0489004477858543396 -0.0241137035191059113
-0.182907819747924805 0.118816278874874115 0.0416379719972610474
0.255112111568450928 -0.287429571151733398 0.318752825260162354
0.242159366607666016 0.0341158285737037659 0.321168839931488037
0.399084270000457764 0.0241665411740541458 0.114465110003948212
-0.340945720672607422 -0.0653554275631904602 -0.147978812456130981
0.076022908091545105 -0.332435935735702515 0.298465251922607422
-0.386430740356445312 -0.0598707795143127441 0.0934634208679199219
-0.448236346244812012 -0.0403469130396842957 0.127904802560806274
0.439143180847167969 -0.278508484363555908 0.333244204521179199
0.0345519036054611206 -0.12232343852519989 -0.0259242206811904907
0.414144575595855713 -0.279897838830947876 0.326596558094024658
0.432915925979614258 -0.295303642749786377 0.332807064056396484
0.367135494947433472 -0.277802318334579468 -0.131216779351234436
-0.477790772914886475 0.00212871283292770386 0.187612235546112061
-0.292155563831329346 -0.0953490659594535828 -0.104947447776794434
0.241746455430984497 -0.312209188938140869 0.308981955051422119
0.472843736410140991 -0.354031503200531006 0.00623884797096252441
-0.297033429145812988 -0.0954869389533996582 -0.107219904661178589
0.244895264506340027 -0.287834972143173218 0.319577455520629883
0.0627650991082191467 -0.329096138477325439 0.296446293592453003
0.158002749085426331 -0.267104476690292358 -0.106037229299545288
0.250355660915374756 0.0644375979900360107 0.314660608768463135
-0.482556790113449097 -0.00690458156168460846 0.177661463618278503
0.236914217472076416 0.0675570815801620483 0.313688129186630249
0.238927468657493591 -0.331090033054351807 0.320984125137329102
-0.381874442100524902 -0.0911233425140380859 0.0364047437906265259
-0.216743394732475281 -0.139163017272949219 -0.0548374950885772705
-0.382512509822845459 -0.0626180320978164673 0.0829737260937690735
0.150172591209411621 -0.330968111753463745 0.331432133913040161
0.445615530014038086 -0.27901911735534668 0.333209335803985596
0.407363921403884888 -0.279632925987243652 0.324781537055969238
-0.502363204956054688 0.00731926970183849335 0.187858447432518005
-0.322045385837554932 0.0979979038238525391 -0.0709403902292251587
0.532063782215118408 -0.206707105040550232 -0.0528802573680877686
0.450408637523651123 -0.293352574110031128 -0.291354566812515259
0.486663460731506348 -0.324982881546020508 -0.311422616243362427
0.445983201265335083 -0.309093862771987915 -0.291656315326690674
-0.577191352844238281 0.269875645637512207 0.365685313940048218
-0.461729973554611206 0.106535635888576508 -0.231346487998962402
0.374083727598190308 -0.317906200885772705 0.198353275656700134
-0.589834392070770264 0.367842972278594971 0.131088376045227051
0.391941994428634644 -0.352223068475723267 -0.218255043029785156
0.440715998411178589 -0.309596657752990723 -0.289727956056594849
-0.200586766004562378 0.306272536516189575 0.0947709232568740845
-0.155836209654808044 0.268754005432128906 0.151191979646682739
0.529469728469848633 -0.338041096925735474 0.071490064263343811
0.463013142347335815 -0.265651077032089233 -0.218001395463943481
-0.633599340915679932 0.27656477689743042 0.106953233480453491
0.437974840402603149 -0.307838171720504761 -0.287790000438690186
0.515149593353271484 -0.276874363422393799 -0.317624837160110474
0.515817642211914062 -0.340038508176803589 -0.321338891983032227
0.453963756561279297 -0.30648455023765564 -0.293861448764801025
0.490409374237060547 -0.3213825523853302 0.0938406437635421753
0.0205562077462673187 -0.275079488754272461 -0.0189555548131465912
-0.653178215026855469 0.17221030592918396 -0.108062192797660828
-0.224412813782691956 0.319212526082992554 0.120709314942359924
0.464864403009414673 -0.363941431045532227 0.00501987803727388382
0.480583429336547852 -0.336190670728683472 0.0499935857951641083
0.510954141616821289 -0.339585840702056885 -0.320547252893447876
0.439650177955627441 -0.35594785213470459 -0.298396676778793335
-0.270001828670501709 0.3227996826171875 0.0416116975247859955
0.423621952533721924 -0.312710046768188477 -0.282393872737884521
0.415443658828735352 -0.294399857521057129 0.32805362343788147
-0.32648959755897522 -0.0747445076704025269 0.122772864997386932
-0.367303401231765747 -0.0659377872943878174 0.154055178165435791
-0.338604778051376343 0.215637683868408203 0.131737500429153442
0.00986294634640216827 0.119879022240638733 0.104499951004981995
0.541793763637542725 -0.308632493019104004 -0.0465913303196430206
0.0135202333331108093 -0.261133044958114624 0.0390076711773872375
-0.00373379699885845184 -0.236065015196800232 0.0935364514589309692
-0.000151898711919784546 -0.219031915068626404 0.0809749588370323181
0.464410066604614258 -0.360551983118057251 0.0294957868754863739
-0.26988634467124939 -0.137280300259590149 0.176672905683517456
-0.345004498958587646 -0.0651512965559959412 0.140645027160644531
0.123174682259559631 -0.276165366172790527 0.128241345286369324
-0.134266138076782227 0.0795487910509109497 0.0897258669137954712
0.46281394362449646 -0.053636554628610611 0.0171678010374307632
-0.0145620647817850113 -0.216311991214752197 0.0796768292784690857
-0.554973483085632324 0.392568320035934448 0.147267773747444153
0.496363341808319092 -0.36651313304901123 0.00458453316241502762
-0.610139846801757812 0.294847786426544189 0.186335042119026184
0.529480636119842529 -0.27488824725151062 -0.318208545446395874
0.369996607303619385 -0.263995707035064697 0.180655866861343384
0.419564366340637207 -0.344069540500640869 0.150099143385887146
0.251244217157363892 0.0401672311127185822 -0.067623332142829895
0.548869073390960693 -0.149085432291030884 0.123925559222698212
-0.57082289457321167 0.284709632396697998 -0.00679817609488964081
0.500270485877990723 -0.363080620765686035 -0.00147954234853386879
0.208392590284347534 0.11618688702583313 -0.0112854316830635071
-0.289982259273529053 -0.0848710089921951294 -0.0670687556266784668
0.158825010061264038 -0.0825251564383506775 -0.0365461111068725586
-0.340224146842956543 -0.104805037379264832 0.140577808022499084
0.510539770126342773 -0.281046181917190552 -0.314005136489868164
-0.339202791452407837 -0.0788523554801940918 0.0383845791220664978
-0.369193941354751587 0.281504005193710327 -0.0628390312194824219
0.509473681449890137 -0.340643197298049927 0.0645403563976287842
0.301846683025360107 -0.205404773354530334 0.247230842709541321
0.542442202568054199 -0.311474084854125977 -0.0611801221966743469
0.141922920942306519 0.070208430290222168 0.33575400710105896
-0.594066023826599121 0.267940759658813477 0.0117121282964944839
0.221967428922653198 -0.0064367242157459259 0.294951349496841431
0.230939909815788269 0.0352270081639289856 0.312087327241897583
0.533302247524261475 -0.31908765435218811 -0.0132190156728029251
-0.389288038015365601 -0.0632606148719787598 0.105562552809715271
-0.447582721710205078 -0.0391319692134857178 0.12676846981048584
0.494786202907562256 -0.0905553624033927917 0.153904631733894348
0.25101044774055481 0.0641164705157279968 0.315751701593399048
-0.291688591241836548 -0.0920763388276100159 0.30688631534576416
-0.366722345352172852 -0.113975673913955688 0.103465370833873749
-0.563325047492980957 0.12790699303150177 -0.0787395983934402466
-0.501648783683776855 0.024224432185292244 0.186036646366119385
0.517571330070495605 -0.29715341329574585 -0.314875215291976929
0.47167322039604187 -0.327940315008163452 -0.300646126270294189
-0.573774337768554688 0.269575595855712891 0.362582236528396606
-0.571137487888336182 0.355658292770385742 0.166750490665435791
-0.191651061177253723 0.305306792259216309 0.101013608276844025
-0.661542594432830811 0.24035036563873291 0.0417734570801258087
-0.505041539669036865 0.145155325531959534 0.352819472551345825
0.506106376647949219 -0.347448080778121948 -0.318955123424530029
-0.200401395559310913 0.305709421634674072 0.101830706000328064
0.474811971187591553 -0.357547610998153687 0.00381003227084875107
0.50928109884262085 -0.330459147691726685 0.0656098127365112305
-0.610530614852905273 0.368144005537033081 0.0875372886657714844
-0.562208652496337891 0.288805305957794189 -0.056217879056930542
0.220180824398994446 0.0110344439744949341 0.30840909481048584
0.240567833185195923 0.00609402451664209366 0.320963472127914429
-0.360190153121948242 -0.0559512898325920105 -0.138441666960716248
0.398795336484909058 -0.251987844705581665 0.321699082851409912
0.398957371711730957 -0.262422800064086914 0.324530184268951416
0.223909586668014526 -0.323544234037399292 0.320344150066375732
0.410667240619659424 -0.267159581184387207 0.324699103832244873
-0.509042561054229736 0.0501374602317810059 0.194619730114936829
-0.630598783493041992 0.156903356313705444 -0.052564471960067749
-0.502106428146362305 0.14780871570110321 0.344882071018218994
0.520127356052398682 -0.350581616163253784 -0.323842108249664307
0.495008528232574463 -0.348623275756835938 -0.000423419289290904999
-0.198428347706794739 0.0169339794665575027 -0.0505429357290267944
-0.557661235332489014 0.342595756053924561 -0.0059208255261182785
0.488113552331924438 -0.360308170318603516 0.0404415279626846313
0.448521912097930908 -0.0734165757894515991 0.00126524781808257103
-0.556484103202819824 0.386077821254730225 0.157288447022438049
0.373677551746368408 -0.0802756547927856445 -0.120700739324092865
-0.389116942882537842 0.320225447416305542 0.168214365839958191
-0.384625017642974854 0.328994035720825195 0.196708515286445618
-0.364386528730392456 0.238685876131057739 -0.0841220766305923462
-0.407355755567550659 0.200026825070381165 0.0403683856129646301
-0.64396291971206665 0.287553668022155762 0.0939564034342765808
0.40806308388710022 -0.34671473503112793 0.135582998394966125
0.222205251455307007 0.0834288150072097778 -0.0342201478779315948
0.497689962387084961 -0.160676717758178711 0.123655468225479126
0.499429941177368164 -0.0921822339296340942 0.134209856390953064
0.215406656265258789 0.00246638944372534752 0.298716217279434204
-0.353650540113449097 -0.0673021674156188965 -0.00971935037523508072
-0.385586291551589966 0.26672971248626709 -0.0723029449582099915
0.506057560443878174 -0.346947968006134033 0.0542176924645900726
-0.357527434825897217 -0.055420558899641037 -0.146012246608734131
0.132481500506401062 0.0734512209892272949 0.321155250072479248
-0.0997432172298431396 -0.264971107244491577 0.00566191738471388817
0.242524400353431702 0.0242083985358476639 0.32112354040145874
-0.48032793402671814 -0.010961262509226799 0.185026884078979492
0.242537721991539001 0.0491794310510158539 0.316350579261779785
-0.278181731700897217 0.333509981632232666 0.040377739816904068
0.369222134351730347 -0.0301271267235279083 -0.0408258773386478424
0.519985675811767578 -0.347502768039703369 -0.0368066802620887756
0.293159902095794678 -0.0115631911903619766 0.0364201627671718597
-0.643767774105072021 0.285520702600479126 0.0927535369992256165
0.0355624407529830933 0.137249678373336792 0.0843996405601501465
-0.39715123176574707 -0.0570367723703384399 0.125550419092178345
-0.441748112440109253 -0.0376278199255466461 0.130827873945236206
0.523494899272918701 -0.317077994346618652 -0.0659397095441818237
0.422297000885009766 -0.279294013977050781 0.33068537712097168
0.509008288383483887 -0.345029145479202271 0.056400638073682785
0.403316617012023926 -0.25818789005279541 0.323211699724197388
-0.48056146502494812 0.018770318478345871 0.175965771079063416
0.236150413751602173 0.0693311914801597595 0.313334226608276367
-0.479474365711212158 -0.00763954222202301025 0.167032480239868164
0.239817008376121521 0.0682663246989250183 0.313613861799240112
0.387078583240509033 0.0268243122845888138 0.105057060718536377
0.219572499394416809 -0.315574884414672852 0.309821426868438721
0.38210761547088623 0.043573230504989624 0.0681120008230209351
0.461836069822311401 0.0115602053701877594 0.174146503210067749
0.398973643779754639 -0.258029013872146606 0.326787739992141724
-0.499906033277511597 0.0218359120190143585 0.180124670267105103
-0.572963237762451172 0.266865968704223633 0.359782040119171143
-0.663576900959014893 0.230258285999298096 0.0220142584294080734
-0.149343714118003845 0.276089072227478027 0.0786715075373649597
0.521597445011138916 -0.334857702255249023 -0.323313623666763306
-0.220626309514045715 0.316320627927780151 0.096224077045917511
0.499170422554016113 -0.346532106399536133 0.066316649317741394
-0.189848974347114563 0.303477346897125244 0.114448942244052887
0.312820971012115479 -0.12943817675113678 0.300161302089691162
0.225157871842384338 -0.0347994342446327209 0.304497480392456055
0.0576946288347244263 -0.330479264259338379 0.290767282247543335
0.434974968433380127 -0.279338181018829346 0.332211136817932129
0.408829033374786377 -0.285217881202697754 0.330345749855041504
0.385274797677993774 -0.265184193849563599 0.318355590105056763
0.396729558706283569 -0.384012073278427124 -0.226352393627166748
-0.162092581391334534 0.278880089521408081 0.128086462616920471
0.379739820957183838 0.0445883497595787048 0.0758400559425354004
0.39038848876953125 -0.255233228206634521 0.318383842706680298
-0.500437617301940918 0.0249975305050611496 0.184979677200317383
0.498605728149414062 -0.326106101274490356 -0.314099937677383423
0.379687875509262085 -0.375262618064880371 -0.217213273048400879
0.520416557788848877 -0.349091529846191406 -0.325643628835678101
0.519769549369812012 -0.348391681909561157 -0.322662293910980225
0.512650609016418457 -0.319689661264419556 -0.319697707891464233
0.254408895969390869 -0.221785277128219604 0.0567170791327953339
0.185568511486053467 -0.141811087727546692 -0.106275118887424469
0.507129192352294922 -0.320011824369430542 0.028538830578327179
-0.469013571739196777 -0.0113320276141166687 0.180350556969642639
0.495443105697631836 -0.34917837381362915 -0.310749590396881104
0.520952045917510986 -0.32764965295791626 -0.323261141777038574
0.47515028715133667 -0.320189684629440308 -0.303846150636672974
-0.341235876083374023 0.230477362871170044 -0.0449797175824642181
0.201544761657714844 0.13331565260887146 0.111554622650146484
-0.1730499267578125 0.02276621013879776 0.024834727868437767
0.265486836433410645 -0.165337353944778442 0.00528565095737576485
0.544389963150024414 -0.327855437994003296 -0.0484594032168388367
-0.456370234489440918 -0.0524340048432350159 0.161576300859451294
0.468662530183792114 -0.356046348810195923 -0.308032035827636719
0.477538824081420898 -0.269658833742141724 -0.302567988634109497
0.466191291809082031 -0.36193123459815979 -0.309181571006774902
-0.320093750953674316 0.267346501350402832 0.0108826179057359695
0.0331732742488384247 0.09880809485912323 0.127921298146247864
-0.285381853580474854 -0.0992192178964614868 -0.0878993123769760132
-0.61611860990524292 0.217320099472999573 -0.104989200830459595
0.244175821542739868 0.10505831241607666 -0.0305817686021327972
0.465162158012390137 -0.234736397862434387 -0.228707104921340942
-0.29458010196685791 -0.0877788737416267395 -0.0964574441313743591
0.249218061566352844 -0.275331884622573853 0.321944117546081543
0.221881106495857239 0.067206457257270813 -0.0287452191114425659
-0.251361638307571411 -0.129508659243583679 -0.0561581403017044067
-0.211503610014915466 0.302595615386962891 0.148176208138465881
0.339439362287521362 -0.139993250370025635 0.317773520946502686
0.529248893260955811 -0.356246471405029297 0.069209754467010498
-0.599642693996429443 0.357192724943161011 0.0602577775716781616
-0.346673130989074707 -0.0548948347568511963 -0.144105002284049988
-0.433003425598144531 0.158158957958221436 -0.0853300094604492188
0.526283502578735352 -0.331424117088317871 0.0196919795125722885
0.527795732021331787 -0.287483155727386475 -0.0706874728202819824
-0.499171912670135498 0.143198847770690918 -0.254397600889205933
0.146395027637481689 0.157250195741653442 0.0580340512096881866
0.253168493509292603 -0.00708385556936264038 0.326937556266784668
0.349453359842300415 -0.146531447768211365 0.320150405168533325
0.441480934619903564 -0.322593152523040771 -0.230648055672645569
-0.224711865186691284 -0.139310240745544434 -0.0544038824737071991
0.522342562675476074 -0.349901199340820312 0.0962804108858108521
-0.645586788654327393 0.254029989242553711 0.0240989252924919128
0.392766058444976807 -0.279523789882659912 0.32188338041305542
-0.474572569131851196 -0.00911015085875988007 0.164432883262634277
0.224205046892166138 -0.324534952640533447 0.318517476320266724
-0.364104121923446655 -0.120620653033256531 0.129430085420608521
-0.23913159966468811 -0.139977186918258667 -0.0545973889529705048
-0.114432245492935181 -0.00863497331738471985 -0.0174241252243518829
0.389005362987518311 -0.277682065963745117 0.320189744234085083
-0.507284879684448242 0.0118985939770936966 0.20112234354019165
0.461527079343795776 -0.296720683574676514 -0.295431822538375854
0.350986272096633911 -0.147448435425758362 0.320969581604003906
0.456723332405090332 -0.303342640399932861 -0.229830726981163025
0.0243694409728050232 -0.143303632736206055 -0.0204886160790920258
0.368465662002563477 -0.32705843448638916 0.318210184574127197
0.391481697559356689 -0.280858814716339111 0.316295534372329712
0.128468096256256104 -0.318616986274719238 -0.0977841615676879883
-0.1346253901720047 0.279021620750427246 0.11694905161857605
-0.333913087844848633 0.095346793532371521 -0.103150792419910431
0.373212516307830811 -0.375053137540817261 -0.215767979621887207
0.518849194049835205 -0.345644354820251465 -0.32320016622543335
0.523184657096862793 -0.357735425233840942 -0.326901823282241821
-0.0688172280788421631 -0.254296362400054932 0.0983491092920303345
0.325396299362182617 -0.130147919058799744 0.314360588788986206
0.423805475234985352 -0.25918734073638916 0.327806949615478516
-0.480207502841949463 0.0326837040483951569 0.196064695715904236
0.526249587535858154 -0.299291223287582397 -0.322453528642654419
0.53766787052154541 -0.292060822248458862 -0.324795901775360107
0.377045303583145142 -0.373328745365142822 -0.21451452374458313
0.370342403650283813 -0.356154769659042358 -0.214471668004989624
0.523790955543518066 -0.351507365703582764 -0.325477391481399536
0.525078952312469482 -0.36294439435005188 -0.323259949684143066
0.514759838581085205 -0.327070415019989014 -0.320940196514129639
0.4787331223487854 -0.351842224597930908 -0.312495708465576172
0.47777441143989563 -0.365408539772033691 -0.313252359628677368
-0.36218184232711792 0.311255216598510742 0.238756090402603149
-0.321240365505218506 0.104986071586608887 0.0215991958975791931
-0.447356283664703369 0.204727649688720703 -0.0408224239945411682
-0.377826273441314697 0.27999994158744812 -0.00820184778422117233
-0.023180689662694931 -0.26027369499206543 0.142977058887481689
-0.591750621795654297 0.362079739570617676 0.0641997233033180237
0.366831839084625244 -0.372641503810882568 -0.213150873780250549
-0.124349087476730347 -0.00999788381159305573 0.00725620239973068237
0.395902961492538452 -0.352342903614044189 -0.21896672248840332
0.506224215030670166 -0.158858776092529297 0.124976933002471924
0.195519357919692993 0.12513163685798645 0.00569692952558398247
-0.0262210313230752945 0.167666077613830566 0.382210105657577515
-0.334516048431396484 -0.120339393615722656 0.0996415168046951294
-0.325277864933013916 0.303580522537231445 -0.0373135656118392944
0.533609449863433838 -0.346325397491455078 0.0379279069602489471
0.525349318981170654 -0.331661760807037354 0.0339863896369934082
-0.59553062915802002 0.382947623729705811 0.113192133605480194
-0.0116459503769874573 -0.143594890832901001 -0.0273519661277532578
-0.235756322741508484 0.172995805740356445 -0.00271092820912599564
-0.485359072685241699 -0.00989742204546928406 0.176890313625335693
-0.278053700923919678 0.336856752634048462 0.0419124476611614227
0.513228178024291992 -0.348730176687240601 0.0964537113904953003
-0.448398679494857788 -0.0348301082849502563 0.117046505212783813
0.433814734220504761 -0.252612084150314331 0.331495612859725952
0.414462000131607056 -0.277625381946563721 0.326799958944320679
-0.469116061925888062 0.035111553966999054 0.192628175020217896
0.501593112945556641 -0.339514046907424927 0.00735615100711584091
-0.481486797332763672 -0.00211474858224391937 0.177155613899230957
-0.377566307783126831 -0.105891242623329163 0.0922255367040634155
-0.501239538192749023 0.0228271186351776123 0.183556839823722839
0.359920799732208252 -0.286125391721725464 -0.14245489239692688
0.00121853314340114594 -0.230937957763671875 0.0894977375864982605
-0.140603840351104736 0.265893220901489258 0.0880645662546157837
-0.129865348339080811 0.255247533321380615 0.0708584710955619812
0.311991363763809204 -0.292599737644195557 -0.131790041923522949
0.42784571647644043 -0.254906654357910156 0.329881936311721802
-0.614238858222961426 0.30750739574432373 0.392421483993530273
0.409977167844772339 -0.35701751708984375 -0.2270498126745224
0.504027664661407471 -0.346895068883895874 -0.320316344499588013
0.50701749324798584 -0.352359205484390259 -0.323478460311889648
0.523045659065246582 -0.29834449291229248 -0.319248348474502563
0.508753836154937744 -0.3468036949634552 -0.320940166711807251
0.269661486148834229 -0.168727681040763855 -0.0801625996828079224
0.134100407361984253 0.121083870530128479 0.328235775232315063
0.251814037561416626 -0.28438904881477356 0.327754437923431396
0.323969244956970215 -0.119433283805847168 0.310181111097335815
0.30206453800201416 -0.203991234302520752 0.250510632991790771
0.249943584203720093 -0.00302713736891746521 0.324539810419082642
0.506591558456420898 -0.342933118343353271 0.0865836292505264282
