ply
format ascii 1.0
element vertex 738
property float x
property float y
property float z
end_header
0.288253188133239746 0.0314924269914627075 0.0529295355081558228
0.432856261730194092 -0.305285125970840454 -0.285699278116226196
-0.519622981548309326 0.0905811861157417297 -0.135916665196418762
-0.600806832313537598 0.28589138388633728 0.183444797992706299
0.466983556747436523 -0.320483565330505371 0.126929432153701782
0.467139750719070435 -0.260012716054916382 -0.294370353221893311
-0.404561787843704224 0.301320254802703857 0.142278790473937988
-0.454788446426391602 0.120016194880008698 -0.224400565028190613
0.481256425380706787 -0.311275482177734375 -0.303063660860061646
0.467754751443862915 -0.329996407032012939 -0.00349784502759575844
0.456896096467971802 -0.304694712162017822 -0.293080240488052368
0.523983299732208252 -0.261317729949951172 -0.102524697780609131
-0.409732520580291748 0.319411009550094604 0.161762550473213196
-0.561079680919647217 0.268178790807723999 0.364776015281677246
-0.57667386531829834 0.210891082882881165 -0.201418757438659668
0.446839272975921631 -0.296011060476303101 -0.223892122507095337
0.309404373168945312 -0.0755922421813011169 0.148255407810211182
0.534255325794219971 -0.247732773423194885 0.100917883217334747
-0.563463330268859863 0.120155751705169678 -0.233943447470664978
-0.408993303775787354 0.0771151185035705566 -0.117454200983047485
-0.580143332481384277 0.356983989477157593 0.0820702835917472839
0.0413992516696453094 0.114903360605239868 0.311878293752670288
-0.457234025001525879 0.00949171651154756546 0.180849701166152954
0.40878373384475708 -0.343414157629013062 0.159301862120628357
-0.555097460746765137 0.288919717073440552 -0.0497429557144641876
0.542744576930999756 -0.255351513624191284 0.113443925976753235
0.023543674498796463 -0.249347388744354248 0.204205960035324097
0.195207104086875916 0.130434334278106689 0.034173969179391861
0.314718186855316162 -0.369854956865310669 -0.157801821827888489
0.110144473612308502 0.0600009933114051819 0.318451762199401855
-0.315371245145797729 0.307068884372711182 0.283317089080810547
-0.255280494689941406 -0.13209223747253418 -0.0737483128905296326
-0.386734992265701294 -0.0595305338501930237 0.106009066104888916
0.452566862106323242 -0.0721122473478317261 -0.11713816225528717
0.315173834562301636 -0.332573354244232178 0.195143058896064758
0.29719465970993042 0.0385980494320392609 0.0492452941834926605
0.475458115339279175 -0.330367386341094971 0.13583672046661377
0.439313828945159912 -0.266949981451034546 -0.282803267240524292
0.460530340671539307 -0.272407978773117065 0.137498974800109863
0.503725767135620117 -0.345681726932525635 0.0170529317110776901
0.518484115600585938 -0.268839478492736816 -0.0874716341495513916
0.497900128364562988 -0.0874849408864974976 0.161235243082046509
0.541362643241882324 -0.214642584323883057 0.110673770308494568
-0.577633976936340332 0.327618807554244995 0.0799640417098999023
0.246173158288002014 0.111716479063034058 -0.0554518327116966248
0.0326709114015102386 0.0692749097943305969 0.272296607494354248
-0.562292337417602539 0.275604814291000366 0.0233566835522651672
-0.614338517189025879 0.272663742303848267 0.0381776131689548492
0.535196542739868164 -0.238709092140197754 0.102360814809799194
-0.576354146003723145 0.213175088167190552 -0.117234326899051666
-0.426045864820480347 0.0312374066561460495 -0.189328759908676147
0.303654074668884277 -0.125701189041137695 -0.108972012996673584
-0.385215640068054199 -0.054819304496049881 0.100573614239692688
-0.60332566499710083 0.259874105453491211 0.0169758833944797516
-0.461676955223083496 0.307132542133331299 0.0802462324500083923
0.504311800003051758 -0.263203829526901245 -0.109522610902786255
0.534201979637145996 -0.19185192883014679 0.0283315312117338181
-0.616364955902099609 0.210913881659507751 -0.056625954806804657
0.451694190502166748 -0.122929647564888 0.0888090655207633972
0.0333259329199790955 -0.278898656368255615 -0.0365044586360454559
0.401438027620315552 -0.318116068840026855 0.130249828100204468
-0.0942492038011550903 0.0743143558502197266 0.292709589004516602
0.242561295628547668 -0.136133849620819092 0.0104070277884602547
0.161062344908714294 -0.271030634641647339 0.0433773025870323181
-0.590747475624084473 0.369474083185195923 0.0894619375467300415
0.0268959850072860718 -0.011383499950170517 0.0274396669119596481
0.194947749376296997 0.0347678214311599731 0.177485764026641846
-0.306799948215484619 -0.0906455963850021362 0.304511696100234985
0.493267744779586792 -0.36615830659866333 0.0194089170545339584
0.521365642547607422 -0.310632824897766113 0.0455979667603969574
0.501769006252288818 -0.152782097458839417 0.118776015937328339
0.0806829780340194702 -0.27165946364402771 -0.0598929375410079956
-0.325718015432357788 -0.102672934532165527 0.0876363813877105713
-0.586837410926818848 0.335513979196548462 0.0182422250509262085
-0.074105381965637207 -0.235153272747993469 0.301082730293273926
0.194091200828552246 -0.339347392320632935 -0.0629459917545318604
-0.399545580148696899 0.272538512945175171 -0.0553571730852127075
-0.522418975830078125 0.0446124225854873657 -0.0584854669868946075
-0.258253812789916992 0.142772406339645386 0.090674184262752533
-0.214271605014801025 -0.135081842541694641 -0.0637526810169219971
0.507831931114196777 -0.104190021753311157 0.143915116786956787
0.213570863008499146 -0.279014348983764648 -0.0100030489265918732
0.237602129578590393 -0.0754920691251754761 0.126255244016647339
-0.141188472509384155 0.297235280275344849 0.14719235897064209
-0.656093299388885498 0.171731695532798767 -0.11274641752243042
0.252723276615142822 -0.00882377475500106812 0.249311685562133789
0.249682381749153137 -0.17816576361656189 0.302249550819396973
-0.26362493634223938 -0.136548876762390137 -0.0683314502239227295
-0.200703442096710205 0.31480744481086731 0.0985280945897102356
0.257357180118560791 -0.277404218912124634 0.322653651237487793
0.178161293268203735 -0.0536185353994369507 -0.0515983663499355316
-0.443740934133529663 -0.066103324294090271 0.128496021032333374
-0.504652619361877441 0.030580572783946991 0.246338337659835815
-0.497876226902008057 0.0370319485664367676 -0.0124618522822856903
0.232215240597724915 0.0235613919794559479 0.313497960567474365
-0.371592462062835693 -0.0451347604393959045 0.142987877130508423
-0.349718838930130005 0.107399642467498779 0.0655726492404937744
0.306675553321838379 -0.198178157210350037 0.242446541786193848
0.307186007499694824 -0.00483894906938076019 0.218961820006370544
-0.442976653575897217 0.267095178365707397 -0.0377341583371162415
0.516910433769226074 -0.325795024633407593 -0.0818002000451087952
-0.53904116153717041 0.138904571533203125 -0.0976917147636413574
0.465003460645675659 -0.123783871531486511 0.00150536303408443928
-0.385640114545822144 0.256187528371810913 0.032487913966178894
0.493509352207183838 -0.301078557968139648 0.120624333620071411
0.46445050835609436 -0.105476237833499908 0.059105362743139267
0.202823445200920105 0.0158237554132938385 -0.0427495203912258148
-0.225179195404052734 0.296496540307998657 0.1579437255859375
-0.125795364379882812 -0.0484132468700408936 0.010616568848490715
-0.2319202721118927 0.229105547070503235 0.347164511680603027
-0.380924344062805176 -0.0536745935678482056 0.14507487416267395
0.340055197477340698 -0.0729699954390525818 0.0471891872584819794
-0.436637908220291138 -0.0117112956941127777 0.0333320163190364838
0.204602107405662537 0.0171554237604141235 0.0697942674160003662
0.0557553842663764954 -0.0854255557060241699 0.23876151442527771
-0.384008228778839111 -0.0587215647101402283 0.116274580359458923
-0.137021377682685852 -0.264319241046905518 -0.0016901274211704731
-0.244189709424972534 0.0641753673553466797 0.244583353400230408
-0.54266279935836792 0.21158936619758606 0.16216808557510376
-0.590808391571044922 0.287514865398406982 -0.00789159443229436874
0.306321978569030762 0.0181649252772331238 0.042087070643901825
0.478223562240600586 -0.313945114612579346 -0.30591285228729248
0.503400921821594238 -0.344635069370269775 -0.0641260743141174316
0.471050083637237549 -0.304405272006988525 0.114834308624267578
0.526956140995025635 -0.302182883024215698 -0.109667807817459106
-0.403404325246810913 0.312291949987411499 0.134067699313163757
0.517590820789337158 -0.250602006912231445 -0.307790100574493408
0.507214903831481934 -0.328267276287078857 -0.315146058797836304
0.518486976623535156 -0.330547541379928589 0.0913510024547576904
0.477090239524841309 -0.303569525480270386 -0.303501635789871216
0.527431130409240723 -0.284839510917663574 -0.108473733067512512
-0.560218155384063721 0.267826050519943237 0.365170389413833618
-0.640324890613555908 0.290019810199737549 0.0849348902702331543
0.370853066444396973 -0.40032467246055603 -0.218173697590827942
-0.450188606977462769 -0.000476762652397155762 0.174476459622383118
0.175954312086105347 0.0735275000333786011 0.00598038546741008759
-0.454053312540054321 0.135127067565917969 -0.214047625660896301
0.4026966392993927 -0.335143387317657471 0.12834949791431427
-0.598718762397766113 0.207541584968566895 0.000410628505051136017
0.246930629014968872 -0.113812334835529327 -0.071314007043838501
-0.483740329742431641 0.183234825730323792 -0.210795670747756958
-0.376287072896957397 -0.0623754076659679413 0.0911772698163986206
0.522822797298431396 -0.320153951644897461 0.035606037825345993
0.541584134101867676 -0.216718465089797974 0.108296141028404236
0.525465846061706543 -0.272854089736938477 0.0549655891954898834
0.110703632235527039 0.0845508649945259094 0.316923052072525024
-0.351444870233535767 -0.047368612140417099 0.044341549277305603
0.104845568537712097 0.0723778754472732544 0.295186787843704224
-0.165720149874687195 0.133468225598335266 0.150694653391838074
0.502090275287628174 -0.255676954984664917 -0.102790907025337219
0.428585410118103027 -0.303101837635040283 0.135423734784126282
-0.356899887323379517 -0.10076739639043808 0.158046767115592957
0.497946053743362427 -0.20081794261932373 -0.108254656195640564
-0.578972876071929932 0.348644345998764038 0.151523679494857788
0.104546010494232178 -0.0111766140908002853 0.0206086859107017517
-0.341914385557174683 -0.122788108885288239 0.103658832609653473
-0.121155679225921631 -0.275090485811233521 0.17331211268901825
-0.161821350455284119 0.167948737740516663 0.324654728174209595
0.514700055122375488 -0.357827365398406982 0.0265119839459657669
0.520911097526550293 -0.286793500185012817 -0.012087969109416008
0.477903991937637329 -0.139207243919372559 0.10738750547170639
-0.181517511606216431 0.0297365095466375351 0.0253599174320697784
-0.342422366142272949 -0.121084302663803101 0.102832332253456116
-0.600148558616638184 0.377254247665405273 0.188012480735778809
-0.12003384530544281 -0.266220778226852417 0.217506140470504761
0.523290097713470459 -0.307975113391876221 -0.0751609504222869873
0.516126811504364014 -0.251478523015975952 -0.3099498450756073
0.454763293266296387 -0.307519704103469849 -0.295025795698165894
0.239448234438896179 -0.0950872302055358887 0.15795665979385376
-0.620405256748199463 0.272809505462646484 0.0369260609149932861
-0.430639147758483887 -0.00298229046165943146 0.176752299070358276
-0.251003950834274292 -0.136152505874633789 -0.0716192424297332764
0.31645435094833374 -0.318348199129104614 0.122160322964191437
0.538763999938964844 -0.249061614274978638 0.106692478060722351
0.452259033918380737 -0.139289200305938721 0.0149600217118859291
0.42894446849822998 -0.320262432098388672 0.123199462890625
0.412804365158081055 -0.329898059368133545 -0.210447460412979126
0.472923398017883301 -0.127827808260917664 0.109417334198951721
-0.549684345722198486 0.379268944263458252 0.171930626034736633
0.190207958221435547 -0.339129984378814697 -0.0137747935950756073
-0.202268838882446289 -0.134764730930328369 -0.0689107850193977356
-0.185578629374504089 0.31270560622215271 0.117428898811340332
0.102754697203636169 0.108479924499988556 0.174203932285308838
-0.444886773824691772 -0.0535759590566158295 0.0913114845752716064
-0.49011993408203125 0.0306030958890914917 0.0161041766405105591
0.230975419282913208 0.0117500387132167816 0.314644366502761841
-0.0248642880469560623 0.113738879561424255 0.312011361122131348
0.242357268929481506 -0.0378948897123336792 0.204258441925048828
-0.384688049554824829 0.246022626757621765 0.0339686125516891479
-0.653727531433105469 0.216995179653167725 -0.0395906828343868256
0.482386887073516846 -0.115557938814163208 0.0231511332094669342
0.121971979737281799 0.0799512863159179688 0.138634413480758667
-0.382327616214752197 -0.0716140121221542358 0.0952745601534843445
0.318470925092697144 -0.0715082883834838867 0.0619493275880813599
-0.44056430459022522 -0.0111163314431905746 0.00647113006561994553
-0.502708673477172852 0.234295845031738281 -0.0718401670455932617
-0.54776763916015625 0.203974515199661255 -0.0690225809812545776
0.0880704224109649658 0.0922347307205200195 0.0793430879712104797
-0.520312309265136719 0.205296993255615234 -0.0473545044660568237
-0.168711811304092407 0.0728526264429092407 0.231946408748626709
-0.0578540563583374023 -0.18633289635181427 0.0264811273664236069
-0.212746471166610718 0.291349142789840698 0.108625218272209167
0.249030843377113342 -0.00480356253683567047 0.0218837391585111618
-0.556343376636505127 0.205018043518066406 0.117865130305290222
-0.457674920558929443 0.2171916663646698 0.0240079499781131744
-0.46339648962020874 0.267189592123031616 -0.00332227675244212151
-0.575304150581359863 0.247922644019126892 -0.0768236145377159119
-0.390008687973022461 0.275655895471572876 -0.0849166065454483032
0.342986881732940674 -0.13395516574382782 0.318699896335601807
-0.49873003363609314 0.207646310329437256 -0.0117579251527786255
-0.346258103847503662 0.293365657329559326 -0.0509660616517066956
0.525829613208770752 -0.36035388708114624 0.0412475913763046265
-0.540332317352294922 0.215788707137107849 0.200356125831604004
-0.569355607032775879 0.294764697551727295 -0.00381766073405742645
0.315776795148849487 0.0243889540433883667 0.0480325408279895782
0.481924921274185181 -0.306233465671539307 -0.304228037595748901
0.479191720485687256 -0.325572073459625244 0.124913156032562256
0.523075222969055176 -0.30613476037979126 -0.0989870652556419373
0.4901619553565979 -0.309853523969650269 -0.307893633842468262
0.515936076641082764 -0.324181884527206421 0.119554005563259125
0.444274067878723145 -0.299393594264984131 -0.29133075475692749
0.523074567317962646 -0.303666234016418457 -0.097644507884979248
0.134606420993804932 0.117199607193470001 0.33642914891242981
-0.642209649085998535 0.24299679696559906 -0.00971419736742973328
-0.293162167072296143 -0.113099560141563416 -0.106039568781852722
0.538670241832733154 -0.254682540893554688 0.0918053388595581055
0.129212737083435059 0.098025202751159668 0.31695854663848877
-0.235631704330444336 -0.142914026975631714 -0.0718203708529472351
0.251509130001068115 0.0307334065437316895 -0.0865770801901817322
0.530882656574249268 -0.322301119565963745 0.0064374217763543129
-0.599417448043823242 0.307715356349945068 0.103940486907958984
0.531702935695648193 -0.243912607431411743 0.0862035155296325684
-0.373994767665863037 -0.060155380517244339 0.0918103605508804321
0.526152491569519043 -0.27455022931098938 -0.123580962419509888
-0.501751363277435303 0.149493113160133362 0.352504163980484009
0.384689688682556152 -0.296883881092071533 0.13113008439540863
0.132362484931945801 -0.33121258020401001 -0.101098202168941498
0.522466063499450684 -0.353869706392288208 -0.0151423104107379913
-0.437218159437179565 0.151366546750068665 -0.0853338688611984253
0.515418648719787598 -0.299338757991790771 0.0643367469310760498
0.392630338668823242 -0.366889268159866333 -0.214464426040649414
0.499715983867645264 -0.170742109417915344 0.129831433296203613
0.533231377601623535 -0.333305716514587402 0.0279352180659770966
-0.580103397369384766 0.349355220794677734 0.0399006865918636322
0.519687414169311523 -0.240305066108703613 -0.309263765811920166
-0.60094916820526123 0.371126472949981689 0.104297801852226257
-0.501275360584259033 0.147902771830558777 0.354710578918457031
0.233696535229682922 -0.277197271585464478 0.316916406154632568
-0.181860268115997314 -0.136258676648139954 -0.0559790581464767456
-0.228813499212265015 -0.137301534414291382 -0.054070986807346344
-0.204502925276756287 0.298767954111099243 0.126039177179336548
0.262239903211593628 -0.288973450660705566 0.323278099298477173
-0.363077402114868164 -0.029740355908870697 0.11886945366859436
-0.499958008527755737 0.0197781138122081757 0.0314292609691619873
0.242314726114273071 0.000841719098389148712 0.321872115135192871
0.141481518745422363 -0.289818346500396729 0.311099529266357422
0.307071983814239502 -0.206862181425094604 0.247810408473014832
-0.386302083730697632 0.255712956190109253 0.0341120734810829163
0.530787050724029541 -0.261635690927505493 0.102494008839130402
0.223490476608276367 0.0234113074839115143 0.305079758167266846
0.530070781707763672 -0.14646989107131958 -0.308627665042877197
-0.644446372985839844 0.23163972795009613 -0.0477731786668300629
0.541118144989013672 -0.310108423233032227 -0.0448869094252586365
0.507540583610534668 -0.267047464847564697 -0.3119964599609375
0.514227867126464844 -0.315304577350616455 -0.29555666446685791
0.458495408296585083 -0.290108710527420044 -0.297256380319595337
-0.543434560298919678 0.268489629030227661 -0.189770475029945374
-0.62178879976272583 0.289464682340621948 0.0663763284683227539
0.362799912691116333 -0.383165955543518066 -0.206823199987411499
-0.0926033109426498413 0.267907053232192993 0.188791573047637939
-0.448925018310546875 0.131793603301048279 -0.209418043494224548
-0.575983345508575439 0.20437641441822052 -0.127419516444206238
-0.630194544792175293 0.192086964845657349 -0.0401557981967926025
-0.47028350830078125 0.139702469110488892 -0.231468290090560913
0.257138699293136597 -0.0164560787379741669 -0.0727158933877944946
0.229940414428710938 0.0545228682458400726 -0.0459419339895248413
0.112967349588871002 0.110330380499362946 0.301171183586120605
-0.584638476371765137 0.218843698501586914 -0.221912473440170288
-0.597740650177001953 0.235498115420341492 -0.0111530832946300507
-0.367336928844451904 -0.0909191593527793884 0.122165486216545105
-0.330110847949981689 -0.124664723873138428 0.136584773659706116
-0.634546339511871338 0.199883386492729187 -0.0385547950863838196
-0.426134705543518066 -0.0540554150938987732 0.0984865576028823853
-0.477889329195022583 0.0205582473427057266 -0.0371832549571990967
0.207894489169120789 0.00926579628139734268 0.300426214933395386
-0.634331643581390381 0.248565047979354858 -0.00618674233555793762
-0.1280842125415802 0.270362198352813721 0.131604284048080444
0.270264744758605957 -0.329548299312591553 0.179812923073768616
0.532512903213500977 -0.209305420517921448 -0.0991700291633605957
-0.127057075500488281 -0.111820042133331299 -0.054944165050983429
0.453918248414993286 -0.337912768125534058 -0.298685371875762939
-0.213362142443656921 0.0368363969027996063 -0.0603575073182582855
-0.55369102954864502 0.176286756992340088 0.012142491526901722
-0.199256673455238342 0.140163019299507141 0.0202613044530153275
-0.0130219943821430206 -0.10209345817565918 -0.043562915176153183
0.263969182968139648 -0.274161934852600098 0.201942726969718933
0.348367303609848022 -0.320351183414459229 -0.000795265194028615952
-0.156682059168815613 0.0702671930193901062 0.0267444364726543427
-0.249394237995147705 0.131395414471626282 -0.0350196808576583862
0.198889121413230896 0.00221925973892211914 0.0185182131826877594
0.0759126991033554077 0.0814144536852836609 0.0233421474695205688
-0.28332403302192688 0.288765490055084229 -0.00663269776850938797
0.47673797607421875 -0.289011657238006592 -0.302331238985061646
-0.557090640068054199 0.266179740428924561 -0.017758028581738472
-0.238080695271492004 0.0984075590968132019 -0.0330388359725475311
0.137393772602081299 -0.280184835195541382 0.149281471967697144
0.29640689492225647 -0.296764910221099854 0.0563804395496845245
-0.285667717456817627 0.257465243339538574 0.000180885661393404007
-0.0213953536003828049 -0.0400252267718315125 0.0887403041124343872
0.20365588366985321 0.0433717966079711914 0.0649274140596389771
-0.14421398937702179 -0.0844653323292732239 0.0912474989891052246
0.371611028909683228 -0.0726085156202316284 0.0309699568897485733
0.520873069763183594 -0.198242157697677612 -0.0989054664969444275
0.48690265417098999 -0.296894282102584839 -0.305892527103424072
0.479928433895111084 -0.313975691795349121 0.121955104172229767
0.513380706310272217 -0.306246638298034668 -0.102856725454330444
0.495887696743011475 -0.308504849672317505 -0.310261398553848267
0.50591886043548584 -0.326667934656143188 -0.00441566016525030136
0.511439204216003418 -0.323677867650985718 0.117923907935619354
0.465492874383926392 -0.287991106510162354 -0.297337830066680908
0.437481224536895752 -0.262571990489959717 -0.194898903369903564
0.135354176163673401 0.117890521883964539 0.336303591728210449
0.396147251129150391 -0.243562266230583191 0.318302422761917114
-0.601712703704833984 0.354918926954269409 0.0651988163590431213
-0.505762994289398193 0.35798373818397522 0.177632957696914673
0.542399287223815918 -0.281643390655517578 0.0975126028060913086
0.255683541297912598 0.0376276969909667969 -0.072785496711730957
-0.23392033576965332 0.156635552644729614 -0.0059300549328327179
0.505851864814758301 -0.33078041672706604 -0.00262684095650911331
0.444093316793441772 -0.249291285872459412 -0.228554472327232361
-0.639415979385375977 0.255066245794296265 0.0542789213359355927
0.532351076602935791 -0.26186835765838623 0.0928239524364471436
-0.39355003833770752 -0.0585237741470336914 0.100000753998756409
0.523872852325439453 -0.288749575614929199 -0.0926555544137954712
0.0276013724505901337 -0.273335546255111694 -0.0357969850301742554
0.384624212980270386 -0.305196642875671387 0.118119455873966217
-0.582672297954559326 0.367444872856140137 0.131256967782974243
0.239296436309814453 0.00387572543695569038 0.180338561534881592
-0.113472923636436462 0.166278824210166931 0.34713628888130188
0.481789171695709229 -0.367500364780426025 -0.0225993581116199493
0.411740511655807495 -0.320153772830963135 -0.211778491735458374
0.506455183029174805 -0.154651954770088196 0.123753949999809265
0.528701305389404297 -0.333813488483428955 0.0122135337442159653
-0.58422696590423584 0.336922138929367065 0.0337395444512367249
-0.591192364692687988 0.382497400045394897 0.13078424334526062
0.526161432266235352 -0.243619680404663086 -0.311157017946243286
0.474072068929672241 -0.289939582347869873 -0.300143033266067505
-0.597666740417480469 0.354263842105865479 0.169193953275680542
-0.587659776210784912 0.372107326984405518 0.100678622722625732
-0.212729692459106445 -0.1287212073802948 -0.0584161020815372467
0.234400048851966858 -0.292336910963058472 0.314224153757095337
0.237876027822494507 0.0679957196116447449 0.319371998310089111
0.541716277599334717 -0.312912881374359131 -0.0586514361202716827
-0.44521668553352356 -0.04766826331615448 0.126362890005111694
0.358902245759963989 -0.38732340931892395 -0.209818407893180847
-0.557190477848052979 0.211879491806030273 -0.114103034138679504
0.520440518856048584 -0.278674483299255371 -0.177462473511695862
0.241374537348747253 0.0355913266539573669 0.314023703336715698
0.242156997323036194 0.0012462986633181572 0.0232139136642217636
0.379783332347869873 0.0396721214056015015 0.0111420964822173119
0.526493072509765625 -0.229980021715164185 -0.310631155967712402
0.326220214366912842 0.0970909371972084045 -0.0366694517433643341
-0.375160396099090576 -0.0594063177704811096 -0.133669286966323853
0.512258589267730713 -0.166691496968269348 0.135483637452125549
-0.574832797050476074 0.322655558586120605 0.0491345115005970001
-0.559556961059570312 0.28416067361831665 0.363674521446228027
0.223565578460693359 0.0327881500124931335 -0.0588763877749443054
-0.574766635894775391 0.215126797556877136 -0.221590697765350342
-0.0451855361461639404 0.157397285103797913 0.0808384716510772705
0.113671831786632538 0.110609419643878937 0.0247946213930845261
0.342057883739471436 -0.246108502149581909 -0.0975577831268310547
-0.284940958023071289 0.300941169261932373 -0.00355509575456380844
0.152823805809020996 -0.00379117392003536224 -0.00409390125423669815
0.0685869157314300537 0.139581769704818726 0.0750945210456848145
-0.270228832960128784 0.280809193849563599 0.0010708498302847147
0.502843022346496582 -0.29177132248878479 -0.159890517592430115
0.136554896831512451 -0.0252400767058134079 0.0125987967476248741
-0.339871615171432495 -0.0311742369085550308 0.0222570896148681641
0.372571200132369995 -0.0910943299531936646 0.0436620190739631653
0.199567317962646484 0.101853907108306885 -0.0025546681135892868
-0.297564685344696045 -0.0242933426052331924 0.0357891172170639038
0.13160938024520874 -0.0172533672302961349 -0.026721687987446785
0.101396545767784119 0.0164689254015684128 0.0908012837171554565
0.175187483429908752 0.120049834251403809 0.0374501384794712067
-0.230883866548538208 -0.0629139766097068787 0.104246392846107483
0.485927313566207886 -0.295764625072479248 -0.30419313907623291
-0.603483915328979492 0.290242701768875122 0.184558212757110596
0.46661105751991272 -0.307870447635650635 0.119673877954483032
0.37740480899810791 -0.013639768585562706 0.00571029027923941612
0.514205038547515869 -0.294366985559463501 -0.10402795672416687
0.518507421016693115 -0.239073991775512695 -0.308334410190582275
0.477658390998840332 -0.30893939733505249 -0.301013976335525513
0.483093112707138062 -0.273794770240783691 -0.30057111382484436
0.116683386266231537 0.119591906666755676 0.29709973931312561
-0.584432899951934814 0.356878817081451416 0.065272204577922821
0.383145689964294434 -0.336508959531784058 0.124835237860679626
-0.574390232563018799 0.318039506673812866 -0.0270352400839328766
-0.604873120784759521 0.217740178108215332 -0.0873772501945495605
0.266985088586807251 0.039997342973947525 -0.0870563238859176636
-0.357816994190216064 -0.0213240440934896469 -0.131948858499526978
-0.565064847469329834 0.315096557140350342 -0.00843066349625587463
0.190232828259468079 -0.34003293514251709 -0.0753807127475738525
0.403477966785430908 -0.356582462787628174 -0.224915266036987305
-0.501009285449981689 0.146500051021575928 0.35407593846321106
0.508860945701599121 -0.150596529245376587 0.114765025675296783
0.496372610330581665 -0.263177782297134399 -0.305136501789093018
0.457492232322692871 -0.28008568286895752 -0.290498018264770508
0.440531313419342041 -0.264239519834518433 -0.284412503242492676
-0.588249444961547852 0.358027368783950806 0.0612449012696743011
0.504600346088409424 -0.125968188047409058 0.123913317918777466
-0.206627652049064636 0.312982350587844849 0.107923746109008789
0.267678320407867432 -0.283261805772781372 0.318702936172485352
0.231986403465270996 0.00432784296572208405 0.31733211874961853
0.512785196304321289 -0.174913495779037476 -0.282080709934234619
-0.115994051098823547 0.010544903576374054 0.00533965742215514183
0.403427362442016602 -0.358702719211578369 -0.225585386157035828
0.417101204395294189 -0.312482297420501709 0.143203914165496826
-0.556225299835205078 0.377230405807495117 0.186072558164596558
-0.176053270697593689 0.309885472059249878 0.117888465523719788
-0.390581011772155762 0.276645153760910034 -0.085924781858921051
0.364561229944229126 0.0525540187954902649 0.0238445866852998734
0.129331097006797791 0.116665288805961609 0.318192064762115479
-0.287332653999328613 -0.099720686674118042 -0.0926226526498794556
0.257585793733596802 0.10166594386100769 -0.0627695098519325256
-0.362385153770446777 -0.0587842836976051331 -0.144797444343566895
0.134422242641448975 0.114601336419582367 0.337141633033752441
-0.563980400562286377 0.199815616011619568 -0.22963927686214447
-0.276238024234771729 0.288547426462173462 -0.00167363416403532028
0.454400599002838135 -0.245721057057380676 -0.28891289234161377
0.459808826446533203 -0.274640947580337524 -0.291473239660263062
-0.635297477245330811 0.308853179216384888 0.170042961835861206
0.512269735336303711 -0.316404402256011963 -0.0389908701181411743
0.468534588813781738 -0.265117049217224121 -0.298660069704055786
0.477913379669189453 -0.294258654117584229 -0.300949811935424805
0.45766836404800415 -0.245551988482475281 -0.29033052921295166
0.380480706691741943 -0.360107392072677612 -0.2148570716381073
-0.480061888694763184 -0.0116554908454418182 0.185365140438079834
-0.517079949378967285 0.366494476795196533 0.173347532749176025
-0.618844926357269287 0.202550336718559265 -0.0876706913113594055
-0.237848937511444092 0.0193761680275201797 -0.0730203241109848022
-0.382790088653564453 -0.0582520738244056702 0.0231593213975429535
0.474420458078384399 -0.367498904466629028 0.0212485343217849731
-0.649293601512908936 0.237248331308364868 0.0319094359874725342
0.412148922681808472 -0.345744013786315918 -0.222678661346435547
0.525811314582824707 -0.336259752511978149 0.0795412808656692505
0.505638360977172852 -0.238407477736473083 -0.308703869581222534
0.249224931001663208 -0.281466454267501831 0.317792117595672607
0.239132508635520935 0.067359432578086853 0.313730180263519287
0.53948134183883667 -0.301055222749710083 -0.0940931737422943115
-0.448386192321777344 -0.0404468029737472534 0.126179933547973633
-0.0441552028059959412 0.105055011808872223 0.317398965358734131
0.247225463390350342 0.0218012891709804535 0.321721851825714111
-0.285765618085861206 -0.098725438117980957 -0.0996133908629417419
-0.138521701097488403 -0.0143699087202548981 -0.0495922714471817017
-0.278108298778533936 0.338425636291503906 0.0464872941374778748
-0.254803329706192017 0.290360331535339355 -0.00385642051696777344
-0.219270914793014526 0.322542309761047363 0.0691814124584197998
-0.573576986789703369 0.152818247675895691 -0.074980415403842926
-0.29037398099899292 0.293256938457489014 0.0153939081355929375
0.525359690189361572 -0.319725245237350464 0.0267560351639986038
0.345456987619400024 -0.0297465380281209946 -0.0353019386529922485
0.522032439708709717 -0.362119913101196289 0.0887643173336982727
-0.0839978680014610291 -0.111254937946796417 0.0778359919786453247
-0.404570043087005615 0.326889544725418091 0.120884396135807037
0.504465103149414062 -0.366134375333786011 -0.00485902652144432068
-0.11922551691532135 0.266852915287017822 0.120399408042430878
0.518483936786651611 -0.342089325189590454 0.0354132391512393951
0.130232736468315125 -0.33394932746887207 0.300608843564987183
0.466322034597396851 -0.310241550207138062 0.071937859058380127
0.482587695121765137 -0.37324070930480957 0.0517713204026222229
0.420493870973587036 -0.0252030901610851288 0.0641289651393890381
0.493842422962188721 -0.362656950950622559 -0.0160051975399255753
-0.233355551958084106 0.287824302911758423 0.0835121423006057739
0.531161487102508545 -0.330776691436767578 -0.00781590025871992111
-0.272321939468383789 0.316011637449264526 0.113360583782196045
0.307427644729614258 0.00331952562555670738 0.0455056428909301758
0.46710631251335144 -0.262707173824310303 -0.296706050634384155
0.473205357789993286 -0.303493857383728027 0.113865390419960022
0.510980963706970215 -0.31265556812286377 -0.104849532246589661
0.509054124355316162 -0.244632601737976074 -0.308947831392288208
0.447665303945541382 -0.291707098484039307 -0.293520212173461914
0.465907424688339233 -0.282636106014251709 -0.298180669546127319
0.138632729649543762 0.113578177988529205 0.336021870374679565
-0.652094244956970215 0.286332398653030396 0.0979457646608352661
-0.638299822807312012 0.245443582534790039 -0.0383841432631015778
0.136305153369903564 0.0700630694627761841 0.337066799402236938
-0.577178418636322021 0.304198652505874634 -0.0561317093670368195
0.261787384748458862 0.0311713442206382751 -0.0742308199405670166
0.541099429130554199 -0.215972840785980225 0.111503437161445618
-0.361140400171279907 -0.0349760018289089203 -0.135159328579902649
-0.574604690074920654 0.327728569507598877 -0.0301029086112976074
-0.362593948841094971 -0.0701280683279037476 -0.0347054935991764069
-0.131002426147460938 -0.267017215490341187 0.118415690958499908
0.494795680046081543 -0.3649730384349823 -0.000810311175882816315
0.373147249221801758 -0.358431994915008545 -0.211015880107879639
-0.378867864608764648 -0.105993226170539856 0.100928656756877899
-0.0673497915267944336 -0.263339817523956299 0.295869827270507812
0.519654154777526855 -0.242585688829421997 -0.309978365898132324
0.509222447872161865 -0.329530149698257446 0.0150302732363343239
-0.593744158744812012 0.369798928499221802 0.120267480611801147
-0.655431449413299561 0.176091060042381287 -0.103344149887561798
-0.223348826169967651 -0.143411815166473389 -0.0542072281241416931
-0.191354945302009583 0.317203879356384277 0.100144430994987488
0.256418138742446899 -0.282784521579742432 0.319177955389022827
0.238708913326263428 0.0330550223588943481 0.318572342395782471
-0.120760984718799591 -0.0454271212220191956 0.00703544076532125473
-0.641454041004180908 0.309152722358703613 0.101610139012336731
0.364107668399810791 -0.372909307479858398 -0.207788228988647461
0.536719977855682373 -0.216903537511825562 0.161582186818122864
-0.553622543811798096 0.383298337459564209 0.157289013266563416
-0.122953295707702637 0.259965568780899048 0.114451505243778229
0.119432128965854645 0.102951854467391968 0.0889392122626304626
-0.375714093446731567 0.266266554594039917 -0.0902554169297218323
0.516615748405456543 -0.348216772079467773 0.0982515215873718262
-0.294264316558837891 -0.106322497129440308 -0.109734296798706055
0.274324715137481689 0.10356295108795166 -0.0583340078592300415
-0.575508177280426025 0.220068573951721191 -0.213182151317596436
-0.116246826946735382 0.269339174032211304 0.179154083132743835
0.235982969403266907 -0.287286669015884399 0.313655108213424683
0.309400320053100586 -0.186568081378936768 0.240534976124763489
0.541493475437164307 -0.325000107288360596 -0.0213754735887050629
0.0787668302655220032 -0.337135553359985352 0.281598389148712158
-0.00678584445267915726 -0.171254634857177734 0.00380289251916110516
-0.282401740550994873 0.262196063995361328 0.00624939426779747009
0.512908577919006348 -0.23643958568572998 -0.309959441423416138
-0.647352933883666992 0.278918325901031494 0.0794026553630828857
-0.646192073822021484 0.183465480804443359 -0.0912241265177726746
0.513796508312225342 -0.321501851081848145 0.0239343680441379547
-0.407368272542953491 -0.0628488734364509583 0.1131553053855896
0.516512811183929443 -0.354665279388427734 -0.0209421310573816299
-0.567291855812072754 0.375071853399276733 0.151798471808433533
0.235488519072532654 0.0438797958195209503 0.313068270683288574
-0.664557933807373047 0.227492466568946838 0.0227554459124803543
-0.448664993047714233 -0.0376659482717514038 0.126580730080604553
0.502502739429473877 -0.301309585571289062 -0.179293215274810791
-0.589466094970703125 0.361791491508483887 0.0855475068092346191
-0.194355055689811707 0.315527677536010742 0.104207240045070648
0.246326923370361328 0.0247609503567218781 0.323263853788375854
0.530800461769104004 -0.322902560234069824 -0.0586154982447624207
-0.183166652917861938 0.307748198509216309 0.127786040306091309
0.246459946036338806 0.00776829570531845093 0.323404848575592041
0.0587160401046276093 0.140363976359367371 0.345098197460174561
-0.506559431552886963 0.150235846638679504 0.356147706508636475
0.270147442817687988 -0.310531824827194214 0.325866520404815674
-0.254411965608596802 0.0241121090948581696 -0.0713387131690979004
0.240854799747467041 -0.294574081897735596 0.321923673152923584
0.248376324772834778 0.0446315407752990723 0.313861876726150513
0.467773348093032837 -0.101289190351963043 0.0341094881296157837
-0.125337362289428711 0.195847883820533752 0.114755593240261078
0.239732921123504639 -0.325954854488372803 0.317347109317779541
0.499798446893692017 -0.365905851125717163 0.0741502940654754639
0.5231819748878479 -0.323838204145431519 0.0257877279072999954
0.44443213939666748 -0.252423316240310669 0.331841140985488892
0.320558756589889526 -0.130647078156471252 -0.107361942529678345
0.062994539737701416 -0.00998144596815109253 0.321243733167648315
0.511111676692962646 -0.360042601823806763 0.047018926590681076
0.135253220796585083 -0.100051209330558777 0.0400372631847858429
0.049066789448261261 0.0121224354952573776 0.0291645769029855728
0.0200159326195716858 0.0489371418952941895 0.0419669486582279205
0.0874329432845115662 -0.0654559135437011719 0.289177775382995605
-0.16263696551322937 -0.265139102935791016 0.147036164999008179
0.264473259449005127 -0.0194020755589008331 0.0609438344836235046
-0.0294174104928970337 -0.0283345747739076614 0.294878154993057251
0.501825928688049316 -0.239716857671737671 -0.302551627159118652
0.475733458995819092 -0.314055919647216797 -0.302489966154098511
-0.631226837635040283 0.306950628757476807 0.166971966624259949
0.474911987781524658 -0.320006668567657471 0.120600119233131409
0.508838832378387451 -0.299922406673431396 -0.106022469699382782
0.528026223182678223 -0.274153560400009155 -0.31767156720161438
0.493365883827209473 -0.331621289253234863 -0.311256080865859985
0.503053009510040283 -0.31918257474899292 0.0975821167230606079
0.473826318979263306 -0.305045872926712036 -0.298726081848144531
-0.559584081172943115 0.268777161836624146 0.363994807004928589
0.124949365854263306 0.117662206292152405 0.313318908214569092
-0.634073138236999512 0.282993316650390625 0.0540743283927440643
-0.587665677070617676 0.363456070423126221 0.101935684680938721
0.370819836854934692 -0.373087018728256226 -0.213513657450675964
0.437995731830596924 -0.347342431545257568 0.153688862919807434
0.0579276531934738159 0.121906451880931854 0.320618808269500732
-0.574842870235443115 0.369490653276443481 0.215009957551956177
0.264177203178405762 0.0252478867769241333 -0.0593475177884101868
0.367997944355010986 -0.336138427257537842 0.160018861293792725
0.510265648365020752 -0.300667375326156616 -0.112411618232727051
0.133389458060264587 -0.31985744833946228 -0.0984645187854766846
0.516379415988922119 -0.347863495349884033 -0.0207174979150295258
0.388881385326385498 -0.345695465803146362 -0.214910790324211121
-0.57726442813873291 0.319827497005462646 0.0404670760035514832
0.535894572734832764 -0.277139395475387573 -0.321044027805328369
0.467691719532012939 -0.310131251811981201 -0.299877762794494629
0.506893336772918701 -0.346224725246429443 0.0176236610859632492
-0.556431829929351807 0.310456633567810059 0.101581111550331116
0.193709149956703186 -0.338745385408401489 -0.0597758740186691284
0.0699562430381774902 -0.281592339277267456 -0.0783681273460388184
0.252051234245300293 -0.249656423926353455 0.319689661264419556
0.239437013864517212 0.0316413193941116333 0.3163185715675354
-0.121848329901695251 -0.0471460595726966858 0.00781033933162689209
0.178165540099143982 -0.0996332764625549316 -0.0153163671493530273
0.532244086265563965 -0.331364870071411133 -0.0135994832962751389
0.369801431894302368 -0.34859001636505127 -0.20983460545539856
0.534523487091064453 -0.245127558708190918 0.176701292395591736
0.561029136180877686 -0.314991474151611328 -0.331329911947250366
0.553951740264892578 -0.211049020290374756 0.133710280060768127
-0.543926537036895752 0.381529241800308228 0.163868039846420288
0.123513989150524139 0.117599956691265106 0.132833316922187805
-0.582464754581451416 0.352633476257324219 0.0972654223442077637
-0.482450604438781738 0.186650797724723816 -0.0921990871429443359
0.515401721000671387 -0.338306277990341187 0.0384425371885299683
0.253264904022216797 -0.278536796569824219 0.321580052375793457
0.277716964483261108 -0.355087727308273315 -0.126748636364936829
0.507727980613708496 -0.285856246948242188 -0.314245671033859253
-0.43220973014831543 -0.0565778240561485291 0.116261482238769531
0.20135381817817688 0.0910468250513076782 0.222679585218429565
0.243856132030487061 0.105118654668331146 -0.058072701096534729
-0.196057170629501343 0.20218321681022644 0.348496705293655396
0.24994698166847229 0.0256377477198839188 0.322720825672149658
0.239325344562530518 0.0197433922439813614 0.320548266172409058
-0.0312934666872024536 0.163537830114364624 0.382333099842071533
-0.483133882284164429 -0.0149617381393909454 0.179533779621124268
0.483531296253204346 -0.368421971797943115 0.0455019138753414154
-0.643713831901550293 0.287702411413192749 0.0860477089881896973
0.275787472724914551 -0.165332943201065063 -0.0711630880832672119
-0.412595421075820923 -0.0562031939625740051 0.0782140344381332397
-0.643130779266357422 0.176026672124862671 -0.082212202250957489
-0.226239457726478577 -0.133375108242034912 -0.0528302155435085297
0.254593580961227417 -0.264976710081100464 0.320701241493225098
-0.34612765908241272 0.0179112367331981659 -0.117594718933105469
-0.287984490394592285 -0.0906759798526763916 -0.106877744197845459
-0.585599422454833984 0.21027924120426178 -0.218523681163787842
0.267148703336715698 -0.296402335166931152 0.314713358879089355
-0.0263130031526088715 -0.186665341258049011 -0.043999694287776947
-0.618271887302398682 0.277508556842803955 0.0311181917786598206
-0.60879814624786377 0.298733174800872803 0.0920806825160980225
-0.397908031940460205 -0.0622433722019195557 0.118680864572525024
-0.452019035816192627 -0.0374743230640888214 0.119051493704319
0.430976003408432007 -0.271085947751998901 0.328638523817062378
-0.0527653209865093231 0.141318976879119873 0.0912761539220809937
-0.503751873970031738 0.151820912957191467 0.354772388935089111
0.240538507699966431 -0.318693548440933228 0.322375059127807617
0.497032999992370605 -0.370285302400588989 0.0568950474262237549
0.398998171091079712 -0.256157726049423218 0.321982592344284058
-0.158672988414764404 -0.262967973947525024 0.180803656578063965
-0.499739944934844971 0.0146734863519668579 0.15735974907875061
0.417458176612854004 -0.29663732647895813 0.328177720308303833
0.535358309745788574 -0.33946564793586731 -0.0188540313392877579
0.343653589487075806 -0.266731172800064087 -0.128702878952026367
-0.496771752834320068 0.0724221616983413696 0.203163102269172668
0.443448871374130249 -0.271517843008041382 0.333032220602035522
0.522170007228851318 -0.334684610366821289 0.0323801301419734955
0.453226536512374878 -0.319157719612121582 -0.293593227863311768
0.473813742399215698 -0.310980349779129028 0.116384968161582947
0.517115473747253418 -0.277759343385696411 -0.313360005617141724
0.502527415752410889 -0.325375586748123169 -0.314979285001754761
0.517883896827697754 -0.326319783926010132 0.101634547114372253
0.479292124509811401 -0.310773909091949463 -0.302753031253814697
0.114205613732337952 0.119114190340042114 0.288427054882049561
-0.122496426105499268 0.269248455762863159 0.158098340034484863
-0.614908337593078613 0.265865534543991089 0.0516197606921195984
-0.479977011680603027 0.0036270548589527607 0.180616766214370728
0.426238715648651123 -0.354510903358459473 0.158049836754798889
-0.293008387088775635 -0.109772168099880219 -0.106110095977783203
0.130506783723831177 0.0661290809512138367 0.320525944232940674
0.252848893404006958 0.0393273383378982544 -0.0784956514835357666
0.235044017434120178 0.0945120155811309814 -0.0538575015962123871
0.417186707258224487 -0.260890305042266846 -0.202970892190933228
0.521403729915618896 -0.353769063949584961 -0.0196032561361789703
-0.609170734882354736 0.381623327732086182 0.180874481797218323
0.517499804496765137 -0.278679907321929932 -0.315294146537780762
0.49886167049407959 -0.349413603544235229 0.0236495193094015121
-0.588012576103210449 0.369922220706939697 0.112809211015701294
0.505241930484771729 -0.104192540049552917 0.146865099668502808
-0.198241382837295532 0.311989158391952515 0.112404070794582367
0.263791203498840332 -0.286009222269058228 0.319275975227355957
0.236741065979003906 0.0627886131405830383 0.309831023216247559
-0.145179718732833862 -0.0430952087044715881 0.00372866448014974594
-0.657646894454956055 0.214967489242553711 -0.0464767143130302429
-0.289092510938644409 -0.0756026953458786011 -0.0692609697580337524
0.226719170808792114 0.0426711440086364746 -0.048907838761806488
0.550986289978027344 -0.143869265913963318 0.131809592247009277
0.519558906555175781 -0.29465678334236145 0.0743888616561889648
0.517267882823944092 -0.2834320068359375 -0.181499630212783813
-0.358548164367675781 -0.0165776163339614868 -0.0284524485468864441
0.0908565223217010498 0.0887044370174407959 0.0852718278765678406
0.466435164213180542 -0.361260026693344116 -0.0112805990502238274
-0.433146566152572632 0.158139809966087341 -0.0668463259935379028
0.523708581924438477 -0.33493003249168396 0.0685688406229019165
0.262678682804107666 -0.285378754138946533 0.317956715822219849
0.00897418707609176636 -0.0906646251678466797 -0.0265350211411714554
0.0322348885238170624 -0.130094066262245178 0.021403726190328598
-0.631247282028198242 0.2654876708984375 0.028852805495262146
0.241803944110870361 0.0750503689050674438 0.318093568086624146
0.239714965224266052 0.0302209537476301193 0.318362116813659668
-0.175189584493637085 0.301297128200531006 0.11577354371547699
0.303903907537460327 -0.150758445262908936 0.307535022497177124
0.261689454317092896 -0.290168285369873047 0.320501238107681274
-0.476753890514373779 -0.00755394622683525085 0.165863096714019775
0.242458224296569824 0.0823609009385108948 0.311564505100250244
0.520103693008422852 -0.350683122873306274 0.0813873857259750366
-0.0354822166264057159 -0.23718242347240448 0.12337164580821991
-0.638252019882202148 0.290491789579391479 0.0987077951431274414
-0.234911620616912842 -0.132230952382087708 -0.0585935190320014954
-0.379492819309234619 -0.108180105686187744 0.105036795139312744
-0.236747622489929199 -0.147336497902870178 -0.0584166720509529114
-0.657798409461975098 0.214667543768882751 -0.0339668989181518555
0.528676092624664307 -0.352083563804626465 0.077366262674331665
-0.621248602867126465 0.270723491907119751 0.0521682798862457275
-0.404362112283706665 -0.0637366697192192078 0.111917674541473389
-0.446821600198745728 -0.0408158674836158752 0.121497035026550293
0.267546504735946655 -0.285062223672866821 0.32314494252204895
0.127667158842086792 -0.326152145862579346 0.31192171573638916
0.152381390333175659 -0.342688500881195068 0.317189007997512817
0.447595298290252686 -0.334951072931289673 -0.293625086545944214
0.515713989734649658 -0.302245974540710449 -0.108306944370269775
0.515137672424316406 -0.279647529125213623 -0.313369184732437134
0.484725028276443481 -0.32704395055770874 -0.310351550579071045
0.464081168174743652 -0.3452492356300354 -0.303229153156280518
0.548978507518768311 -0.209690332412719727 -0.316100537776947021
0.524117946624755859 -0.299416899681091309 -0.322890758514404297
0.518009662628173828 -0.300252407789230347 -0.318952888250350952
0.246568739414215088 0.0576528795063495636 0.315829068422317505
0.240997284650802612 0.0881650000810623169 0.312059402465820312
-0.292634159326553345 -0.0997653678059577942 -0.102332606911659241
-0.453764647245407104 -0.0511866062879562378 0.116870984435081482
0.404419422149658203 -0.271555572748184204 0.322112798690795898
-0.503116130828857422 0.00435452628880739212 0.18836328387260437
0.400782078504562378 -0.286579936742782593 0.324456006288528442
0.398766696453094482 -0.272832989692687988 0.322938740253448486
0.341463655233383179 -0.258378744125366211 0.0893854424357414246
-0.0193557757884263992 -0.244002401828765869 0.128238916397094727
-0.465357452630996704 0.0364375188946723938 0.18858635425567627
-0.194959864020347595 0.222295194864273071 0.171340405941009521
0.36622929573059082 -0.328638464212417603 -0.0240077357739210129
0.322742670774459839 -0.389313936233520508 -0.159774690866470337
0.535396218299865723 -0.322916388511657715 -0.0587392672896385193
-0.442522436380386353 -0.00386599078774452209 0.152343317866325378
-0.0195911936461925507 -0.0590522140264511108 0.141216859221458435
-0.000990251079201698303 -0.235724195837974548 0.10576360672712326
0.525764524936676025 -0.201102897524833679 -0.0802927166223526001
0.449574381113052368 -0.307644248008728027 -0.293499767780303955
