ply
format ascii 1.0
element vertex 738
property float x
property float y
property float z
end_header
0.482171177864074707 -0.115493789315223694 0.0231203660368919373
0.120694354176521301 0.0802433788776397705 0.138437271118164062
-0.382984310388565063 -0.0718191638588905334 0.0948934555053710938
0.318356633186340332 -0.0714736059308052063 0.0622235722839832306
-0.441395968198776245 -0.0110892485827207565 0.00626710336655378342
-0.503575444221496582 0.23425234854221344 -0.0716769769787788391
-0.548597097396850586 0.204171285033226013 -0.0687854364514350891
0.0873723477125167847 0.092013627290725708 0.0794523507356643677
-0.521422684192657471 0.20531366765499115 -0.0478439703583717346
-0.16931973397731781 0.0728679820895195007 0.232031449675559998
-0.0584256574511528015 -0.186328083276748657 0.0264947842806577682
-0.21348920464515686 0.291365742683410645 0.108501054346561432
0.248568251729011536 -0.00468059629201889038 0.0220503490418195724
-0.55684274435043335 0.205104947090148926 0.117899179458618164
-0.458862781524658203 0.217030942440032959 0.0239476598799228668
-0.463908612728118896 0.266954571008682251 -0.00336345238611102104
-0.576019048690795898 0.24812626838684082 -0.0769836008548736572
-0.390477240085601807 0.275737345218658447 -0.0845988243818283081
0.3428955078125 -0.13393343985080719 0.318745076656341553
-0.500124871730804443 0.207457900047302246 -0.0122550539672374725
-0.34707409143447876 0.293358057737350464 -0.0506557188928127289
0.525661289691925049 -0.360390961170196533 0.0412461869418621063
-0.541212975978851318 0.215906292200088501 0.200391218066215515
-0.570069968700408936 0.294879913330078125 -0.00364570505917072296
0.315276920795440674 0.0243680756539106369 0.0482646264135837555
0.481892615556716919 -0.306327164173126221 -0.304244786500930786
0.478704243898391724 -0.32568708062171936 0.124916493892669678
0.52303004264831543 -0.306280523538589478 -0.0990000292658805847
0.49017670750617981 -0.309981375932693481 -0.307790547609329224
0.515733838081359863 -0.324294716119766235 0.119574502110481262
0.444037318229675293 -0.299489378929138184 -0.29125639796257019
0.522886812686920166 -0.303873509168624878 -0.0977089554071426392
0.133313089609146118 0.116657979786396027 0.336774319410324097
-0.643030941486358643 0.2430228590965271 -0.00958399474620819092
-0.293924003839492798 -0.113033987581729889 -0.106408268213272095
0.538796544075012207 -0.254702150821685791 0.091733492910861969
0.128298968076705933 0.0981125906109809875 0.316989868879318237
-0.236387044191360474 -0.142923623323440552 -0.0721395835280418396
0.250908404588699341 0.0307033807039260864 -0.0864629447460174561
0.530721306800842285 -0.3224659264087677 0.00641926843672990799
-0.59971696138381958 0.307809889316558838 0.104177288711071014
0.531583189964294434 -0.243978261947631836 0.0862265452742576599
-0.375128656625747681 -0.0601629875600337982 0.0917485207319259644
0.526215195655822754 -0.274603545665740967 -0.123596429824829102
-0.502353012561798096 0.149192094802856445 0.35225754976272583
0.383976191282272339 -0.297008782625198364 0.13120625913143158
0.131757780909538269 -0.331589996814727783 -0.101004332304000854
0.522257030010223389 -0.354067772626876831 -0.015182841569185257
-0.437563538551330566 0.151237085461616516 -0.0857194513082504272
0.515273988246917725 -0.299479693174362183 0.0644058436155319214
0.392379015684127808 -0.366986781358718872 -0.21428382396697998
0.499307453632354736 -0.170740216970443726 0.130074679851531982
0.532989621162414551 -0.33344036340713501 0.0280292220413684845
-0.580324232578277588 0.349202573299407959 0.0398667529225349426
0.519791245460510254 -0.24035923182964325 -0.309297084808349609
-0.601120233535766602 0.371021479368209839 0.104300349950790405
-0.501848280429840088 0.147622212767601013 0.354544878005981445
0.233058065176010132 -0.277326732873916626 0.31677776575088501
-0.182589471340179443 -0.136411353945732117 -0.0562642030417919159
-0.229588702321052551 -0.137271702289581299 -0.0541586019098758698
-0.205223783850669861 0.29890596866607666 0.125945702195167542
0.261773347854614258 -0.289067000150680542 0.32348167896270752
-0.363696396350860596 -0.0297476109117269516 0.118676424026489258
-0.501382231712341309 0.0198867470026016235 0.0310802888125181198
0.241836696863174438 0.000860900618135929108 0.322010844945907593
0.140679687261581421 -0.289935886859893799 0.311464309692382812
0.306297212839126587 -0.206912413239479065 0.248360097408294678
-0.387726664543151855 0.255754709243774414 0.0339659862220287323
0.530664503574371338 -0.261582285165786743 0.1026601642370224
0.222628340125083923 0.023253321647644043 0.305118858814239502
0.530434370040893555 -0.146610230207443237 -0.30850672721862793
-0.645410537719726562 0.231736257672309875 -0.0477967746555805206
0.540967285633087158 -0.310243606567382812 -0.0448249839246273041
0.507605016231536865 -0.267116308212280273 -0.312037855386734009
0.514129042625427246 -0.315436601638793945 -0.295510232448577881
0.458365172147750854 -0.290186256170272827 -0.297217130661010742
-0.543550014495849609 0.268549084663391113 -0.189818412065505981
-0.622054159641265869 0.289306849241256714 0.0663022845983505249
0.362897336483001709 -0.383201181888580322 -0.206617951393127441
-0.0931276977062225342 0.267798900604248047 0.188744217157363892
-0.448715031147003174 0.131631866097450256 -0.209497720003128052
-0.576316475868225098 0.204272210597991943 -0.127365902066230774
-0.63069075345993042 0.191988080739974976 -0.0402324646711349487
-0.470525473356246948 0.139547973871231079 -0.231721013784408569
0.256677776575088501 -0.0164316426962614059 -0.0726136714220046997
0.229721397161483765 0.0542240291833877563 -0.0456654205918312073
0.11174437403678894 0.110310442745685577 0.301387369632720947
-0.58466649055480957 0.218807071447372437 -0.221809521317481995
-0.598569273948669434 0.235635623335838318 -0.0112432204186916351
-0.368471771478652954 -0.0909746289253234863 0.121985927224159241
-0.331245362758636475 -0.124657928943634033 0.136402517557144165
-0.635067939758300781 0.199877917766571045 -0.0385353043675422668
-0.426625370979309082 -0.0541503950953483582 0.0984762683510780334
-0.479454696178436279 0.0207224823534488678 -0.0372600406408309937
0.207149744033813477 0.00913940835744142532 0.300538748502731323
-0.634939670562744141 0.248510465025901794 -0.00612958148121833801
-0.129103913903236389 0.270521342754364014 0.131525278091430664
0.269813597202301025 -0.32974514365196228 0.179786607623100281
0.532571017742156982 -0.209369942545890808 -0.0992238149046897888
-0.12785261869430542 -0.111816577613353729 -0.0549845285713672638
0.453788161277770996 -0.33803027868270874 -0.298661857843399048
-0.214084193110466003 0.036764189600944519 -0.0602854229509830475
-0.554277896881103516 0.176430583000183105 0.0123427370563149452
-0.199793905019760132 0.139872282743453979 0.020540652796626091
-0.013640083372592926 -0.102052405476570129 -0.0435232669115066528
0.2633991539478302 -0.274197936058044434 0.202197954058647156
0.347652971744537354 -0.320283621549606323 -0.00062679266557097435
-0.157398879528045654 0.0703905224800109863 0.0272234231233596802
-0.250420689582824707 0.131377443671226501 -0.0349611192941665649
0.198336929082870483 0.00232447311282157898 0.0187969692051410675
0.0755181610584259033 0.0813107788562774658 0.0236358866095542908
-0.284544378519058228 0.288928776979446411 -0.00654779467731714249
0.476678639650344849 -0.289073258638381958 -0.3022938072681427
-0.557737350463867188 0.266346395015716553 -0.0178584177047014236
-0.238652899861335754 0.0981998369097709656 -0.0327370278537273407
0.136532485485076904 -0.280193328857421875 0.149479761719703674
0.294939756393432617 -0.29644736647605896 0.0564588867127895355
-0.287079095840454102 0.257829278707504272 0.000156183261424303055
-0.0223498065024614334 -0.0398661792278289795 0.0892470031976699829
0.203462913632392883 0.0431538708508014679 0.0651817172765731812
-0.145160466432571411 -0.0844760909676551819 0.0912677422165870667
0.371834993362426758 -0.0725979655981063843 0.0313250795006752014
0.520879089832305908 -0.198375210165977478 -0.0989603251218795776
0.486847281455993652 -0.296981245279312134 -0.30586475133895874
0.47947654128074646 -0.314225971698760986 0.121864750981330872
0.513201773166656494 -0.306393533945083618 -0.102835521101951599
0.495894551277160645 -0.308601737022399902 -0.310089826583862305
0.505342066287994385 -0.327323734760284424 -0.00424912106245756149
0.51119530200958252 -0.32380327582359314 0.118058308959007263
0.465233445167541504 -0.288096159696578979 -0.297395706176757812
0.437701880931854248 -0.262568771839141846 -0.194818943738937378
0.134115442633628845 0.117380082607269287 0.33670729398727417
0.395537853240966797 -0.243643060326576233 0.318567782640457153
-0.601762831211090088 0.354603230953216553 0.0652036517858505249
-0.505999445915222168 0.357850700616836548 0.177628546953201294
0.542244672775268555 -0.281591802835464478 0.0975198447704315186
0.255128324031829834 0.0376246944069862366 -0.0726921409368515015
-0.234559193253517151 0.156388059258460999 -0.00582755729556083679
0.505323171615600586 -0.331411063671112061 -0.00253127980977296829
0.44428446888923645 -0.249343842267990112 -0.228599101305007935
-0.639833152294158936 0.255014032125473022 0.0543200187385082245
0.532196760177612305 -0.261903584003448486 0.0928457751870155334
-0.394132554531097412 -0.0585440956056118011 0.0997186079621315002
0.523320317268371582 -0.288850307464599609 -0.092604219913482666
0.0268017202615737915 -0.27344551682472229 -0.0359503813087940216
0.384226530790328979 -0.305260628461837769 0.118319645524024963
-0.582891762256622314 0.367358297109603882 0.131227701902389526
0.238627701997756958 0.00404085265472531319 0.180306613445281982
-0.114488743245601654 0.166069954633712769 0.347262769937515259
0.481423616409301758 -0.367639243602752686 -0.0225637964904308319
0.411445587873458862 -0.320464938879013062 -0.211815908551216125
0.506262123584747314 -0.154663771390914917 0.123851299285888672
0.528580307960510254 -0.334007591009140015 0.0121593903750181198
-0.584897875785827637 0.336885690689086914 0.0336204469203948975
-0.591491997241973877 0.382418274879455566 0.130760595202445984
0.526227772235870361 -0.243695393204689026 -0.31104809045791626
0.473923802375793457 -0.290007144212722778 -0.300103873014450073
-0.597736954689025879 0.354206740856170654 0.169232815504074097
-0.588013350963592529 0.372015148401260376 0.100682124495506287
-0.213632881641387939 -0.128702864050865173 -0.0582574047148227692
0.233409196138381958 -0.292430460453033447 0.314502596855163574
0.236975491046905518 0.0679287686944007874 0.319747775793075562
0.541487276554107666 -0.313012540340423584 -0.058511342853307724
-0.445994675159454346 -0.0476821549236774445 0.126140058040618896
0.358859360218048096 -0.387408196926116943 -0.209728226065635681
-0.557778596878051758 0.211865752935409546 -0.114264428615570068
0.520733535289764404 -0.278675675392150879 -0.177601367235183716
0.240668207406997681 0.0354157239198684692 0.314231991767883301
0.241493508219718933 0.00140115711838006973 0.0232860762625932693
0.379486441612243652 0.0397114232182502747 0.0112846968695521355
0.526755094528198242 -0.230000585317611694 -0.310535907745361328
0.325603663921356201 0.0969598591327667236 -0.0367553755640983582
-0.37521052360534668 -0.0595486089587211609 -0.133621454238891602
0.511745095252990723 -0.166651606559753418 0.135768041014671326
-0.575282037258148193 0.322586327791213989 0.0491042919456958771
-0.559915781021118164 0.284072607755661011 0.363602876663208008
0.223068743944168091 0.0326092690229415894 -0.0587140843272209167
-0.575029134750366211 0.215222269296646118 -0.221631795167922974
-0.0456931255757808685 0.157151997089385986 0.0805827230215072632
0.113084256649017334 0.110520660877227783 0.0250271577388048172
0.341682553291320801 -0.246128037571907043 -0.0970612764358520508
-0.28621363639831543 0.300940573215484619 -0.00327930133789777756
0.152200713753700256 -0.00392468459904193878 -0.0038599865511059761
0.0681894123554229736 0.139305651187896729 0.0751080065965652466
-0.271131902933120728 0.280880928039550781 0.000924021238461136818
0.50283050537109375 -0.291826158761978149 -0.159916356205940247
0.135761722922325134 -0.0251671243458986282 0.0124806864187121391
-0.340661585330963135 -0.0313064604997634888 0.0219531618058681488
0.372596681118011475 -0.091180264949798584 0.0439037010073661804
0.199000716209411621 0.101615406572818756 -0.0022896546870470047
-0.298808842897415161 -0.0242582149803638458 0.0354546457529067993
0.1302909255027771 -0.0170640647411346436 -0.0264283549040555954
0.100292064249515533 0.0166599880903959274 0.0909833014011383057
0.174936145544052124 0.119769275188446045 0.0376723185181617737
-0.231873899698257446 -0.0629124864935874939 0.104026481509208679
0.48579135537147522 -0.295844316482543945 -0.304167419672012329
-0.603905320167541504 0.290232598781585693 0.184807658195495605
0.466219007968902588 -0.308122605085372925 0.119672387838363647
0.377139002084732056 -0.0136581063270568848 0.00578940426930785179
0.513881683349609375 -0.294611841440200806 -0.104109957814216614
0.51858818531036377 -0.239143401384353638 -0.308331042528152466
0.477483183145523071 -0.309069395065307617 -0.30100095272064209
0.483105361461639404 -0.273827672004699707 -0.300565361976623535
0.115615256130695343 0.119234487414360046 0.297277092933654785
-0.584531784057617188 0.356719017028808594 0.0653475299477577209
0.382554441690444946 -0.336683720350265503 0.124926544725894928
-0.574967920780181885 0.318091452121734619 -0.0269899554550647736
-0.605413675308227539 0.217485576868057251 -0.0873816609382629395
0.266354620456695557 0.0399681255221366882 -0.0870598107576370239
-0.358026474714279175 -0.0214009098708629608 -0.131915286183357239
-0.565399527549743652 0.314862608909606934 -0.00848842039704322815
0.189426824450492859 -0.34033280611038208 -0.075323835015296936
0.403353661298751831 -0.356573551893234253 -0.224830269813537598
-0.501649916172027588 0.146213173866271973 0.35387912392616272
0.50863569974899292 -0.150646716356277466 0.114853605628013611
0.496322184801101685 -0.2633475661277771 -0.305132627487182617
0.457396626472473145 -0.280127137899398804 -0.290466487407684326
0.440324187278747559 -0.264404058456420898 -0.284346908330917358
-0.588376998901367188 0.357802897691726685 0.0613580457866191864
0.504388689994812012 -0.125912830233573914 0.123907692730426788
-0.207258373498916626 0.313107788562774658 0.10816694051027298
0.267091482877731323 -0.283365160226821899 0.318753451108932495
0.231442779302597046 0.00432289391756057739 0.317407339811325073
0.513002634048461914 -0.174878135323524475 -0.282139360904693604
-0.116602852940559387 0.010541846975684166 0.00551077118143439293
0.403311759233474731 -0.358690798282623291 -0.225438177585601807
0.416583657264709473 -0.31264922022819519 0.143314629793167114
-0.556530475616455078 0.377093732357025146 0.185917869210243225
-0.176757693290710449 0.309797883033752441 0.117919921875
-0.390972822904586792 0.276666492223739624 -0.0856547355651855469
0.364276140928268433 0.0525097623467445374 0.0239859018474817276
0.128285631537437439 0.116114959120750427 0.318184912204742432
-0.288129657506942749 -0.0997672080993652344 -0.0928780138492584229
0.256836771965026855 0.101710468530654907 -0.0625730603933334351
-0.362585484981536865 -0.0590224266052246094 -0.144969046115875244
0.133037328720092773 0.114091619849205017 0.337410181760787964
-0.56383126974105835 0.199744835495948792 -0.229560837149620056
-0.277381956577301025 0.288538455963134766 -0.00171001162379980087
0.454377859830856323 -0.245779827237129211 -0.288990408182144165
0.459744274616241455 -0.27466389536857605 -0.291490465402603149
-0.635516226291656494 0.308626115322113037 0.169886320829391479
0.511790871620178223 -0.31669926643371582 -0.0390580631792545319
0.468374192714691162 -0.265258848667144775 -0.298670709133148193
0.477489113807678223 -0.294389724731445312 -0.30096086859703064
0.457637906074523926 -0.245606452226638794 -0.2903575599193573
0.380370199680328369 -0.36019858717918396 -0.214835003018379211
-0.480918824672698975 -0.0119004864245653152 0.184890493750572205
-0.517586648464202881 0.366491198539733887 0.173184126615524292
-0.619470357894897461 0.202564716339111328 -0.0876035690307617188
-0.238459810614585876 0.0192288793623447418 -0.0729336589574813843
-0.383783131837844849 -0.0582862049341201782 0.0231056474149227142
0.474244028329849243 -0.36772996187210083 0.0214075818657875061
-0.64988553524017334 0.237186908721923828 0.0319642908871173859
0.411883741617202759 -0.345818430185317993 -0.222563177347183228
0.525394082069396973 -0.336640208959579468 0.0794937610626220703
0.505665957927703857 -0.238480627536773682 -0.308643102645874023
0.248641341924667358 -0.281485289335250854 0.317950308322906494
0.238025262951850891 0.06719207763671875 0.314311563968658447
0.539290070533752441 -0.301188737154006958 -0.0940916389226913452
-0.449515998363494873 -0.0407291576266288757 0.125455811619758606
-0.0451172702014446259 0.104957893490791321 0.317356318235397339
0.246623426675796509 0.0217273533344268799 0.321902275085449219
-0.28627854585647583 -0.0988665670156478882 -0.0998610630631446838
-0.139394640922546387 -0.0146572105586528778 -0.0494740977883338928
-0.278559446334838867 0.338298797607421875 0.0465345755219459534
-0.255515456199645996 0.290317684412002563 -0.00393475964665412903
-0.220021054148674011 0.322408527135848999 0.069103732705116272
-0.574292182922363281 0.152843087911605835 -0.0751717537641525269
-0.291318595409393311 0.293310225009918213 0.0154888695105910301
0.525149345397949219 -0.319895178079605103 0.0268329251557588577
0.344991564750671387 -0.0297872442752122879 -0.03507276251912117
0.521813035011291504 -0.362240731716156006 0.0889315381646156311
-0.0846991688013076782 -0.111376471817493439 0.0782155916094779968
-0.405111372470855713 0.326868802309036255 0.120566144585609436
0.50410616397857666 -0.366627961397171021 -0.00497361272573471069
-0.119766168296337128 0.266698896884918213 0.120255321264266968
0.518192827701568604 -0.342325210571289062 0.035357404500246048
0.129024490714073181 -0.334052383899688721 0.300879627466201782
0.466018795967102051 -0.310360163450241089 0.0720598846673965454
0.482310563325881958 -0.373452037572860718 0.0518226809799671173
0.420303046703338623 -0.0252640172839164734 0.0641699284315109253
0.493443161249160767 -0.362931728363037109 -0.0160827469080686569
-0.233930319547653198 0.28763309121131897 0.0834743306040763855
0.530882179737091064 -0.33107033371925354 -0.00777652766555547714
-0.272944748401641846 0.315999150276184082 0.113435566425323486
0.307242155075073242 0.00330828828737139702 0.0456331372261047363
0.466734707355499268 -0.262846052646636963 -0.296804308891296387
0.472863167524337769 -0.303613364696502686 0.113821640610694885
0.51067352294921875 -0.312840282917022705 -0.104870595037937164
0.509087562561035156 -0.244735300540924072 -0.308860510587692261
0.447373479604721069 -0.291814208030700684 -0.293460041284561157
0.465750336647033691 -0.282741934061050415 -0.298209935426712036
0.137312114238739014 0.113263159990310669 0.336184322834014893
-0.652621269226074219 0.286268711090087891 0.0977071076631546021
-0.639182567596435547 0.245304420590400696 -0.038509707897901535
0.13540533185005188 0.0697892084717750549 0.337565034627914429
-0.577943325042724609 0.304329186677932739 -0.0560739152133464813
0.261433899402618408 0.0310056060552597046 -0.0743134170770645142
0.54134601354598999 -0.215945422649383545 0.111385256052017212
-0.361461669206619263 -0.0350773409008979797 -0.135092347860336304
-0.575449526309967041 0.327919930219650269 -0.0300447829067707062
-0.36330103874206543 -0.0701906979084014893 -0.0347707644104957581
-0.131768405437469482 -0.266931414604187012 0.118410751223564148
0.494360566139221191 -0.365381509065628052 -0.000763499177992343903
0.37303614616394043 -0.358482062816619873 -0.210986301302909851
-0.37941586971282959 -0.106184646487236023 0.100597046315670013
-0.0683118477463722229 -0.263641655445098877 0.29577973484992981
0.51974862813949585 -0.242643982172012329 -0.309896111488342285
0.508907914161682129 -0.33003610372543335 0.0148232476785778999
-0.594039201736450195 0.369617223739624023 0.120186701416969299
-0.65593332052230835 0.176117032766342163 -0.103355422616004944
-0.22423204779624939 -0.143517330288887024 -0.0545687898993492126
-0.19213692843914032 0.317248404026031494 0.100015982985496521
0.25577959418296814 -0.282863616943359375 0.319263577461242676
0.238014906644821167 0.032932087779045105 0.318760335445404053
-0.121157042682170868 -0.0456481501460075378 0.00723645742982625961
-0.641917109489440918 0.30906108021736145 0.101664833724498749
0.364168137311935425 -0.372921466827392578 -0.207665294408798218
0.536932706832885742 -0.216890454292297363 0.16154266893863678
-0.554020166397094727 0.383145272731781006 0.157425969839096069
-0.123663775622844696 0.260003030300140381 0.114384636282920837
0.11887417733669281 0.102840803563594818 0.0888719335198402405
-0.376726686954498291 0.266524970531463623 -0.0903800278902053833
0.5164681077003479 -0.348532646894454956 0.0981597006320953369
-0.29488450288772583 -0.106307923793792725 -0.110068410634994507
0.273532092571258545 0.103661730885505676 -0.0583727173507213593
-0.575841724872589111 0.220125779509544373 -0.21314537525177002
-0.116572298109531403 0.269257873296737671 0.179192274808883667
0.235150575637817383 -0.287408918142318726 0.313809841871261597
0.308638423681259155 -0.18670964241027832 0.241118371486663818
0.541478991508483887 -0.325124531984329224 -0.0213681645691394806
0.0778664946556091309 -0.337214231491088867 0.281936585903167725
-0.00755305308848619461 -0.171323269605636597 0.00364986504428088665
-0.283420801162719727 0.262356042861938477 0.00645894184708595276
0.513061642646789551 -0.236526966094970703 -0.309888094663619995
-0.647693276405334473 0.278790324926376343 0.0791446268558502197
-0.647124290466308594 0.183699876070022583 -0.0911075547337532043
0.513573348522186279 -0.321821123361587524 0.023854333907365799
-0.407842397689819336 -0.0628320500254631042 0.113125234842300415
0.516237437725067139 -0.354965090751647949 -0.0211885441094636917
-0.567558944225311279 0.374947458505630493 0.151762053370475769
0.234696671366691589 0.0437351055443286896 0.313306242227554321
-0.665382623672485352 0.227705508470535278 0.0228920150548219681
-0.449894189834594727 -0.037812449038028717 0.125997036695480347
0.502651691436767578 -0.301337867975234985 -0.179336264729499817
-0.589697897434234619 0.361667484045028687 0.0856154933571815491
-0.195015788078308105 0.315430730581283569 0.104183226823806763
0.24569469690322876 0.02463565394282341 0.323455870151519775
0.530443251132965088 -0.32309684157371521 -0.0586685426533222198
-0.184135705232620239 0.307776004076004028 0.127621114253997803
0.245953470468521118 0.00776382163166999817 0.323547124862670898
0.05752529576420784 0.140249595046043396 0.345352381467819214
-0.50712054967880249 0.149983346462249756 0.356051981449127197
0.26939043402671814 -0.310608208179473877 0.326004266738891602
-0.255370438098907471 0.0242622606456279755 -0.0712802782654762268
0.240063697099685669 -0.294742017984390259 0.322134315967559814
0.247914165258407593 0.0444868430495262146 0.313913404941558838
0.467407882213592529 -0.101260572671890259 0.0340781062841415405
-0.125840291380882263 0.195763453841209412 0.114769265055656433
0.238968968391418457 -0.326100826263427734 0.317336022853851318
0.499654322862625122 -0.366130411624908447 0.0741554275155067444
0.523014843463897705 -0.323996454477310181 0.0257919598370790482
0.444000780582427979 -0.252468854188919067 0.332031667232513428
0.319948166608810425 -0.130691438913345337 -0.107232004404067993
0.0620454475283622742 -0.0100672151893377304 0.321383535861968994
0.510905683040618896 -0.360368788242340088 0.0467102006077766418
0.13448469340801239 -0.100288644433021545 0.0400083847343921661
0.0481956936419010162 0.0119649264961481094 0.0292272064834833145
0.01926422119140625 0.0486238338053226471 0.0419429093599319458
0.086636565625667572 -0.065419413149356842 0.289568483829498291
-0.16316734254360199 -0.265295803546905518 0.147271335124969482
0.264256298542022705 -0.0195375885814428329 0.0610880069434642792
-0.0303962491452693939 -0.0284725949168205261 0.295378744602203369
0.501880228519439697 -0.239778637886047363 -0.30247768759727478
0.475659966468811035 -0.314162403345108032 -0.30247005820274353
-0.63157355785369873 0.306743651628494263 0.166906297206878662
0.47452893853187561 -0.320189565420150757 0.120461359620094299
0.508633434772491455 -0.300069630146026611 -0.105954937636852264
0.528245151042938232 -0.274099081754684448 -0.317719519138336182
0.493345916271209717 -0.331853210926055908 -0.311364680528640747
0.502633750438690186 -0.319459080696105957 0.097428247332572937
0.47369849681854248 -0.30511048436164856 -0.29878273606300354
-0.560139894485473633 0.26876029372215271 0.363858282566070557
0.123959124088287354 0.117302238941192627 0.313518822193145752
-0.634250462055206299 0.282775193452835083 0.0539759173989295959
-0.587830007076263428 0.363484561443328857 0.102024689316749573
0.370680063962936401 -0.373152643442153931 -0.213425949215888977
0.437764883041381836 -0.347546756267547607 0.153751179575920105
0.0569465570151805878 0.121937498450279236 0.320681154727935791
-0.574754416942596436 0.369199275970458984 0.21503978967666626
0.263790220022201538 0.0250830017030239105 -0.0590857379138469696
0.367569386959075928 -0.336377352476119995 0.160065338015556335
0.510100245475769043 -0.300764560699462891 -0.112459972500801086
0.132728934288024902 -0.320221215486526489 -0.0985267385840415955
0.516010165214538574 -0.348131448030471802 -0.0209014527499675751
0.388590127229690552 -0.345723450183868408 -0.214786455035209656
-0.577569484710693359 0.319604754447937012 0.0403479374945163727
0.536232709884643555 -0.277057796716690063 -0.321088463068008423
0.46743360161781311 -0.310267150402069092 -0.299845606088638306
0.506630361080169678 -0.346487939357757568 0.0174340624362230301
-0.556940257549285889 0.310491114854812622 0.101604029536247253
0.192494094371795654 -0.338912069797515869 -0.0596411153674125671
0.0690809041261672974 -0.281701713800430298 -0.0784710496664047241
0.251623421907424927 -0.249668404459953308 0.319910794496536255
0.238760992884635925 0.0315010547637939453 0.316482722759246826
-0.122281178832054138 -0.0473860800266265869 0.00799521058797836304
0.177428871393203735 -0.099718928337097168 -0.0150478333234786987
0.532175838947296143 -0.331716090440750122 -0.0136210564523935318
0.369740396738052368 -0.348638772964477539 -0.209732756018638611
0.534515738487243652 -0.245076149702072144 0.176582396030426025
0.561365187168121338 -0.31491541862487793 -0.331351250410079956
0.554008007049560547 -0.210997432470321655 0.133716970682144165
-0.544508993625640869 0.381612956523895264 0.163967728614807129
0.122219547629356384 0.11773267388343811 0.132780581712722778
-0.582945108413696289 0.352637141942977905 0.0973249003291130066
-0.483417421579360962 0.186603382229804993 -0.0926779061555862427
0.515088081359863281 -0.338554680347442627 0.0383522249758243561
0.252808451652526855 -0.278673678636550903 0.321677923202514648
0.277291715145111084 -0.355064153671264648 -0.126574426889419556
0.507723987102508545 -0.285953313112258911 -0.314237803220748901
-0.433002352714538574 -0.0565842390060424805 0.115976504981517792
0.201036736369132996 0.0910479426383972168 0.223106727004051208
0.242820397019386292 0.105231717228889465 -0.058027319610118866
-0.196809753775596619 0.201985910534858704 0.348695874214172363
0.249337956309318542 0.0255155935883522034 0.322947084903717041
0.238648653030395508 0.0195826254785060883 0.320651769638061523
-0.032662905752658844 0.163025617599487305 0.382383346557617188
-0.483841657638549805 -0.0151405781507492065 0.179195880889892578
0.483413636684417725 -0.368630290031433105 0.0455074682831764221
-0.644117116928100586 0.287622213363647461 0.0859398543834686279
0.275179386138916016 -0.165457025170326233 -0.0708465352654457092
-0.413062870502471924 -0.0561614632606506348 0.0782898440957069397
-0.643797576427459717 0.176120609045028687 -0.0822676420211791992
-0.22706960141658783 -0.133407264947891235 -0.0530195608735084534
0.25403556227684021 -0.26505887508392334 0.320919632911682129
-0.346850037574768066 0.0179480575025081635 -0.117618627846240997
-0.288560390472412109 -0.0909062698483467102 -0.107218153774738312
-0.585662186145782471 0.21028958261013031 -0.218444705009460449
0.266419768333435059 -0.296498328447341919 0.314814090728759766
-0.0271044932305812836 -0.186793044209480286 -0.0438143238425254822
-0.618622362613677979 0.277306288480758667 0.0309866070747375488
-0.609353959560394287 0.298639059066772461 0.0920869931578636169
-0.398671895265579224 -0.0622246004641056061 0.118636235594749451
-0.453080534934997559 -0.0374866127967834473 0.118770599365234375
0.430637121200561523 -0.271087318658828735 0.328776836395263672
-0.0533031485974788666 0.141301095485687256 0.0913140028715133667
-0.504450440406799316 0.151628941297531128 0.354680567979812622
0.239845126867294312 -0.318897008895874023 0.322356313467025757
0.496708333492279053 -0.37050861120223999 0.056832287460565567
0.398455291986465454 -0.25619545578956604 0.322178930044174194
-0.159326836466789246 -0.263103008270263672 0.180942535400390625
-0.500915884971618652 0.0145744569599628448 0.157215267419815063
0.417001217603683472 -0.296692728996276855 0.32840263843536377
0.535089254379272461 -0.339642256498336792 -0.0188344474881887436
0.343168020248413086 -0.266623079776763916 -0.128259122371673584
-0.497826308012008667 0.072506636381149292 0.20312991738319397
0.442992091178894043 -0.271597295999526978 0.333223283290863037
0.521712362766265869 -0.334986120462417603 0.0322676859796047211
0.453174203634262085 -0.319220453500747681 -0.293500989675521851
0.473407149314880371 -0.311191827058792114 0.116356834769248962
0.517235100269317627 -0.277853637933731079 -0.313446909189224243
0.502408027648925781 -0.32551082968711853 -0.31493416428565979
0.51769179105758667 -0.326532065868377686 0.101545631885528564
0.479140162467956543 -0.310909628868103027 -0.302741646766662598
0.113183431327342987 0.118929348886013031 0.288865715265274048
-0.122910559177398682 0.269267946481704712 0.158243775367736816
-0.615208685398101807 0.265730440616607666 0.0516118817031383514
-0.480870574712753296 0.00348998839035630226 0.180308118462562561
0.426087349653244019 -0.354583770036697388 0.15815676748752594
-0.293744146823883057 -0.109883524477481842 -0.106516353785991669
0.12958100438117981 0.0659209713339805603 0.320859581232070923
0.252227962017059326 0.0393835194408893585 -0.0782958865165710449
0.234100833535194397 0.0946123078465461731 -0.0537107773125171661
0.41733887791633606 -0.26095426082611084 -0.202962592244148254
0.521205365657806396 -0.353980720043182373 -0.0198513641953468323
-0.609501481056213379 0.38157239556312561 0.18077927827835083
0.517594516277313232 -0.278751969337463379 -0.315362274646759033
0.498557686805725098 -0.349743485450744629 0.0238534975796937943
-0.588384568691253662 0.369863688945770264 0.112651646137237549
0.505058050155639648 -0.104154840111732483 0.147005677223205566
-0.198907285928726196 0.311876386404037476 0.112186767160892487
0.263071238994598389 -0.28611677885055542 0.319318056106567383
0.235820472240447998 0.0625353232026100159 0.310338139533996582
-0.145826175808906555 -0.043216317892074585 0.00371365156024694443
-0.658420443534851074 0.214990794658660889 -0.0464598238468170166
-0.290232986211776733 -0.075573258101940155 -0.0689703747630119324
0.226235970854759216 0.0424439497292041779 -0.0487756170332431793
0.551003038883209229 -0.143824338912963867 0.131803810596466064
0.519282162189483643 -0.294888168573379517 0.0744972676038742065
0.517492294311523438 -0.283433288335800171 -0.181620582938194275
-0.359549611806869507 -0.0166160743683576584 -0.0287949815392494202
0.0905805677175521851 0.0886544585227966309 0.0852386355400085449
0.466065078973770142 -0.361504524946212769 -0.0112706823274493217
-0.433703005313873291 0.15818844735622406 -0.0671083033084869385
0.523409783840179443 -0.33531913161277771 0.0683265253901481628
0.261954933404922485 -0.285459935665130615 0.317944735288619995
0.00799338147044181824 -0.0904683023691177368 -0.0265975240617990494
0.0316010750830173492 -0.130047976970672607 0.0213266424834728241
-0.631369292736053467 0.265309005975723267 0.0288311988115310669
0.24104754626750946 0.0749720185995101929 0.318553656339645386
0.239117220044136047 0.0300613753497600555 0.318612873554229736
-0.175841569900512695 0.301347166299819946 0.115683183073997498
0.303127467632293701 -0.150744855403900146 0.307579666376113892
0.261043518781661987 -0.290262103080749512 0.320589452981948853
-0.477798491716384888 -0.00763816013932228088 0.165428191423416138
0.241586506366729736 0.0824068561196327209 0.311904370784759521
0.519929409027099609 -0.350939333438873291 0.0812646523118019104
-0.0363350026309490204 -0.237179577350616455 0.123618766665458679
-0.638853371143341064 0.29041019082069397 0.0985498428344726562
-0.235526323318481445 -0.132401525974273682 -0.058866012841463089
-0.38022807240486145 -0.108339205384254456 0.104795791208744049
-0.237701058387756348 -0.14738890528678894 -0.0587140433490276337
-0.658468782901763916 0.2146625816822052 -0.0339963361620903015
0.528605937957763672 -0.352244317531585693 0.077289193868637085
-0.621639013290405273 0.270664423704147339 0.0521173104643821716
-0.404898941516876221 -0.0637950301170349121 0.11181466281414032
-0.447769075632095337 -0.0410065837204456329 0.121108755469322205
0.266909182071685791 -0.285188287496566772 0.323230445384979248
0.126754611730575562 -0.326308399438858032 0.31208491325378418
0.151449680328369141 -0.342772006988525391 0.317577183246612549
0.447187900543212891 -0.335170328617095947 -0.293709874153137207
0.515389442443847656 -0.302367269992828369 -0.108306385576725006
0.515284240245819092 -0.27970007061958313 -0.313486397266387939
0.484687924385070801 -0.32720416784286499 -0.310345739126205444
0.464127808809280396 -0.345335155725479126 -0.303075194358825684
0.549600839614868164 -0.209664568305015564 -0.316250145435333252
0.52431333065032959 -0.299428462982177734 -0.322887182235717773
0.51812976598739624 -0.300265461206436157 -0.318898320198059082
0.245949000120162964 0.0575348138809204102 0.316076844930648804
0.240210548043251038 0.0881660580635070801 0.312415540218353271
-0.293228000402450562 -0.0998659282922744751 -0.102745264768600464
-0.45467299222946167 -0.0513491034507751465 0.116394564509391785
0.403955310583114624 -0.271615177392959595 0.322126299142837524
-0.503811538219451904 0.00422475021332502365 0.188179224729537964
0.400260210037231445 -0.286650806665420532 0.324687451124191284
0.398365318775177002 -0.272883296012878418 0.323029994964599609
0.340790510177612305 -0.258365064859390259 0.0895482376217842102
-0.0202865395694971085 -0.244179427623748779 0.128471329808235168
-0.466125398874282837 0.036489635705947876 0.188571199774742126
-0.195694297552108765 0.222332730889320374 0.171523451805114746
0.365685909986495972 -0.328720122575759888 -0.0239107068628072739
0.322697758674621582 -0.389387786388397217 -0.159509599208831787
0.535166323184967041 -0.323162734508514404 -0.0587551072239875793
-0.443313539028167725 -0.00397153198719024658 0.152022063732147217
-0.0202831253409385681 -0.0589249879121780396 0.141463547945022583
-0.00164101459085941315 -0.235764175653457642 0.105814121663570404
0.52560889720916748 -0.201252192258834839 -0.0803488940000534058
0.449428021907806396 -0.307675570249557495 -0.293426275253295898
0.526901602745056152 -0.274849295616149902 -0.316237926483154297
0.499677151441574097 -0.324410766363143921 -0.313362956047058105
0.474719583988189697 -0.304564416408538818 -0.298029839992523193
-0.128524497151374817 0.247120976448059082 0.138267070055007935
-0.649513483047485352 0.282462179660797119 0.0940563306212425232
-0.199812695384025574 0.287207603454589844 0.335551291704177856
0.496659845113754272 -0.086306646466255188 0.136237949132919312
0.199566572904586792 -0.358543127775192261 -0.0914392918348312378
0.504879951477050781 -0.367160975933074951 -0.02299521304666996
0.526628315448760986 -0.242081090807914734 0.172512799501419067
-0.586831092834472656 0.3798045814037323 0.169972673058509827
0.444654464721679688 -0.314309656620025635 -0.288384765386581421
0.497788608074188232 -0.110525250434875488 0.111944340169429779
-0.656256973743438721 0.175802379846572876 -0.104081705212593079
-0.203176349401473999 0.309239745140075684 0.0883671939373016357
0.199813812971115112 -0.0130056999623775482 0.295140296220779419
0.158955827355384827 -0.0618539229035377502 -0.0444313809275627136
-0.580381572246551514 0.302829533815383911 0.36823919415473938
0.273961126804351807 0.0987953245639801025 -0.0297832489013671875
-0.436577111482620239 0.156053707003593445 -0.0868027284741401672
0.534328341484069824 -0.332477837800979614 0.012263852171599865
-0.569226324558258057 0.197712182998657227 -0.229411035776138306
-0.499381721019744873 0.0455005988478660583 -0.0877714827656745911
0.030625808984041214 -0.103933021426200867 0.0325908437371253967
0.534124433994293213 -0.263799428939819336 -0.316612213850021362
0.00821908377110958099 0.198126167058944702 0.0271837785840034485
0.300927996635437012 0.039465438574552536 -0.0852385759353637695
-0.33373790979385376 -0.0152612924575805664 -0.108488172292709351
0.235312923789024353 0.0149918561801314354 0.321283549070358276
0.123913556337356567 0.0131113389506936073 0.298617929220199585
0.527238547801971436 -0.354666262865066528 0.06586475670337677
0.466926634311676025 -0.309280097484588623 -0.233682096004486084
-0.652502894401550293 0.285806357860565186 0.104174479842185974
0.546037375926971436 -0.21928735077381134 0.163287132978439331
0.527708351612091064 -0.322812259197235107 -0.0164826828986406326
-0.384053885936737061 -0.0557495430111885071 0.0757448524236679077
0.456631839275360107 -0.31028863787651062 -0.292975813150405884
0.504851758480072021 -0.33956676721572876 -0.31849709153175354
0.478557407855987549 -0.313841134309768677 -0.300022661685943604
0.5205344557762146 -0.300661772489547729 -0.317852497100830078
-0.0037569291889667511 -0.139632165431976318 -0.0251695998013019562
0.396745502948760986 -0.272478669881820679 0.323233813047409058
0.400295376777648926 -0.270881831645965576 0.323524534702301025
0.505542337894439697 -0.33153235912322998 0.105276778340339661
-0.469323426485061646 0.0429497808218002319 0.169675171375274658
0.409173548221588135 -0.34558221697807312 0.155979186296463013
-0.361955195665359497 -0.034688510000705719 -0.148783445358276367
-0.129206433892250061 -0.267240196466445923 0.112100809812545776
0.51227647066116333 -0.36862674355506897 -0.0152801722288131714
-0.214847788214683533 0.313130438327789307 0.096922650933265686
0.249942705035209656 -0.286662250757217407 0.322781592607498169
0.207727342844009399 0.00970454234629869461 -0.0467178113758563995
0.0688998699188232422 -0.150961205363273621 -0.0176310371607542038
-0.170665442943572998 0.30529552698135376 0.118107311427593231
0.470683395862579346 -0.363891959190368652 0.00653459411114454269
-0.292376995086669922 -0.0986774712800979614 -0.104006573557853699
0.035817224532365799 -0.149387657642364502 -0.0223003160208463669
0.231149032711982727 0.0567430779337882996 0.308681279420852661
0.252803772687911987 -0.288194119930267334 0.320513337850570679
-0.473274648189544678 0.00168410269543528557 0.167612925171852112
0.239950716495513916 0.0631953999400138855 0.312746554613113403
0.508577346801757812 -0.351547539234161377 0.0635361224412918091
0.226363211870193481 -0.314376652240753174 0.314180076122283936
-0.376702994108200073 -0.0925144925713539124 0.0854771137237548828
-0.0638988465070724487 -0.241545513272285461 0.301898151636123657
-0.223712638020515442 -0.127164140343666077 -0.0538281388580799103
-0.410748034715652466 -0.0649057626724243164 0.0979924127459526062
-0.446392059326171875 -0.0439936742186546326 0.131903752684593201
0.237993568181991577 -0.293562501668930054 0.314209282398223877
0.152935028076171875 -0.323879450559616089 0.320039808750152588
0.424842506647109985 -0.255422353744506836 0.328233599662780762
0.437864482402801514 -0.342185765504837036 -0.293150961399078369
0.506386995315551758 -0.334113657474517822 -0.31868329644203186
0.444769024848937988 -0.35159069299697876 -0.287309885025024414
0.237164631485939026 0.0662402212619781494 0.312126576900482178
0.402557164430618286 -0.286868691444396973 0.325823187828063965
-0.496184021234512329 0.00720472401008009911 0.187269702553749084
0.485024571418762207 -0.0624860823154449463 0.131326213479042053
0.0115709118545055389 -0.170341849327087402 0.00953032635152339935
0.531300961971282959 -0.306978046894073486 -0.0627008676528930664
0.313619941473007202 -0.301630318164825439 -0.12694123387336731
0.445524215698242188 -0.290687710046768188 -0.286113172769546509
-0.338132411241531372 0.225367411971092224 0.124994516372680664
-0.401834726333618164 -0.0275197736918926239 -0.00245904456824064255
0.402336716651916504 -0.2710551917552948 0.323918431997299194
-0.134313672780990601 0.196375235915184021 0.16726994514465332
0.398382723331451416 -0.271001309156417847 0.323716193437576294
-0.447474122047424316 -0.0243177991360425949 0.0207432787865400314
-0.138736605644226074 0.245463907718658447 0.191040113568305969
-0.613081693649291992 0.294509351253509521 0.183403462171554565
0.123790323734283447 0.11636631190776825 0.316040962934494019
-0.121803432703018188 0.251192629337310791 0.161266937851905823
-0.583496332168579102 0.348427355289459229 0.0577192343771457672
0.426289945840835571 -0.347651302814483643 0.152426213026046753
-0.567454040050506592 0.295672148466110229 -0.0693923085927963257
0.250675678253173828 0.0273551046848297119 -0.0800461992621421814
0.246431887149810791 0.101009279489517212 -0.0490328520536422729
-0.358739942312240601 -0.0549533292651176453 -0.142678096890449524
0.19777284562587738 0.120669037103652954 0.0351332277059555054
0.545342862606048584 -0.130885511636734009 0.111782699823379517
-0.581820309162139893 0.321971029043197632 -0.0232353117316961288
0.205282688140869141 0.025376494973897934 0.176420792937278748
-0.595782101154327393 0.375685751438140869 0.171472698450088501
0.444249153137207031 -0.318724453449249268 0.12683771550655365
0.254491984844207764 -0.278100728988647461 0.316108077764511108
0.234615832567214966 0.0243280678987503052 0.316192567348480225
-0.364115476608276367 -0.0490046925842761993 -0.0243541449308395386
-0.183549284934997559 0.118503987789154053 0.042018987238407135
0.254203259944915771 -0.287583768367767334 0.319046199321746826
0.241091355681419373 0.0338058769702911377 0.321554630994796753
0.39886009693145752 0.0240408051759004593 0.11455526202917099
-0.341700434684753418 -0.0653014481067657471 -0.147952482104301453
0.0748075693845748901 -0.33250698447227478 0.298924148082733154
-0.387737423181533813 -0.0599753037095069885 0.093286558985710144
-0.449602901935577393 -0.0406740903854370117 0.126690611243247986
0.438927024602890015 -0.278511196374893188 0.333396583795547485
0.0335343927145004272 -0.12231019139289856 -0.026123441755771637
0.413979828357696533 -0.279933929443359375 0.326665610074996948
0.432681053876876831 -0.295292884111404419 0.332977622747421265
0.366934090852737427 -0.277760326862335205 -0.130956858396530151
-0.47864300012588501 0.00213622860610485077 0.187373027205467224
-0.292855441570281982 -0.095477081835269928 -0.105313688516616821
0.240671411156654358 -0.312246412038803101 0.309422105550765991
0.472972065210342407 -0.353771686553955078 0.0065352804958820343
-0.297477781772613525 -0.0957399755716323853 -0.107777446508407593
0.244191557168960571 -0.287918150424957275 0.319874733686447144
0.0612790323793888092 -0.329276919364929199 0.296514958143234253
0.157018139958381653 -0.267232030630111694 -0.105926483869552612
0.249287158250808716 0.0641046836972236633 0.315211087465286255
-0.483697503805160522 -0.00727574527263641357 0.177064999938011169
0.235403135418891907 0.0672462433576583862 0.314578860998153687
0.237897485494613647 -0.331296324729919434 0.320848941802978516
-0.382968246936798096 -0.091260954737663269 0.0362955555319786072
-0.217093214392662048 -0.139346599578857422 -0.055056646466255188
-0.383479207754135132 -0.0628099218010902405 0.0831140205264091492
0.149187803268432617 -0.33111494779586792 0.331679850816726685
0.44547504186630249 -0.279036939144134521 0.33324316143989563
0.406930118799209595 -0.279640346765518188 0.324856102466583252
-0.503023445606231689 0.00722823664546012878 0.187773734331130981
-0.322976469993591309 0.0980740636587142944 -0.0707660689949989319
0.532297432422637939 -0.206710085272789001 -0.0528918318450450897
0.45070648193359375 -0.293157577514648438 -0.291211783885955811
0.48755180835723877 -0.324502795934677124 -0.311427950859069824
0.446316152811050415 -0.308887779712677002 -0.291528671979904175
-0.578078866004943848 0.269826620817184448 0.365466833114624023
-0.46187359094619751 0.106356114149093628 -0.23161451518535614
0.374016851186752319 -0.31790006160736084 0.198472559452056885
-0.589902639389038086 0.367404341697692871 0.130856230854988098
0.392083138227462769 -0.352314472198486328 -0.218171358108520508
0.44101521372795105 -0.309450089931488037 -0.289666295051574707
-0.201309069991111755 0.305939912796020508 0.0943377166986465454
-0.156449675559997559 0.268500447273254395 0.151680052280426025
0.529715597629547119 -0.33790290355682373 0.0713721513748168945
0.463502377271652222 -0.265539675951004028 -0.218124538660049438
-0.633691310882568359 0.276164203882217407 0.106781922280788422
0.438354372978210449 -0.307672828435897827 -0.287778586149215698
0.515679061412811279 -0.27651822566986084 -0.317464321851730347
0.516797721385955811 -0.339656025171279907 -0.321380048990249634
0.454323500394821167 -0.306256383657455444 -0.293860763311386108
0.490501850843429565 -0.321287930011749268 0.0938606709241867065
0.0198366679251194 -0.275077462196350098 -0.0191744118928909302
-0.65425032377243042 0.172234371304512024 -0.108352936804294586
-0.225257515907287598 0.319112181663513184 0.120726518332958221
0.464945107698440552 -0.363551318645477295 0.00523196626454591751
0.480656653642654419 -0.336131066083908081 0.0498282499611377716
0.511754035949707031 -0.338749557733535767 -0.320251226425170898
0.440124779939651489 -0.355761468410491943 -0.298355132341384888
-0.270526617765426636 0.322552084922790527 0.0412119962275028229
0.424013704061508179 -0.312498182058334351 -0.282453984022140503
0.415121018886566162 -0.294417023658752441 0.328207433223724365
-0.32720792293548584 -0.0746301636099815369 0.122813418507575989
-0.36794164776802063 -0.06614704430103302 0.154081061482429504
-0.33945155143737793 0.215432643890380859 0.131810247898101807
0.00927956961095333099 0.120016045868396759 0.104968607425689697
0.54201894998550415 -0.308488428592681885 -0.0466332174837589264
0.0127765685319900513 -0.261355489492416382 0.039055507630109787
-0.00440899096429347992 -0.236231386661529541 0.0936208292841911316
-0.000943310558795928955 -0.219087153673171997 0.0809408277273178101
0.464456707239151001 -0.360310107469558716 0.0297776944935321808
-0.270864009857177734 -0.137258946895599365 0.176712274551391602
-0.345952391624450684 -0.0652199834585189819 0.140886232256889343
0.122724860906600952 -0.276214838027954102 0.128575071692466736
-0.134783029556274414 0.0793286561965942383 0.0897333770990371704
0.463143467903137207 -0.0537681803107261658 0.0172487888485193253
-0.0151364188641309738 -0.216446459293365479 0.079855695366859436
-0.555528700351715088 0.39211428165435791 0.147006392478942871
0.49634513258934021 -0.366210609674453735 0.00487925205379724503
-0.61103743314743042 0.294618695974349976 0.186214074492454529
0.530275464057922363 -0.274394363164901733 -0.318207919597625732
0.369432568550109863 -0.263915449380874634 0.180976390838623047
