ply
format ascii 1.0
element vertex 738
property float x
property float y
property float z
end_header
0.295992761850357056 -0.296711921691894531 0.0562582314014434814
-0.285154253244400024 0.257460296154022217 0.000451297033578157425
-0.0208355877548456192 -0.0402507893741130829 0.0886133089661598206
0.204342156648635864 0.0432852581143379211 0.0652054101228713989
-0.143563568592071533 -0.0844174325466156006 0.0913683921098709106
0.371303915977478027 -0.0726651474833488464 0.0308857057243585587
0.520707130432128906 -0.198326423764228821 -0.0988501161336898804
0.485921561717987061 -0.2975597083568573 -0.306250900030136108
0.47936403751373291 -0.314333677291870117 0.121702298521995544
0.512998700141906738 -0.306440293788909912 -0.102931991219520569
0.494895577430725098 -0.309035390615463257 -0.310430079698562622
0.505466461181640625 -0.327299207448959351 -0.00432611536234617233
0.511217772960662842 -0.323775172233581543 0.117965921759605408
0.464168518781661987 -0.288658052682876587 -0.297883659601211548
0.436440914869308472 -0.262799739837646484 -0.194622069597244263
0.135415822267532349 0.117985956370830536 0.336369603872299194
0.396115124225616455 -0.24348035454750061 0.318437665700912476
-0.601540207862854004 0.354936301708221436 0.0653424859046936035
-0.505014121532440186 0.357957065105438232 0.178077369928359985
0.542329847812652588 -0.281631737947463989 0.097531341016292572
0.25602257251739502 0.0375566259026527405 -0.0725375562906265259
-0.233513936400413513 0.156786531209945679 -0.0058704763650894165
0.50541234016418457 -0.331389546394348145 -0.00265630427747964859
0.44262993335723877 -0.24972282350063324 -0.228428840637207031
-0.638810634613037109 0.255049914121627808 0.0544589310884475708
0.532201647758483887 -0.261902123689651489 0.0929071009159088135
-0.39267277717590332 -0.0583946406841278076 0.100562438368797302
0.523452103137969971 -0.288781732320785522 -0.0925114229321479797
0.028090357780456543 -0.273320227861404419 -0.0356630049645900726
0.38444480299949646 -0.305252522230148315 0.118200019001960754
-0.582312405109405518 0.367539823055267334 0.131385460495948792
0.240075975656509399 0.00379828969016671181 0.180445820093154907
-0.113197788596153259 0.166406363248825073 0.347176134586334229
0.481675922870635986 -0.367583274841308594 -0.0225436463952064514
0.410897195339202881 -0.320807665586471558 -0.211967200040817261
0.506552398204803467 -0.154561907052993774 0.123714447021484375
0.528392195701599121 -0.334116965532302856 0.012171795591711998
-0.584089279174804688 0.336953461170196533 0.0339440591633319855
-0.590879738330841064 0.382596284151077271 0.13096792995929718
0.525160431861877441 -0.244167104363441467 -0.311446517705917358
0.472881555557250977 -0.290537804365158081 -0.300634324550628662
-0.597421467304229736 0.354274332523345947 0.169373303651809692
-0.587177455425262451 0.372154772281646729 0.100780114531517029
-0.212105989456176758 -0.128746360540390015 -0.0581754259765148163
0.234969452023506165 -0.292205810546875 0.314022362232208252
0.23850134015083313 0.0681756362318992615 0.319053798913955688
0.541490614414215088 -0.313012003898620605 -0.0586053133010864258
-0.443825632333755493 -0.0475481227040290833 0.126667231321334839
0.358357846736907959 -0.387537330389022827 -0.209770724177360535
-0.5562935471534729 0.211812719702720642 -0.113868579268455505
0.520206809043884277 -0.278718948364257812 -0.177273273468017578
0.241963803768157959 0.0357960797846317291 0.313781440258026123
0.242301881313323975 0.00129680987447500229 0.0232292879372835159
0.379813969135284424 0.0396419018507003784 0.0112739009782671928
0.525803625583648682 -0.23053315281867981 -0.310943484306335449
0.326512068510055542 0.0971293598413467407 -0.0365237705409526825
-0.374184727668762207 -0.0595546625554561615 -0.133340567350387573
0.512529730796813965 -0.166618123650550842 0.135404333472251892
-0.574430286884307861 0.322733581066131592 0.0493830367922782898
-0.558796286582946777 0.284145891666412354 0.364013552665710449
0.224202856421470642 0.0327058620750904083 -0.0585896745324134827
-0.574059009552001953 0.214893311262130737 -0.221394464373588562
-0.044658467173576355 0.157463431358337402 0.0810419023036956787
0.113685928285121918 0.110755182802677155 0.0249701943248510361
0.341985166072845459 -0.246091872453689575 -0.0973388850688934326
-0.284315735101699829 0.3008994460105896 -0.00324619840830564499
0.153121069073677063 -0.00385450758039951324 -0.0038799503818154335
0.0689608156681060791 0.139557525515556335 0.0751954317092895508
-0.269442379474639893 0.280699193477630615 0.00142325111664831638
0.5023459792137146 -0.291955560445785522 -0.159948244690895081
0.137017175555229187 -0.0252741482108831406 0.0124578578397631645
-0.339350998401641846 -0.0311101805418729782 0.0223125182092189789
0.372459352016448975 -0.0910892486572265625 0.0436094887554645538
0.200307548046112061 0.101837456226348877 -0.00220828689634799957
-0.297282755374908447 -0.0242307297885417938 0.0359138436615467072
0.131880134344100952 -0.0171589646488428116 -0.0269559416919946671
0.10167887806892395 0.016469346359372139 0.0909766033291816711
0.175785660743713379 0.120053038001060486 0.0376596115529537201
-0.230283424258232117 -0.0628424212336540222 0.104384131729602814
0.484853267669677734 -0.296471238136291504 -0.304643332958221436
-0.602736949920654297 0.290158778429031372 0.184722155332565308
0.4658774733543396 -0.308290451765060425 0.119694381952285767
0.377319902181625366 -0.0135680418461561203 0.0056878640316426754
0.513872981071472168 -0.294547379016876221 -0.104084432125091553
0.517461478710174561 -0.239561647176742554 -0.308652579784393311
0.475985080003738403 -0.309795677661895752 -0.301389366388320923
0.482054293155670166 -0.274357378482818604 -0.301027953624725342
0.117337532341480255 0.119717814028263092 0.296608030796051025
-0.584181845188140869 0.356894850730895996 0.0654169321060180664
0.382945477962493896 -0.336549460887908936 0.12495807558298111
-0.57386547327041626 0.317972004413604736 -0.0268630757927894592
-0.604153990745544434 0.21766449511051178 -0.0872940570116043091
0.267438918352127075 0.0399741232395172119 -0.0867385417222976685
-0.357199192047119141 -0.0213888455182313919 -0.131735339760780334
-0.564354777336120605 0.315076678991317749 -0.00810854882001876831
0.190456867218017578 -0.339937776327133179 -0.0753180608153343201
0.402823597192764282 -0.356744080781936646 -0.224844023585319519
-0.500292062759399414 0.146442532539367676 0.354667544364929199
0.508929848670959473 -0.150540411472320557 0.114732548594474792
0.495345503091812134 -0.263840138912200928 -0.305572837591171265
0.456407696008682251 -0.280554443597793579 -0.290827572345733643
0.43933454155921936 -0.264715909957885742 -0.284508764743804932
-0.588009774684906006 0.357994914054870605 0.0613531656563282013
0.504666030406951904 -0.125937774777412415 0.123879626393318176
-0.206177622079849243 0.312965810298919678 0.108165934681892395
0.268448621034622192 -0.283174425363540649 0.318595051765441895
0.232481822371482849 0.00449978001415729523 0.31727328896522522
0.511953294277191162 -0.174985215067863464 -0.281879633665084839
-0.115859724581241608 0.0105087906122207642 0.00537872454151511192
0.402736306190490723 -0.358767509460449219 -0.225373983383178711
0.416784822940826416 -0.312472999095916748 0.1433287113904953
-0.555353701114654541 0.377078354358673096 0.186229526996612549
-0.17542874813079834 0.30990135669708252 0.118314579129219055
-0.390007227659225464 0.276665955781936646 -0.0856100171804428101
0.364580452442169189 0.0525617413222789764 0.0238842014223337173
0.129766225814819336 0.116857141256332397 0.318131417036056519
-0.287008672952651978 -0.0997533425688743591 -0.0924383178353309631
0.258042812347412109 0.101773574948310852 -0.0625938922166824341
-0.361864149570465088 -0.0585535615682601929 -0.144328519701957703
0.134427726268768311 0.114699982106685638 0.337198436260223389
-0.563385605812072754 0.199626609683036804 -0.229468613862991333
-0.275657832622528076 0.288424313068389893 -0.00141825433820486069
0.453023165464401245 -0.246247455477714539 -0.289060354232788086
0.458810001611709595 -0.275048226118087769 -0.2917214035987854
-0.634536921977996826 0.308777987957000732 0.170296788215637207
0.51218879222869873 -0.316503047943115234 -0.0390232466161251068
0.467178493738174438 -0.265625268220901489 -0.298941642045974731
0.476384848356246948 -0.294900596141815186 -0.301213741302490234
0.456292271614074707 -0.246128767728805542 -0.290576517581939697
0.380019217729568481 -0.360349744558334351 -0.214800745248794556
-0.479092806577682495 -0.0116216503083705902 0.185735210776329041
-0.516367495059967041 0.366429954767227173 0.173525348305702209
-0.617751777172088623 0.202349066734313965 -0.0875682979822158813
-0.237699836492538452 0.0194578524678945541 -0.0728208199143409729
-0.382215350866317749 -0.0582564622163772583 0.0233689956367015839
0.474090456962585449 -0.367917537689208984 0.0212175585329532623
-0.64890134334564209 0.23724520206451416 0.0320398174226284027
0.411440461874008179 -0.345854461193084717 -0.222620666027069092
0.525470137596130371 -0.336494326591491699 0.0795733183622360229
0.504698038101196289 -0.238857254385948181 -0.309086859226226807
0.249845981597900391 -0.281383424997329712 0.317628085613250732
0.239720344543457031 0.0674856752157211304 0.313378721475601196
0.539044976234436035 -0.301209390163421631 -0.0938882604241371155
-0.447162926197052002 -0.0403549410402774811 0.126683980226516724
-0.0435968786478042603 0.105363622307777405 0.317492872476577759
0.247893035411834717 0.0220197327435016632 0.32149931788444519
-0.285306066274642944 -0.098760649561882019 -0.0994534939527511597
-0.13788054883480072 -0.0141985639929771423 -0.0495545379817485809
-0.277867972850799561 0.338299274444580078 0.0467145517468452454
-0.254293322563171387 0.290193140506744385 -0.00363457947969436646
-0.219132781028747559 0.322670072317123413 0.0694469064474105835
-0.572951376438140869 0.152872756123542786 -0.0747800618410110474
-0.289745748043060303 0.293370604515075684 0.0156288295984268188
0.524814307689666748 -0.319951176643371582 0.0270317178219556808
0.345681309700012207 -0.0296422932296991348 -0.0351466462016105652
0.521951079368591309 -0.362191289663314819 0.0888690650463104248
-0.0835581719875335693 -0.111145347356796265 0.0779276713728904724
-0.404066354036331177 0.327011704444885254 0.121040917932987213
0.504278957843780518 -0.366568326950073242 -0.00517032667994499207
-0.118820369243621826 0.266846209764480591 0.120614580810070038
0.518212556838989258 -0.342323362827301025 0.0353971756994724274
0.130453914403915405 -0.333806306123733521 0.300758063793182373
0.465690791606903076 -0.310364454984664917 0.0723055005073547363
0.482108384370803833 -0.373509526252746582 0.051923707127571106
0.420440375804901123 -0.025221697986125946 0.0641876831650733948
0.493660420179367065 -0.362907111644744873 -0.0162284430116415024
-0.232589840888977051 0.28772398829460144 0.083871692419052124
0.530975639820098877 -0.331057131290435791 -0.00783470552414655685
-0.271898835897445679 0.316073298454284668 0.113680481910705566
0.307566046714782715 0.0032330821268260479 0.0456064380705356598
0.465497255325317383 -0.263206928968429565 -0.296927511692047119
0.472452819347381592 -0.30381426215171814 0.113826587796211243
0.510571300983428955 -0.312832504510879517 -0.104919791221618652
0.508088529109954834 -0.245253324508666992 -0.309251993894577026
0.446328729391098022 -0.292256742715835571 -0.293871581554412842
0.464636802673339844 -0.28315386176109314 -0.298520386219024658
0.138785362243652344 0.113725237548351288 0.336153507232666016
-0.651229679584503174 0.286213517189025879 0.0982448011636734009
-0.637440919876098633 0.245327949523925781 -0.0380906984210014343
0.136471152305603027 0.070207744836807251 0.337086200714111328
-0.57642894983291626 0.30401960015296936 -0.055919107049703598
0.262370288372039795 0.0310774650424718857 -0.073915138840675354
0.541003406047821045 -0.215992361307144165 0.111297667026519775
-0.36060371994972229 -0.0349682420492172241 -0.135050326585769653
-0.574109077453613281 0.327694088220596313 -0.0299085527658462524
-0.361698329448699951 -0.0701035559177398682 -0.0345251895487308502
-0.130736693739891052 -0.266939342021942139 0.118620112538337708
0.494499772787094116 -0.365548789501190186 -0.0010161595419049263
0.372586995363235474 -0.358611106872558594 -0.210928440093994141
-0.377916842699050903 -0.105863913893699646 0.101325355470180511
-0.0668930560350418091 -0.263101756572723389 0.295900970697402954
0.518717586994171143 -0.243116229772567749 -0.310347706079483032
0.508783996105194092 -0.330240696668624878 0.0148704657331109047
-0.593316555023193359 0.369938880205154419 0.120549574494361877
-0.65494990348815918 0.175945624709129333 -0.103269703686237335
-0.222851276397705078 -0.143320649862289429 -0.0540343374013900757
-0.190853998064994812 0.317174196243286133 0.100437507033348083
0.25711938738822937 -0.282646715641021729 0.319093883037567139
0.239203274250030518 0.0333311483263969421 0.318303346633911133
-0.120443344116210938 -0.0455432683229446411 0.00680413004010915756
-0.640737950801849365 0.309060275554656982 0.101757623255252838
0.363521367311477661 -0.372954189777374268 -0.207773536443710327
0.536855697631835938 -0.216881841421127319 0.161472350358963013
-0.552796900272369385 0.383188754320144653 0.157350331544876099
-0.122420445084571838 0.260005354881286621 0.114709362387657166
0.120160743594169617 0.102880500257015228 0.0892600417137145996
-0.37517082691192627 0.266259908676147461 -0.0899239927530288696
0.516451537609100342 -0.348430901765823364 0.0982221662998199463
-0.29385221004486084 -0.106337308883666992 -0.109584815800189972
0.274788886308670044 0.103713303804397583 -0.0583438649773597717
-0.57481461763381958 0.219904243946075439 -0.213011100888252258
-0.115619786083698273 0.269322007894515991 0.179198041558265686
0.236820816993713379 -0.28721916675567627 0.313384741544723511
0.309662550687789917 -0.186528921127319336 0.240555480122566223
0.541385114192962646 -0.325085490942001343 -0.0213532932102680206
0.0790788456797599792 -0.3371390700340271 0.281602770090103149
-0.00636797491461038589 -0.171201646327972412 0.00393360946327447891
-0.28195953369140625 0.262258052825927734 0.00649615377187728882
0.512069284915924072 -0.236940175294876099 -0.310320466756820679
-0.646709859371185303 0.278904348611831665 0.0796578675508499146
-0.64562910795211792 0.18335995078086853 -0.0911399573087692261
0.513371407985687256 -0.321955204010009766 0.0239081047475337982
-0.406580120325088501 -0.0627309530973434448 0.113645650446414948
0.516396105289459229 -0.354882299900054932 -0.0211343336850404739
-0.566737711429595947 0.375117719173431396 0.151986196637153625
0.235957279801368713 0.0441148169338703156 0.313025534152984619
-0.664141952991485596 0.227462172508239746 0.0228695031255483627
-0.447535783052444458 -0.0375097617506980896 0.126928970217704773
0.502004861831665039 -0.30146375298500061 -0.179207608103752136
-0.589026689529418945 0.361854583024978638 0.0856635868549346924
-0.193818986415863037 0.31556779146194458 0.104568310081958771
0.246850848197937012 0.0249033458530902863 0.323096930980682373
0.530512392520904541 -0.322995901107788086 -0.0586075708270072937
-0.18270815908908844 0.307842761278152466 0.128112331032752991
0.246928095817565918 0.00797986425459384918 0.323338419198989868
0.0590858794748783112 0.140476137399673462 0.345229625701904297
-0.505862951278686523 0.150247961282730103 0.35657113790512085
0.270314902067184448 -0.310488253831863403 0.325830459594726562
-0.254169702529907227 0.0240974463522434235 -0.0711643621325492859
0.241354659199714661 -0.294477194547653198 0.321793824434280396
0.248683527112007141 0.0448942780494689941 0.314003646373748779
0.467276334762573242 -0.101194687187671661 0.0340379253029823303
-0.124788306653499603 0.195852622389793396 0.114989258348941803
0.239994123578071594 -0.325882881879806519 0.317351400852203369
0.499565064907073975 -0.366098999977111816 0.0742230340838432312
0.522785842418670654 -0.32404094934463501 0.0259472262114286423
0.443749099969863892 -0.252408027648925781 0.332141399383544922
0.320924162864685059 -0.130628764629364014 -0.107223615050315857
0.0637900680303573608 -0.00996875204145908356 0.321166127920150757
0.510674715042114258 -0.360529482364654541 0.0466994903981685638
0.135464444756507874 -0.0998980402946472168 0.0398808829486370087
0.0489518865942955017 0.0121373124420642853 0.0291173029690980911
0.0203442312777042389 0.0490459613502025604 0.0419435985386371613
0.0880504250526428223 -0.0653584972023963928 0.289029806852340698
-0.162275567650794983 -0.265116512775421143 0.147153198719024658
0.264887839555740356 -0.0194130055606365204 0.0611925646662712097
-0.0288817957043647766 -0.0282159280031919479 0.294744998216629028
0.501106083393096924 -0.240177839994430542 -0.302670150995254517
0.474399566650390625 -0.314696580171585083 -0.302583962678909302
-0.630486965179443359 0.306924790143966675 0.167222887277603149
0.474235296249389648 -0.320247143507003784 0.12062053382396698
0.508540511131286621 -0.300016850233078003 -0.105927929282188416
0.527438580989837646 -0.274690598249435425 -0.31795617938041687
0.492301881313323975 -0.33255767822265625 -0.311847567558288574
0.502666652202606201 -0.319397032260894775 0.0974245145916938782
0.472445100545883179 -0.305787861347198486 -0.299333751201629639
-0.558892548084259033 0.268664538860321045 0.364189952611923218
0.125735372304916382 0.117847904562950134 0.313039183616638184
-0.633456230163574219 0.283031761646270752 0.0543133988976478577
-0.587295651435852051 0.363468974828720093 0.101991847157478333
0.370099395513534546 -0.373315125703811646 -0.213498622179031372
0.437586367130279541 -0.347548902034759521 0.153726905584335327
0.0584530755877494812 0.122183516621589661 0.32060202956199646
-0.574383020401000977 0.369546622037887573 0.215241789817810059
0.264702469110488892 0.0251799151301383972 -0.0591585822403430939
0.367862880229949951 -0.336219489574432373 0.160014718770980835
0.509970664978027344 -0.300784945487976074 -0.112404480576515198
0.133334442973136902 -0.319835156202316284 -0.0983007699251174927
0.51620560884475708 -0.348034650087356567 -0.0208644233644008636
0.388352304697036743 -0.345797270536422729 -0.214868977665901184
-0.57676231861114502 0.319873660802841187 0.0407496392726898193
0.535468161106109619 -0.277553170919418335 -0.321142703294754028
0.465879619121551514 -0.310943752527236938 -0.300310373306274414
0.506491720676422119 -0.346638351678848267 0.0173777695745229721
-0.555525362491607666 0.310392796993255615 0.101771950721740723
0.193810492753982544 -0.338608473539352417 -0.0597586743533611298
0.0703508555889129639 -0.281524688005447388 -0.0782088190317153931
0.252708882093429565 -0.249499127268791199 0.319509655237197876
0.239863604307174683 0.0319618880748748779 0.316125988960266113
-0.12144431471824646 -0.0471688583493232727 0.00769421085715293884
0.178678303956985474 -0.0994884669780731201 -0.0153209790587425232
0.53218454122543335 -0.331647753715515137 -0.0136155318468809128
0.369219064712524414 -0.348732739686965942 -0.209785282611846924
0.534589827060699463 -0.245062112808227539 0.176624059677124023
0.560557782649993896 -0.315361380577087402 -0.331323206424713135
0.553994417190551758 -0.211036890745162964 0.133624717593193054
-0.542923808097839355 0.381227850914001465 0.164171263575553894
0.123322486877441406 0.117700010538101196 0.132663369178771973
-0.581940829753875732 0.352557957172393799 0.0973447412252426147
-0.482019424438476562 0.186672985553741455 -0.0919788479804992676
0.515122950077056885 -0.3385486900806427 0.0383889637887477875
0.254180997610092163 -0.278412967920303345 0.321264117956161499
0.27776530385017395 -0.35509219765663147 -0.126559779047966003
0.506884872913360596 -0.286377519369125366 -0.314577013254165649
-0.431328117847442627 -0.0565390214323997498 0.11669236421585083
0.201735898852348328 0.0910907536745071411 0.222679197788238525
0.244360655546188354 0.105154015123844147 -0.0580013282597064972
-0.195502430200576782 0.202227920293807983 0.348301887512207031
0.250479280948638916 0.0257940161973237991 0.322576671838760376
0.239828616380691528 0.0199122577905654907 0.320389658212661743
-0.0310238581150770187 0.163652196526527405 0.382354050874710083
-0.482258647680282593 -0.0149277932941913605 0.179968789219856262
0.483130007982254028 -0.368701040744781494 0.0455988273024559021
-0.643067836761474609 0.287665128707885742 0.0862644463777542114
0.276049405336380005 -0.165280789136886597 -0.0710018649697303772
-0.411808222532272339 -0.056236661970615387 0.0784047245979309082
-0.64244544506072998 0.175807803869247437 -0.0821783393621444702
-0.225712686777114868 -0.133301973342895508 -0.0525540709495544434
0.255191326141357422 -0.26478266716003418 0.320430904626846313
-0.345811694860458374 0.0178890898823738098 -0.117491379380226135
-0.287434577941894531 -0.0907056629657745361 -0.106584638357162476
-0.585085570812225342 0.210107550024986267 -0.218370035290718079
0.267677724361419678 -0.296300143003463745 0.314736098051071167
-0.0257861427962779999 -0.186638414859771729 -0.0438034050166606903
-0.617839932441711426 0.27749711275100708 0.031368497759103775
-0.607778191566467285 0.298483163118362427 0.0922022163867950439
-0.397208690643310547 -0.0620954856276512146 0.119316011667251587
-0.450754880905151367 -0.0373222604393959045 0.119310557842254639
0.430596500635147095 -0.271043092012405396 0.328884124755859375
-0.0521733872592449188 0.141251116991043091 0.0914176404476165771
-0.503177762031555176 0.151858747005462646 0.355265110731124878
0.240928187966346741 -0.318615704774856567 0.322334855794906616
0.496670901775360107 -0.370490312576293945 0.0569048859179019928
0.398887515068054199 -0.256130218505859375 0.322173953056335449
-0.1579875648021698 -0.262998133897781372 0.180891752243041992
-0.499061554670333862 0.0147199183702468872 0.157489031553268433
0.417150825262069702 -0.29666563868522644 0.328236222267150879
0.535256266593933105 -0.339591920375823975 -0.0188510138541460037
0.3433951735496521 -0.26660078763961792 -0.128584668040275574
-0.495582878589630127 0.0724370032548904419 0.203499972820281982
0.442943990230560303 -0.271508961915969849 0.333229750394821167
0.521687984466552734 -0.335061252117156982 0.0323582068085670471
0.452196687459945679 -0.319705963134765625 -0.293884754180908203
0.473121941089630127 -0.311365991830825806 0.116303659975528717
0.516468346118927002 -0.278188884258270264 -0.313681960105895996
0.501311838626861572 -0.326336652040481567 -0.315211892127990723
0.517553031444549561 -0.326550155878067017 0.101641342043876648
0.477864921092987061 -0.311719775199890137 -0.303271204233169556
0.114767074584960938 0.119360297918319702 0.288186371326446533
-0.122076496481895447 0.269172817468643188 0.15827101469039917
-0.614558279514312744 0.265846371650695801 0.0516877956688404083
-0.479144930839538574 0.00376693205907940865 0.180941879749298096
0.425927013158798218 -0.354565232992172241 0.158174380660057068
-0.292528629302978516 -0.109842881560325623 -0.105969905853271484
0.130846083164215088 0.066502593457698822 0.320538818836212158
0.253332376480102539 0.0391883924603462219 -0.0781712383031845093
0.235462605953216553 0.0944975391030311584 -0.0536704286932945251
0.416553676128387451 -0.260961353778839111 -0.202890068292617798
0.5212821364402771 -0.354012042284011841 -0.0198356360197067261
-0.608674585819244385 0.381584852933883667 0.180885076522827148
0.516904473304748535 -0.279073029756546021 -0.315617918968200684
0.498400390148162842 -0.349926680326461792 0.0237072985619306564
-0.587669730186462402 0.3699970543384552 0.112875916063785553
0.50533747673034668 -0.104057982563972473 0.146829962730407715
-0.19767095148563385 0.312017858028411865 0.112678952515125275
0.264525771141052246 -0.285907089710235596 0.319199174642562866
0.237578883767127991 0.0629049241542816162 0.309671759605407715
-0.144987508654594421 -0.042914852499961853 0.00372834037989377975
-0.656717419624328613 0.214926719665527344 -0.0462342649698257446
-0.288879901170730591 -0.0755677968263626099 -0.0691066384315490723
0.227695345878601074 0.0425396598875522614 -0.0486979112029075623
0.551105320453643799 -0.143791720271110535 0.131744265556335449
0.519304156303405762 -0.294859260320663452 0.0744371190667152405
0.517013788223266602 -0.283502489328384399 -0.181272715330123901
-0.357742428779602051 -0.0166079159826040268 -0.0282522253692150116
0.0912671536207199097 0.0885464102029800415 0.0853793472051620483
0.466117531061172485 -0.361491501331329346 -0.0112799806520342827
-0.433028250932693481 0.158330723643302917 -0.0667902156710624695
0.523306488990783691 -0.335251927375793457 0.0685127899050712585
0.263345718383789062 -0.285250067710876465 0.317928344011306763
0.00985974818468093872 -0.0906269475817680359 -0.0262004565447568893
0.0328720994293689728 -0.130101010203361511 0.0216351263225078583
-0.630638539791107178 0.265390902757644653 0.0290277227759361267
0.242430955171585083 0.0751910358667373657 0.31776157021522522
0.240100398659706116 0.0304624196141958237 0.318186163902282715
-0.174693435430526733 0.301437020301818848 0.116079799830913544
0.304370194673538208 -0.150522723793983459 0.307403981685638428
0.262324422597885132 -0.290082395076751709 0.320404499769210815
-0.475861340761184692 -0.00745635107159614563 0.166090860962867737
0.242998659610748291 0.0826671496033668518 0.311609476804733276
0.519893169403076172 -0.350824862718582153 0.0814131349325180054
-0.0350587740540504456 -0.237203821539878845 0.123474769294261932
-0.637432098388671875 0.290370047092437744 0.0988195091485977173
-0.234357878565788269 -0.132161274552345276 -0.0583384372293949127
-0.378538548946380615 -0.107931226491928101 0.105455368757247925
-0.236360535025596619 -0.147285476326942444 -0.0581934154033660889
-0.656859517097473145 0.214677691459655762 -0.0336893796920776367
0.528427779674530029 -0.352301120758056641 0.0773462802171707153
-0.620836138725280762 0.270757079124450684 0.0523341745138168335
-0.403542637825012207 -0.0636192411184310913 0.112516917288303375
-0.445570081472396851 -0.0405818410217761993 0.121977865695953369
0.268289297819137573 -0.284942567348480225 0.322892069816589355
0.127986490726470947 -0.326086163520812988 0.31197744607925415
0.152716577053070068 -0.342643678188323975 0.31706392765045166
0.446172356605529785 -0.335559695959091187 -0.294007182121276855
0.515313029289245605 -0.302354365587234497 -0.108236134052276611
0.514430582523345947 -0.280043423175811768 -0.313727438449859619
0.483532100915908813 -0.327802091836929321 -0.310752183198928833
0.463036566972732544 -0.345877856016159058 -0.30333748459815979
0.547956287860870361 -0.209919273853302002 -0.31618952751159668
0.523479104042053223 -0.299967676401138306 -0.322963923215866089
0.517108261585235596 -0.300798594951629639 -0.319278240203857422
0.246928051114082336 0.0578978285193443298 0.315847814083099365
0.241603851318359375 0.0883518382906913757 0.312017530202865601
-0.29221343994140625 -0.0998234152793884277 -0.10217016190290451
-0.452394992113113403 -0.0509512126445770264 0.11728978157043457
0.404410392045974731 -0.271520435810089111 0.322199761867523193
-0.502412199974060059 0.00435157772153615952 0.188690945506095886
0.400733590126037598 -0.286555320024490356 0.324562013149261475
0.398797869682312012 -0.272791594266891479 0.323116183280944824
0.341532915830612183 -0.258244723081588745 0.0893635749816894531
-0.0190589670091867447 -0.24383893609046936 0.128060370683670044
-0.464306861162185669 0.0363408029079437256 0.188917309045791626
-0.194271266460418701 0.222266882658004761 0.171456336975097656
0.365965008735656738 -0.328642755746841431 -0.0239538941532373428
0.322583466768264771 -0.38937494158744812 -0.159463733434677124
0.535168230533599854 -0.323069155216217041 -0.0587106160819530487
-0.441859185695648193 -0.00381517037749290466 0.152753099799156189
-0.0189631804823875427 -0.0591642186045646667 0.141283586621284485
-0.000547183677554130554 -0.235716640949249268 0.10588499903678894
0.525605499744415283 -0.201244175434112549 -0.0803795158863067627
0.448228776454925537 -0.308241665363311768 -0.293868273496627808
0.526150524616241455 -0.275387346744537354 -0.316406935453414917
0.498491644859313965 -0.325148195028305054 -0.313711315393447876
0.473413556814193726 -0.305379360914230347 -0.298403382301330566
-0.127061307430267334 0.247009232640266418 0.138652190566062927
-0.648292124271392822 0.282605469226837158 0.0944610089063644409
-0.199071064591407776 0.287323206663131714 0.335428565740585327
0.497317522764205933 -0.0861297324299812317 0.136176407337188721
0.200489670038223267 -0.358549445867538452 -0.0913992449641227722
0.505133330821990967 -0.367054462432861328 -0.0231674741953611374
0.52691948413848877 -0.241989925503730774 0.172445565462112427
-0.586061239242553711 0.379932552576065063 0.170008242130279541
0.443545609712600708 -0.314773738384246826 -0.288802891969680786
0.497905522584915161 -0.110450245440006256 0.111865580081939697
-0.655270516872406006 0.175559073686599731 -0.10393109917640686
-0.201797649264335632 0.309483468532562256 0.0891201719641685486
0.201320573687553406 -0.0129541736096143723 0.294653773307800293
0.160243406891822815 -0.0617084875702857971 -0.0444815866649150848
-0.579134106636047363 0.302832812070846558 0.368577033281326294
0.275031328201293945 0.0988624989986419678 -0.0296883806586265564
-0.436010360717773438 0.156414955854415894 -0.0865598767995834351
0.534047186374664307 -0.332580536603927612 0.0123135363683104515
-0.568877458572387695 0.19761243462562561 -0.2294272780418396
-0.497617572546005249 0.0455020815134048462 -0.0873589515686035156
0.0318326577544212341 -0.10387016087770462 0.0324891507625579834
0.533190369606018066 -0.264283448457717896 -0.31664004921913147
0.00940785743296146393 0.198117524385452271 0.0270986035466194153
0.301856815814971924 0.0393041707575321198 -0.0850871801376342773
-0.332185566425323486 -0.0153060238808393478 -0.108040839433670044
0.236723586916923523 0.015193515457212925 0.321043252944946289
0.125309079885482788 0.0137329539284110069 0.298136591911315918
0.527055501937866211 -0.354750901460647583 0.0660339891910552979
0.465445250272750854 -0.309775471687316895 -0.233725562691688538
-0.651503324508666992 0.285908222198486328 0.104679852724075317
0.545911133289337158 -0.2192545086145401 0.16323302686214447
0.52766871452331543 -0.322750210762023926 -0.0163880195468664169
-0.38260689377784729 -0.0555708780884742737 0.0762226581573486328
0.455480843782424927 -0.31088593602180481 -0.293214261531829834
0.504086017608642578 -0.340483605861663818 -0.318579196929931641
0.47735518217086792 -0.31442868709564209 -0.300378322601318359
0.519479453563690186 -0.301234066486358643 -0.318182408809661865
-0.00215816497802734375 -0.139230936765670776 -0.0249571017920970917
0.397161692380905151 -0.272360235452651978 0.323327094316482544
0.400828838348388672 -0.270770609378814697 0.323561131954193115
0.505351603031158447 -0.331538498401641846 0.105318300426006317
-0.467250794172286987 0.0431110113859176636 0.170311689376831055
0.409327507019042969 -0.345402538776397705 0.155958414077758789
-0.361350327730178833 -0.0345444194972515106 -0.148744165897369385
-0.128304973244667053 -0.267120242118835449 0.111940294504165649
0.512509346008300781 -0.368477851152420044 -0.015355817973613739
-0.21364632248878479 0.313287407159805298 0.0974533036351203918
0.251052796840667725 -0.286418795585632324 0.322266936302185059
0.208579123020172119 0.0101496176794171333 -0.04650164395570755
0.0704576075077056885 -0.151423528790473938 -0.0176351238042116165
-0.16943378746509552 0.30534026026725769 0.118797957897186279
0.470447421073913574 -0.364048421382904053 0.00651543866842985153
-0.291299641132354736 -0.098602294921875 -0.103403791785240173
0.0371489264070987701 -0.149611771106719971 -0.0219979677349328995
0.232538789510726929 0.0570544898509979248 0.30850645899772644
0.254002869129180908 -0.288008153438568115 0.319984972476959229
-0.471288561820983887 0.00179087882861495018 0.168490782380104065
0.241492211818695068 0.0634641125798225403 0.312315702438354492
0.508562386035919189 -0.351482570171356201 0.0635008960962295532
0.227551594376564026 -0.314104825258255005 0.314112097024917603
-0.375074267387390137 -0.0923757627606391907 0.0860740989446640015
-0.0622507072985172272 -0.240994155406951904 0.302047073841094971
-0.222285240888595581 -0.127021223306655884 -0.0532301515340805054
-0.409368842840194702 -0.0646435767412185669 0.0984050333499908447
-0.444604218006134033 -0.0439441390335559845 0.1324261873960495
0.23956221342086792 -0.29344448447227478 0.313743084669113159
0.154146894812583923 -0.323758125305175781 0.319590330123901367
0.424646645784378052 -0.255358427762985229 0.328418612480163574
0.436862915754318237 -0.342453867197036743 -0.293249666690826416
0.50537341833114624 -0.335208982229232788 -0.318796157836914062
0.443757593631744385 -0.352002829313278198 -0.287346780300140381
0.238804847002029419 0.0665513575077056885 0.311328738927841187
0.402984112501144409 -0.286788910627365112 0.325687259435653687
-0.494734436273574829 0.00744910119101405144 0.187822610139846802
0.485153436660766602 -0.0624587312340736389 0.131191521883010864
0.0127297006547451019 -0.170363068580627441 0.00958503596484661102
0.531286299228668213 -0.306963622570037842 -0.0626815557479858398
0.313982129096984863 -0.301641792058944702 -0.127205371856689453
0.444418638944625854 -0.2911376953125 -0.286334902048110962
-0.336457431316375732 0.225395441055297852 0.125522211194038391
-0.399902462959289551 -0.0275742523372173309 -0.00211253296583890915
0.402825027704238892 -0.270955413579940796 0.323913037776947021
-0.133200958371162415 0.196476832032203674 0.1672840416431427
0.39880332350730896 -0.270861119031906128 0.323816776275634766
-0.445738047361373901 -0.024410441517829895 0.0212556030601263046
-0.137387663125991821 0.24551701545715332 0.191534101963043213
-0.611887335777282715 0.294777333736419678 0.183628320693969727
0.125414371490478516 0.117148466408252716 0.31576073169708252
-0.120614528656005859 0.251265645027160645 0.161627694964408875
-0.58291471004486084 0.348495781421661377 0.0579400248825550079
0.426192283630371094 -0.347631901502609253 0.152398362755775452
-0.565858721733093262 0.295527517795562744 -0.0689543336629867554
0.25159144401550293 0.0273671969771385193 -0.0799592435359954834
0.247671470046043396 0.101276718080043793 -0.0487741939723491669
-0.357965528964996338 -0.0547282472252845764 -0.142314612865447998
0.198879063129425049 0.12073981761932373 0.0353943482041358948
0.54524075984954834 -0.130944222211837769 0.111755013465881348
-0.580839097499847412 0.321937143802642822 -0.0230179335922002792
0.206234261393547058 0.0253459364175796509 0.176326841115951538
-0.59520035982131958 0.375743061304092407 0.17174103856086731
0.444054096937179565 -0.31869933009147644 0.12685731053352356
0.256032466888427734 -0.277939826250076294 0.315885633230209351
0.235982626676559448 0.024746062234044075 0.315868884325027466
-0.362644404172897339 -0.048886716365814209 -0.0238932967185974121
-0.182298749685287476 0.118789419531822205 0.041939515620470047
0.255510777235031128 -0.287336051464080811 0.31868898868560791
0.242250978946685791 0.0341391302645206451 0.32115250825881958
0.399345815181732178 0.0241099987179040909 0.114487849175930023
-0.340714305639266968 -0.0652807801961898804 -0.147808760404586792
0.0762123316526412964 -0.332331269979476929 0.298515826463699341
-0.385996431112289429 -0.0597840100526809692 0.0939420908689498901
-0.447188615798950195 -0.0403461456298828125 0.127889841794967651
0.438977211713790894 -0.278455048799514771 0.333345502614974976
0.0352424457669258118 -0.122418895363807678 -0.0259074568748474121
0.414251804351806641 -0.279816895723342896 0.326591700315475464
0.432620704174041748 -0.295283228158950806 0.332918256521224976
0.366889089345932007 -0.277787953615188599 -0.130915090441703796
-0.477199077606201172 0.00215498544275760651 0.187896102666854858
-0.291724890470504761 -0.0952573493123054504 -0.104663118720054626
0.24169352650642395 -0.312067002058029175 0.309133768081665039
0.472673892974853516 -0.353924572467803955 0.00638986378908157349
-0.296633720397949219 -0.0953848212957382202 -0.106980256736278534
0.245212376117706299 -0.287784934043884277 0.319542169570922852
0.0627216100692749023 -0.328929007053375244 0.296518892049789429
0.15814971923828125 -0.267013400793075562 -0.105937600135803223
0.250669687986373901 0.064436011016368866 0.31465563178062439
-0.481806039810180664 -0.00676335953176021576 0.178042814135551453
0.237043797969818115 0.067509084939956665 0.313665270805358887
0.239025205373764038 -0.331002563238143921 0.321074038743972778
-0.381459563970565796 -0.0910956338047981262 0.0367098748683929443
-0.215880990028381348 -0.139282897114753723 -0.0546226203441619873
-0.381929904222488403 -0.0625738352537155151 0.0835461616516113281
0.150226414203643799 -0.330921292304992676 0.331469058990478516
0.445459246635437012 -0.27896544337272644 0.333273530006408691
0.407394737005233765 -0.279534459114074707 0.324765533208847046
-0.501888930797576904 0.00744243524968624115 0.188170388340950012
-0.321657776832580566 0.098011314868927002 -0.0708718150854110718
0.532170712947845459 -0.206601455807685852 -0.0529062710702419281
0.449708431959152222 -0.293620467185974121 -0.291520208120346069
0.486313819885253906 -0.325087457895278931 -0.311715960502624512
0.44511944055557251 -0.309390813112258911 -0.291963934898376465
-0.577043116092681885 0.269833743572235107 0.365709006786346436
-0.461668401956558228 0.106649622321128845 -0.231191322207450867
0.374133586883544922 -0.317896485328674316 0.198370590806007385
-0.589410006999969482 0.367534428834915161 0.130968809127807617
0.391754984855651855 -0.352286726236343384 -0.218157052993774414
0.439840555191040039 -0.309802234172821045 -0.289987891912460327
-0.199903696775436401 0.306141883134841919 0.0949772745370864868
-0.155378669500350952 0.268765866756439209 0.151541516184806824
0.529604613780975342 -0.337934881448745728 0.071413189172744751
0.462550938129425049 -0.26560249924659729 -0.217966794967651367
-0.633050084114074707 0.276375234127044678 0.106983304023742676
0.437145859003067017 -0.308076053857803345 -0.288087397813796997
0.514977216720581055 -0.276893377304077148 -0.317728817462921143
0.515802979469299316 -0.340026110410690308 -0.321613609790802002
0.453283160924911499 -0.306752771139144897 -0.294167101383209229
0.490454018115997314 -0.321260213851928711 0.093893297016620636
0.0211803391575813293 -0.275052815675735474 -0.018687080591917038
-0.653065681457519531 0.172073915600776672 -0.108177162706851959
-0.224068626761436462 0.319223731756210327 0.120943121612071991
0.464669674634933472 -0.363812714815139771 0.00510214362293481827
0.480516254901885986 -0.336134850978851318 0.0499218367040157318
0.510944485664367676 -0.339516431093215942 -0.320757627487182617
0.438874393701553345 -0.356176912784576416 -0.298654854297637939
-0.269714534282684326 0.322747707366943359 0.0417444631457328796
0.423044681549072266 -0.3129311203956604 -0.282289773225784302
0.415335774421691895 -0.294363468885421753 0.328080534934997559
-0.325914323329925537 -0.0747006684541702271 0.122998625040054321
-0.366631120443344116 -0.0658064112067222595 0.154725581407546997
-0.338069230318069458 0.215732559561729431 0.131907224655151367
0.0107019748538732529 0.119640573859214783 0.104676708579063416
0.542040169239044189 -0.308450996875762939 -0.0466714426875114441
0.0137833096086978912 -0.261239558458328247 0.0391440950334072113
-0.00340660102665424347 -0.235926106572151184 0.0937766432762145996
0.000517956912517547607 -0.219083577394485474 0.0810637548565864563
0.464176207780838013 -0.360530197620391846 0.0295631252229213715
-0.268981665372848511 -0.137405186891555786 0.176785945892333984
-0.344228535890579224 -0.0650089308619499207 0.141121074557304382
0.123395159840583801 -0.276086211204528809 0.128255933523178101
-0.133773773908615112 0.0795430019497871399 0.0899758338928222656
0.46268230676651001 -0.053698413074016571 0.0173176173120737076
-0.0140041206032037735 -0.216258198022842407 0.0798313170671463013
-0.554503738880157471 0.392420023679733276 0.147400826215744019
0.496339768171310425 -0.366313040256500244 0.00462555233389139175
-0.609985470771789551 0.294882148504257202 0.186361536383628845
0.529389500617980957 -0.274981021881103516 -0.318451255559921265
0.369795709848403931 -0.263859987258911133 0.180914640426635742
0.419706732034683228 -0.343847304582595825 0.150229975581169128
0.251757889986038208 0.0397737994790077209 -0.0671179145574569702
0.549083173274993896 -0.149109378457069397 0.123812161386013031
-0.570232868194580078 0.284492820501327515 -0.00692225433886051178
0.500422835350036621 -0.362514883279800415 -0.00158153707161545753
0.208814084529876709 0.116207391023635864 -0.0110668614506721497
-0.289019405841827393 -0.0850271880626678467 -0.0668459311127662659
0.159147709608078003 -0.0823107510805130005 -0.0365025363862514496
-0.338940054178237915 -0.104833230376243591 0.14116552472114563
0.5104026198387146 -0.281048357486724854 -0.314132452011108398
-0.338725030422210693 -0.0787898972630500793 0.0385717526078224182
-0.368689417839050293 0.281577914953231812 -0.0624788515269756317
0.50957489013671875 -0.340391218662261963 0.0645979121327400208
0.301925331354141235 -0.205142483115196228 0.247546583414077759
0.542651474475860596 -0.311312079429626465 -0.0611719861626625061
0.141931340098381042 0.0703156888484954834 0.335900664329528809
-0.59399878978729248 0.267935752868652344 0.0117973517626523972
0.222466617822647095 -0.00642290152609348297 0.294827163219451904
0.23116949200630188 0.0353062227368354797 0.312084406614303589
0.533406555652618408 -0.318924218416213989 -0.0132084507495164871
-0.388824254274368286 -0.0628473982214927673 0.106279462575912476
-0.446679204702377319 -0.0390937849879264832 0.126752346754074097
0.495166659355163574 -0.0906256362795829773 0.153894662857055664
0.251304268836975098 0.0641125664114952087 0.315727561712265015
-0.29106941819190979 -0.0919058918952941895 0.30675622820854187
-0.365792691707611084 -0.113911651074886322 0.103894494473934174
-0.562655389308929443 0.127862155437469482 -0.0785159021615982056
-0.500975310802459717 0.024241400882601738 0.186432138085365295
0.517249405384063721 -0.297313779592514038 -0.315149664878845215
0.471069246530532837 -0.328134357929229736 -0.300910055637359619
-0.573601722717285156 0.269560307264328003 0.362606197595596313
-0.570789992809295654 0.35541650652885437 0.166685298085212708
-0.191028967499732971 0.305166393518447876 0.101166486740112305
-0.661256551742553711 0.240264981985092163 0.0417815260589122772
-0.504560708999633789 0.145096242427825928 0.353030145168304443
0.506091296672821045 -0.347366243600845337 -0.319237470626831055
-0.199696481227874756 0.305592596530914307 0.102073460817337036
0.474617570638656616 -0.357408255338668823 0.00398379471153020859
0.509224653244018555 -0.330276727676391602 0.0657003670930862427
-0.610128998756408691 0.367894113063812256 0.0875498726963996887
-0.561357975006103516 0.28856620192527771 -0.0561070814728736877
0.220387369394302368 0.0110919475555419922 0.308313190937042236
0.240617662668228149 0.0060283290222287178 0.320999622344970703
-0.359905064105987549 -0.0558680519461631775 -0.138290464878082275
0.398927688598632812 -0.251965701580047607 0.321601390838623047
0.399085402488708496 -0.262396812438964844 0.324556171894073486
0.224267691373825073 -0.323447257280349731 0.320258855819702148
0.410726219415664673 -0.267067641019821167 0.324774712324142456
-0.508328735828399658 0.0503082945942878723 0.194943517446517944
-0.63029855489730835 0.156903818249702454 -0.0522260628640651703
-0.501764595508575439 0.147762417793273926 0.345092266798019409
0.519922316074371338 -0.350630342960357666 -0.324077248573303223
0.49505189061164856 -0.348297744989395142 -0.000598966144025325775
-0.197820112109184265 0.0169113315641880035 -0.0503303185105323792
-0.556798756122589111 0.342188119888305664 -0.00583711825311183929
0.488117307424545288 -0.360139131546020508 0.0404840186238288879
0.448328852653503418 -0.0735092610120773315 0.00138424104079604149
-0.555775880813598633 0.385640174150466919 0.157255500555038452
0.373758614063262939 -0.0803479105234146118 -0.120622187852859497
-0.389200985431671143 0.320288240909576416 0.168236598372459412
-0.384671956300735474 0.329105973243713379 0.19678109884262085
-0.36401665210723877 0.238668173551559448 -0.0840651243925094604
-0.407278746366500854 0.200070515275001526 0.0405654013156890869
-0.643484711647033691 0.287399262189865112 0.0940436720848083496
0.408163636922836304 -0.346597880125045776 0.135767355561256409
0.222526907920837402 0.0834517925977706909 -0.0340248532593250275
0.497938185930252075 -0.160528033971786499 0.123443260788917542
0.499743998050689697 -0.0920173823833465576 0.134164154529571533
0.21555444598197937 0.00248101679608225822 0.298739045858383179
-0.353008836507797241 -0.0671361908316612244 -0.00959627795964479446
-0.385374456644058228 0.266739547252655029 -0.0719245970249176025
0.506159007549285889 -0.346694916486740112 0.0543922781944274902
-0.357320606708526611 -0.055298246443271637 -0.145811304450035095
0.13271506130695343 0.0734996646642684937 0.321281492710113525
-0.0996564552187919617 -0.264984428882598877 0.00576263060793280602
0.242548957467079163 0.0242015067487955093 0.32117772102355957
-0.479585438966751099 -0.0108949150890111923 0.185367435216903687
0.242638573050498962 0.0492161288857460022 0.316515862941741943
-0.277971595525741577 0.333352178335189819 0.0404847227036952972
0.369370937347412109 -0.0302377641201019287 -0.0406147018074989319
0.520249009132385254 -0.34729456901550293 -0.0369661860167980194
0.293212443590164185 -0.0116563029587268829 0.0364471524953842163
-0.643301069736480713 0.285440236330032349 0.0928668230772018433
0.0362878665328025818 0.137116461992263794 0.0846646875143051147
-0.396783918142318726 -0.0568725168704986572 0.125901415944099426
-0.441123783588409424 -0.0375808849930763245 0.130806297063827515
0.523614704608917236 -0.317003011703491211 -0.0659251958131790161
0.422195672988891602 -0.279223740100860596 0.330807328224182129
0.509317517280578613 -0.344669252634048462 0.0564021579921245575
0.403363943099975586 -0.258149445056915283 0.323184102773666382
-0.479828745126724243 0.0187875889241695404 0.176205098628997803
0.236336261034011841 0.0693163275718688965 0.313306570053100586
-0.478870809078216553 -0.00752148404717445374 0.167402490973472595
0.239959284663200378 0.0682410448789596558 0.313603013753890991
0.387314021587371826 0.0265681445598602295 0.105209268629550934
0.219939380884170532 -0.31550636887550354 0.309688985347747803
0.382351160049438477 0.0434172302484512329 0.0682295560836791992
0.461938977241516113 0.0114104412496089935 0.174141600728034973
0.398998558521270752 -0.258025258779525757 0.326779812574386597
-0.499065160751342773 0.0218825936317443848 0.180342391133308411
-0.57269740104675293 0.266819506883621216 0.359860390424728394
-0.66344761848449707 0.230198919773101807 0.0218379329890012741
-0.148784980177879333 0.275917768478393555 0.0788655206561088562
0.521471917629241943 -0.33489227294921875 -0.323477029800415039
-0.220213040709495544 0.316271126270294189 0.0965119749307632446
0.499329715967178345 -0.346261084079742432 0.0663084611296653748
-0.189200565218925476 0.303446590900421143 0.114654116332530975
0.313511967658996582 -0.129490926861763 0.300057053565979004
0.225664436817169189 -0.0346760675311088562 0.304503202438354492
0.0576584003865718842 -0.330311626195907593 0.290940254926681519
0.434847116470336914 -0.279269307851791382 0.332303255796432495
0.408848464488983154 -0.285125553607940674 0.330410391092300415
0.385435402393341064 -0.265117019414901733 0.318394213914871216
0.396272927522659302 -0.384031325578689575 -0.226220950484275818
-0.16151757538318634 0.278927803039550781 0.128362685441970825
0.380060911178588867 0.0445179827511310577 0.0760808736085891724
