ply
format ascii 1.0
element vertex 738
property float x
property float y
property float z
end_header
0.508981049060821533 -0.299807369709014893 -0.10613483190536499
0.527987241744995117 -0.274070382118225098 -0.317642718553543091
0.492941588163375854 -0.331727266311645508 -0.311154663562774658
0.50318598747253418 -0.319152504205703735 0.0976658537983894348
0.473085135221481323 -0.305133312940597534 -0.298766016960144043
-0.559312999248504639 0.268920391798019409 0.364148527383804321
0.125529080629348755 0.117828227579593658 0.312959820032119751
-0.633780062198638916 0.283236950635910034 0.0542962998151779175
-0.587605297565460205 0.363726884126663208 0.102082327008247375
0.369972497224807739 -0.373260855674743652 -0.213498175144195557
0.438041865825653076 -0.347368776798248291 0.153615906834602356
0.0583916567265987396 0.122062906622886658 0.320551693439483643
-0.574664592742919922 0.369743376970291138 0.215223506093025208
0.264300882816314697 0.0253866966813802719 -0.0593090727925300598
0.367922216653823853 -0.336165070533752441 0.160006940364837646
0.510472774505615234 -0.300506711006164551 -0.112648054957389832
0.133468031883239746 -0.319733262062072754 -0.0984605103731155396
0.516629815101623535 -0.34773215651512146 -0.020819246768951416
0.388279885053634644 -0.345842272043228149 -0.214825481176376343
-0.576743483543395996 0.320071935653686523 0.0407905727624893188
0.535942018032073975 -0.277037978172302246 -0.32114255428314209
0.466599881649017334 -0.310331642627716064 -0.299745529890060425
0.507076263427734375 -0.34599602222442627 0.0177539903670549393
-0.555907011032104492 0.310598552227020264 0.101760044693946838
0.193825587630271912 -0.338637232780456543 -0.0598368346691131592
0.0702586546540260315 -0.281510084867477417 -0.0782545283436775208
0.252686917781829834 -0.249656423926353455 0.319433659315109253
0.23997381329536438 0.0319437682628631592 0.31601288914680481
-0.121352389454841614 -0.0469836518168449402 0.00737548619508743286
0.179273426532745361 -0.0995020568370819092 -0.015221673995256424
0.532588660717010498 -0.331133902072906494 -0.0138902086764574051
0.369262874126434326 -0.348762542009353638 -0.209868103265762329
0.534804463386535645 -0.245108082890510559 0.17684483528137207
0.560885906219482422 -0.314996629953384399 -0.331408441066741943
0.554269790649414062 -0.211006566882133484 0.133760467171669006
-0.543752908706665039 0.381798982620239258 0.164124220609664917
0.123477637767791748 0.117674946784973145 0.132656052708625793
-0.582190990447998047 0.352846086025238037 0.0973716676235198975
-0.482639431953430176 0.186787351965904236 -0.0922939479351043701
0.515651583671569824 -0.338222980499267578 0.0382478423416614532
0.254227429628372192 -0.278455346822738647 0.321163773536682129
0.277581989765167236 -0.355146974325180054 -0.126631811261177063
0.507285416126251221 -0.285943537950515747 -0.314161598682403564
-0.432162046432495117 -0.0564799755811691284 0.116184554994106293
0.201769694685935974 0.0911582633852958679 0.22272123396396637
0.244105130434036255 0.105256028473377228 -0.0581009648740291595
-0.195836693048477173 0.202334895730018616 0.348224997520446777
0.250500202178955078 0.0257541611790657043 0.322552263736724854
0.239973247051239014 0.0198700167238712311 0.320366144180297852
-0.0309860836714506149 0.163735285401344299 0.382333934307098389
-0.482791125774383545 -0.014825889840722084 0.179774627089500427
0.483483105897903442 -0.368332207202911377 0.0455552339553833008
-0.643433094024658203 0.287821531295776367 0.0862046480178833008
0.275587499141693115 -0.165039569139480591 -0.0710166171193122864
-0.411888718605041504 -0.0561673156917095184 0.0781644880771636963
-0.64273679256439209 0.176073580980300903 -0.0819638520479202271
-0.226075261831283569 -0.133094474673271179 -0.0526180602610111237
0.255249738693237305 -0.264733552932739258 0.320287138223648071
-0.345677942037582397 0.0179078355431556702 -0.117582008242607117
-0.287418514490127563 -0.0903674215078353882 -0.10625728964805603
-0.585890769958496094 0.210404872894287109 -0.218506515026092529
0.267422378063201904 -0.296283572912216187 0.314733356237411499
-0.0256836414337158203 -0.186508357524871826 -0.0438936799764633179
-0.618076205253601074 0.277810633182525635 0.031390797346830368
-0.608426272869110107 0.298875242471694946 0.0922469869256019592
-0.397223860025405884 -0.0621574036777019501 0.118507839739322662
-0.451352328062057495 -0.0373203083872795105 0.118833065032958984
0.431650012731552124 -0.271079480648040771 0.328461408615112305
-0.052428223192691803 0.141386821866035461 0.0912089943885803223
-0.503548264503479004 0.152075409889221191 0.355141133069992065
0.240988433361053467 -0.318669825792312622 0.322159945964813232
0.497142255306243896 -0.370179653167724609 0.0567976981401443481
0.399356424808502197 -0.256202042102813721 0.321972250938415527
-0.157911375164985657 -0.262888103723526001 0.181067675352096558
-0.49958685040473938 0.0148297417908906937 0.157105118036270142
0.41774865984916687 -0.29659724235534668 0.328183650970458984
0.535762429237365723 -0.339453667402267456 -0.0191777925938367844
0.34357154369354248 -0.266553044319152832 -0.128393769264221191
-0.496181100606918335 0.0726475119590759277 0.203397810459136963
0.443858474493026733 -0.271388232707977295 0.332913905382156372
0.52251136302947998 -0.334557086229324341 0.0321027226746082306
0.452850222587585449 -0.319215536117553711 -0.293539106845855713
0.473645687103271484 -0.310948818922042847 0.116620101034641266
0.517084002494812012 -0.277813702821731567 -0.313345909118652344
0.50180506706237793 -0.325397729873657227 -0.314776301383972168
0.518061816692352295 -0.326249748468399048 0.101471155881881714
0.4784201979637146 -0.311019659042358398 -0.302763640880584717
0.114559382200241089 0.119207389652729034 0.288289636373519897
-0.122171655297279358 0.269369721412658691 0.158350437879562378
-0.614730596542358398 0.265954673290252686 0.0516668707132339478
-0.479832887649536133 0.0038224649615585804 0.180572628974914551
0.426322698593139648 -0.35449942946434021 0.158044904470443726
-0.292515426874160767 -0.109554603695869446 -0.105700097978115082
0.130979299545288086 0.0664006993174552917 0.320506036281585693
0.252972930669784546 0.0395804159343242645 -0.0785074904561042786
0.235315322875976562 0.0945573002099990845 -0.0538208968937397003
0.417251557111740112 -0.260901868343353271 -0.202908352017402649
0.521771550178527832 -0.353732973337173462 -0.0199097767472267151
-0.608844995498657227 0.381711840629577637 0.181028753519058228
0.517456769943237305 -0.278704166412353516 -0.315259456634521484
0.499066531658172607 -0.349119633436203003 0.0236769635230302811
-0.587899506092071533 0.370120227336883545 0.11293300986289978
0.505740165710449219 -0.104206904768943787 0.146785810589790344
-0.197998762130737305 0.312274754047393799 0.112551242113113403
0.264279931783676147 -0.285915255546569824 0.319166064262390137
0.237544193863868713 0.0631324797868728638 0.309421658515930176
-0.144661515951156616 -0.0428304001688957214 0.00362187903374433517
-0.656911551952362061 0.215048402547836304 -0.0462023466825485229
-0.288727343082427979 -0.0755719542503356934 -0.069255344569683075
0.227162182331085205 0.0427437908947467804 -0.048856738954782486
0.55112987756729126 -0.14383794367313385 0.13184693455696106
0.519802212715148926 -0.294565945863723755 0.0743673741817474365
0.517512083053588867 -0.283308982849121094 -0.181703150272369385
-0.357635587453842163 -0.0163627248257398605 -0.0282020308077335358
0.0912554562091827393 0.0886604338884353638 0.0851531773805618286
0.466503113508224487 -0.361086606979370117 -0.0113372867926955223
-0.433746188879013062 0.158509209752082825 -0.0671151801943778992
0.524013519287109375 -0.334779322147369385 0.0683891251683235168
0.263163357973098755 -0.285280466079711914 0.317854791879653931
0.00976205244660377502 -0.0904843360185623169 -0.026269981637597084
0.0326150134205818176 -0.129889011383056641 0.0216371268033981323
-0.630653798580169678 0.26564490795135498 0.0290588513016700745
0.242502838373184204 0.0752475559711456299 0.317649096250534058
0.240232720971107483 0.0304953586310148239 0.318155378103256226
-0.174888819456100464 0.301719993352890015 0.116033270955085754
0.304384082555770874 -0.15054735541343689 0.307461351156234741
0.262144923210144043 -0.290080726146697998 0.320395559072494507
-0.476478874683380127 -0.00724862329661846161 0.165860980749130249
0.242874190211296082 0.082723468542098999 0.311403512954711914
0.520280778408050537 -0.350617945194244385 0.0812519937753677368
-0.0349387302994728088 -0.237149029970169067 0.123551800847053528
-0.637777209281921387 0.290536820888519287 0.0988229960203170776
-0.234775274991989136 -0.131897300481796265 -0.0582158975303173065
-0.379144728183746338 -0.107865281403064728 0.105078227818012238
-0.236680448055267334 -0.146977335214614868 -0.058195158839225769
-0.657000601291656494 0.214847415685653687 -0.0336848907172679901
0.529013395309448242 -0.351974993944168091 0.0771027505397796631
-0.62117469310760498 0.270882099866867065 0.0523171387612819672
-0.403776317834854126 -0.0638026297092437744 0.111983463168144226
-0.446228832006454468 -0.0407333485782146454 0.121069684624671936
0.268081516027450562 -0.285025864839553833 0.323031365871429443
0.128100097179412842 -0.326037287712097168 0.311784327030181885
0.152933865785598755 -0.342680096626281738 0.316922664642333984
0.447006851434707642 -0.335121273994445801 -0.293691009283065796
0.515939116477966309 -0.302020132541656494 -0.108510009944438934
0.514982819557189941 -0.279637575149536133 -0.313333630561828613
0.484092533588409424 -0.327256232500076294 -0.310283303260803223
0.463566899299621582 -0.345417052507400513 -0.303135603666305542
0.548785507678985596 -0.209780231118202209 -0.31595960259437561
0.52383655309677124 -0.299320638179779053 -0.322997033596038818
0.517638862133026123 -0.30026620626449585 -0.318850874900817871
0.246993988752365112 0.0579610876739025116 0.315584331750869751
0.241659432649612427 0.0884886905550956726 0.31189379096031189
-0.292156517505645752 -0.0995348244905471802 -0.101970694959163666
-0.453177809715270996 -0.0510013587772846222 0.116591557860374451
0.40503200888633728 -0.271547108888626099 0.322070658206939697
-0.502882719039916992 0.00443551782518625259 0.188246935606002808
0.401151388883590698 -0.286598414182662964 0.324382305145263672
0.399497121572494507 -0.272836446762084961 0.322906821966171265
0.341753780841827393 -0.258276194334030151 0.0894782394170761108
-0.0188509542495012283 -0.243917211890220642 0.128207772970199585
-0.464891225099563599 0.0365399345755577087 0.18859688937664032
-0.194822505116462708 0.222276866436004639 0.171215265989303589
0.366348177194595337 -0.328620225191116333 -0.0239805560559034348
0.322490304708480835 -0.389504849910736084 -0.159591943025588989
0.535505592823028564 -0.322725653648376465 -0.058858528733253479
-0.442300140857696533 -0.0037799198180437088 0.152051731944084167
-0.0186135359108448029 -0.0591782107949256897 0.141239553689956665
-0.000456256791949272156 -0.235789120197296143 0.105979189276695251
0.525837361812591553 -0.201053529977798462 -0.0801223963499069214
0.449010789394378662 -0.307881087064743042 -0.293418347835540771
0.52669215202331543 -0.274784564971923828 -0.316185414791107178
0.499107718467712402 -0.32433965802192688 -0.313238143920898438
0.474049687385559082 -0.304537057876586914 -0.298028945922851562
-0.12744574248790741 0.247263073921203613 0.138621017336845398
-0.648591041564941406 0.282731473445892334 0.0944983512163162231
-0.199335142970085144 0.287430644035339355 0.335302472114562988
0.497584730386734009 -0.0860105529427528381 0.136147439479827881
0.200432419776916504 -0.358594417572021484 -0.0915612280368804932
0.505424678325653076 -0.3668174147605896 -0.0231885220855474472
0.527159273624420166 -0.241959825158119202 0.172641649842262268
-0.586375415325164795 0.380206435918807983 0.170130521059036255
0.444338083267211914 -0.314451694488525391 -0.288320660591125488
0.498336434364318848 -0.110539570450782776 0.111747235059738159
-0.65492933988571167 0.175661355257034302 -0.103662356734275818
-0.202099964022636414 0.309775829315185547 0.0890902578830718994
0.201573550701141357 -0.0130359772592782974 0.294538646936416626
0.160188853740692139 -0.0615636855363845825 -0.044576399028301239
-0.579482316970825195 0.302912533283233643 0.368577003479003906
0.274724781513214111 0.0990683510899543762 -0.0296774767339229584
-0.436572939157485962 0.156572461128234863 -0.0867683440446853638
0.534765005111694336 -0.332126110792160034 0.0120160272344946861
-0.569737851619720459 0.19777873158454895 -0.229581460356712341
-0.498223662376403809 0.04575318843126297 -0.0875515416264533997
0.0319867879152297974 -0.103594116866588593 0.0325620099902153015
0.533721804618835449 -0.263759732246398926 -0.316828250885009766
0.00962044857442378998 0.198295846581459045 0.027147684246301651
0.301372379064559937 0.0395601242780685425 -0.0852897688746452332
-0.331948280334472656 -0.0152790974825620651 -0.108087942004203796
0.236945316195487976 0.0152192478999495506 0.321056723594665527
0.125442743301391602 0.0137738781049847603 0.298030316829681396
0.527788162231445312 -0.354476213455200195 0.0655353516340255737
0.466114431619644165 -0.309334069490432739 -0.233601704239845276
-0.651671171188354492 0.286024034023284912 0.104647919535636902
0.54575735330581665 -0.219356119632720947 0.16343197226524353
0.52817302942276001 -0.32243812084197998 -0.016772070899605751
-0.38280823826789856 -0.0554368607699871063 0.0757012516260147095
0.456273943185806274 -0.310567587614059448 -0.292896628379821777
0.504346847534179688 -0.339268326759338379 -0.318429440259933472
0.478078752756118774 -0.313997387886047363 -0.300065904855728149
0.52006906270980835 -0.300687611103057861 -0.317813396453857422
-0.00227124989032745361 -0.139135971665382385 -0.0249999575316905975
0.39783477783203125 -0.272397905588150024 0.32305222749710083
0.401526093482971191 -0.270816415548324585 0.323292136192321777
0.505920529365539551 -0.331119507551193237 0.105670705437660217
-0.467785656452178955 0.0432435125112533569 0.169833511114120483
0.409498125314712524 -0.345302283763885498 0.156002134084701538
-0.361057817935943604 -0.0344217903912067413 -0.148865506052970886
-0.128088191151618958 -0.267134189605712891 0.112021066248416901
0.512632966041564941 -0.368173062801361084 -0.0154214203357696533
-0.213669419288635254 0.31341060996055603 0.0974293723702430725
0.250994622707366943 -0.286428123712539673 0.322286546230316162
0.2085094153881073 0.0102616725489497185 -0.0465686842799186707
0.0708466917276382446 -0.151539802551269531 -0.01771523617208004
-0.169761344790458679 0.305590450763702393 0.118725612759590149
0.470715582370758057 -0.363467991352081299 0.00655318330973386765
-0.291277080774307251 -0.0982706397771835327 -0.103162504732608795
0.0369384624063968658 -0.149362474679946899 -0.0221372079104185104
0.232509046792984009 0.0570943728089332581 0.308227509260177612
0.253898382186889648 -0.288007050752639771 0.319993078708648682
-0.47189176082611084 0.00191417662426829338 0.168124794960021973
0.2414284348487854 0.0636739060282707214 0.312143892049789429
0.509069979190826416 -0.351304590702056885 0.063253358006477356
0.227723836898803711 -0.3141346275806427 0.314046978950500488
-0.375390470027923584 -0.0922329649329185486 0.0856463313102722168
-0.0622848905622959137 -0.24101141095161438 0.302015364170074463
-0.222702249884605408 -0.126744359731674194 -0.0531851723790168762
-0.409744352102279663 -0.0646053999662399292 0.0980072245001792908
-0.445172935724258423 -0.0440316572785377502 0.131685495376586914
0.239667713642120361 -0.29344591498374939 0.313688755035400391
0.154462531208992004 -0.323839873075485229 0.319478839635848999
0.425551354885101318 -0.255350023508071899 0.327987372875213623
0.437516987323760986 -0.342119127511978149 -0.293271392583847046
0.505727827548980713 -0.333825409412384033 -0.31857752799987793
0.444606602191925049 -0.351821422576904297 -0.287335336208343506
0.238786607980728149 0.0667065829038619995 0.311280339956283569
0.403397709131240845 -0.286835461854934692 0.325571954250335693
-0.49515831470489502 0.0075609288178384304 0.187521696090698242
0.485532969236373901 -0.0624948665499687195 0.131133973598480225
0.012675207108259201 -0.170188814401626587 0.00946790166199207306
0.531646132469177246 -0.306594401597976685 -0.0626711025834083557
0.313935667276382446 -0.301578670740127563 -0.127078458666801453
0.4454193115234375 -0.290777117013931274 -0.286110013723373413
-0.336974382400512695 0.225550621747970581 0.125041648745536804
-0.399662107229232788 -0.0273538939654827118 -0.00197270046919584274
0.40347057580947876 -0.270953267812728882 0.323642849922180176
-0.133573532104492188 0.196604326367378235 0.166885241866111755
0.399568855762481689 -0.270915240049362183 0.323531895875930786
-0.445856958627700806 -0.0243013184517621994 0.0210246648639440536
-0.137517929077148438 0.245580509305000305 0.191504865884780884
-0.612338483333587646 0.295000851154327393 0.183615177869796753
0.125207647681236267 0.117086321115493774 0.315722346305847168
-0.120857715606689453 0.251363664865493774 0.161493420600891113
-0.583130955696105957 0.348788529634475708 0.0578321255743503571
0.426594465970993042 -0.347494959831237793 0.152367293834686279
-0.566690683364868164 0.295812755823135376 -0.0692690759897232056
0.251349687576293945 0.0275015812367200851 -0.0802087858319282532
0.247312545776367188 0.101384341716766357 -0.0489416606724262238
-0.357771247625350952 -0.054604358971118927 -0.142114952206611633
0.198807701468467712 0.120901547372341156 0.035146273672580719
0.545233786106109619 -0.130918115377426147 0.112097524106502533
-0.581239581108093262 0.322313249111175537 -0.0230475310236215591
0.206135690212249756 0.0254479311406612396 0.176268547773361206
-0.595284938812255859 0.375782281160354614 0.171711161732673645
0.444420933723449707 -0.318503499031066895 0.126863941550254822
0.255984604358673096 -0.277928560972213745 0.315769881010055542
0.236012965440750122 0.0247876327484846115 0.315890640020370483
-0.362705409526824951 -0.0487478896975517273 -0.0239931754767894745
-0.182250156998634338 0.119120627641677856 0.0419405363500118256
0.255320936441421509 -0.287361770868301392 0.318704962730407715
0.242283269762992859 0.0341066494584083557 0.321103990077972412
0.399587690830230713 0.0240002032369375229 0.114531710743904114
-0.340679854154586792 -0.0651145800948143005 -0.147925317287445068
0.0763843804597854614 -0.332438468933105469 0.298434317111968994
-0.386048227548599243 -0.0599226169288158417 0.0930676013231277466
-0.447841048240661621 -0.0403421707451343536 0.126855343580245972
0.439903527498245239 -0.278416961431503296 0.333203762769699097
0.0347659029066562653 -0.122137367725372314 -0.0258876904845237732
0.414812177419662476 -0.27982446551322937 0.326463609933853149
0.433479428291320801 -0.295361995697021484 0.332711368799209595
0.367263495922088623 -0.277873426675796509 -0.130860447883605957
-0.477827012538909912 0.00226045027375221252 0.187634781002998352
-0.291605770587921143 -0.0949191004037857056 -0.10433032363653183
0.24187767505645752 -0.312080025672912598 0.308986514806747437
0.473111897706985474 -0.35335850715637207 0.00651571154594421387
-0.296386241912841797 -0.0951015949249267578 -0.106614761054515839
0.24516606330871582 -0.287770777940750122 0.319503545761108398
0.0627275407314300537 -0.328960418701171875 0.29640883207321167
0.158404946327209473 -0.266860693693161011 -0.106073558330535889
0.250573217868804932 0.0644045472145080566 0.314599931240081787
-0.482411712408065796 -0.00675484910607337952 0.177874833345413208
0.23707851767539978 0.0676171630620956421 0.313627898693084717
0.239301443099975586 -0.331019371747970581 0.320922493934631348
-0.381329506635665894 -0.0908663943409919739 0.0367180034518241882
-0.216538116335868835 -0.138846784830093384 -0.0546560250222682953
-0.382312685251235962 -0.0625995993614196777 0.082718580961227417
0.150771021842956543 -0.331055372953414917 0.331333935260772705
0.446419984102249146 -0.27899247407913208 0.333118200302124023
0.407822996377944946 -0.279553651809692383 0.324585199356079102
-0.502374887466430664 0.00748403742909431458 0.187790006399154663
-0.321595907211303711 0.0980833172798156738 -0.0708620250225067139
0.532271444797515869 -0.206481099128723145 -0.0527267307043075562
0.450665414333343506 -0.293040633201599121 -0.291094809770584106
0.486905097961425781 -0.324536174535751343 -0.311427712440490723
0.445770263671875 -0.308986008167266846 -0.291457027196884155
-0.577267348766326904 0.269960999488830566 0.36567234992980957
-0.462231725454330444 0.106713280081748962 -0.231543749570846558
0.374454587697982788 -0.317907214164733887 0.198547497391700745
-0.589842915534973145 0.36785927414894104 0.13104894757270813
0.391614824533462524 -0.35228961706161499 -0.217965230345726013
0.440650641918182373 -0.309540420770645142 -0.289648324251174927
-0.200322553515434265 0.306468188762664795 0.0949287265539169312
-0.155724778771400452 0.268782645463943481 0.151251152157783508
0.530266344547271729 -0.337530761957168579 0.0710786879062652588
0.463100910186767578 -0.265486240386962891 -0.21802443265914917
-0.633495867252349854 0.276673853397369385 0.106954634189605713
0.437891721725463867 -0.307728111743927002 -0.287735611200332642
0.515490829944610596 -0.276403337717056274 -0.317360281944274902
0.516502737998962402 -0.33955228328704834 -0.321159690618515015
0.454074233770370483 -0.306418657302856445 -0.293790280818939209
0.490924030542373657 -0.321054935455322266 0.0938423871994018555
0.0214245393872261047 -0.275017112493515015 -0.0185499228537082672
-0.652960717678070068 0.172201275825500488 -0.107960924506187439
-0.224048316478729248 0.319446265697479248 0.120880216360092163
0.465167731046676636 -0.363140493631362915 0.00535142142325639725
0.48123323917388916 -0.336022049188613892 0.0494941622018814087
0.511322557926177979 -0.338592767715454102 -0.320006281137466431
0.439570397138595581 -0.355753958225250244 -0.29842221736907959
-0.269674152135848999 0.323059380054473877 0.0419023483991622925
0.42380794882774353 -0.312590479850769043 -0.2824135422706604
0.416037082672119141 -0.294408112764358521 0.327924817800521851
-0.326345562934875488 -0.0744576156139373779 0.122870549559593201
-0.367200404405593872 -0.0655929297208786011 0.154138907790184021
-0.338430345058441162 0.215761303901672363 0.131801441311836243
0.0102632027119398117 0.119835406541824341 0.104557991027832031
0.542283535003662109 -0.308181673288345337 -0.0467496924102306366
0.0141637474298477173 -0.261219650506973267 0.0390794165432453156
-0.00346179492771625519 -0.235955417156219482 0.0938405096530914307
0.000558130443096160889 -0.219088196754455566 0.0809676274657249451
0.464753985404968262 -0.360014170408248901 0.0298512689769268036
-0.269518375396728516 -0.13728390634059906 0.176637381315231323
-0.344357699155807495 -0.0648982897400856018 0.140674024820327759
0.123640887439250946 -0.276255190372467041 0.128116130828857422
-0.134016662836074829 0.0797061547636985779 0.0898460298776626587
0.463181436061859131 -0.0536949783563613892 0.0171828549355268478
-0.0138779524713754654 -0.216294005513191223 0.0798614174127578735
-0.554894864559173584 0.392601728439331055 0.147373169660568237
0.496752768754959106 -0.365831702947616577 0.00479530636221170425
-0.610398948192596436 0.295011222362518311 0.186376631259918213
0.530015230178833008 -0.274419009685516357 -0.318138867616653442
0.370063871145248413 -0.263790935277938843 0.181069448590278625
0.420048296451568604 -0.343676447868347168 0.150276854634284973
0.251313745975494385 0.0402424037456512451 -0.0674268901348114014
0.549153327941894531 -0.149140626192092896 0.124012678861618042
-0.570661246776580811 0.284633785486221313 -0.00697797350585460663
0.500959932804107666 -0.361447274684906006 -0.001318326685577631
0.208896845579147339 0.116246014833450317 -0.0111816935241222382
-0.289040297269821167 -0.0849498063325881958 -0.0668560788035392761
0.159468337893486023 -0.0823383703827857971 -0.0362802445888519287
-0.339550554752349854 -0.104606553912162781 0.140717759728431702
0.510885953903198242 -0.280664294958114624 -0.313905060291290283
-0.338948339223861694 -0.0785126388072967529 0.0384333804249763489
-0.369387567043304443 0.281804949045181274 -0.0627933889627456665
0.510057568550109863 -0.340117484331130981 0.0644956827163696289
0.301723897457122803 -0.205266430974006653 0.247753500938415527
0.543074131011962891 -0.311020493507385254 -0.0611128322780132294
0.142194896936416626 0.0703014805912971497 0.335786521434783936
-0.594144284725189209 0.268196344375610352 0.0117465164512395859
0.222535118460655212 -0.00649484433233737946 0.29482761025428772
0.231136664748191833 0.0352735891938209534 0.312019824981689453
0.533914864063262939 -0.318548977375030518 -0.013567773625254631
-0.388834863901138306 -0.0631978660821914673 0.105447232723236084
-0.447328180074691772 -0.0390921235084533691 0.125777706503868103
0.495532184839248657 -0.0906252861022949219 0.153975158929824829
0.251252710819244385 0.0640747994184494019 0.315684884786605835
-0.29085204005241394 -0.0918050482869148254 0.306597262620925903
-0.366229057312011719 -0.113599970936775208 0.10375899076461792
-0.563485205173492432 0.128249838948249817 -0.0785910189151763916
-0.501419782638549805 0.0244130454957485199 0.186202779412269592
0.517881095409393311 -0.296688675880432129 -0.314574092626571655
0.47185748815536499 -0.327751040458679199 -0.300382554531097412
-0.573764026165008545 0.269605875015258789 0.362609744071960449
-0.57125556468963623 0.355732828378677368 0.166658595204353333
-0.191303819417953491 0.30546078085899353 0.101171001791954041
-0.661179244518280029 0.240382581949234009 0.0419290028512477875
-0.50492560863494873 0.145307272672653198 0.352965176105499268
0.506533980369567871 -0.346502125263214111 -0.318867862224578857
-0.20006096363067627 0.305826902389526367 0.102004334330558777
0.475028663873672485 -0.356900483369827271 0.00406109075993299484
0.509849607944488525 -0.32987678050994873 0.0657830983400344849
-0.610476791858673096 0.368190556764602661 0.0875773206353187561
-0.562546074390411377 0.289030075073242188 -0.0561920814216136932
0.220737248659133911 0.0111474618315696716 0.308170348405838013
0.240836992859840393 0.00599235575646162033 0.320914238691329956
-0.359834283590316772 -0.0557571165263652802 -0.138183921575546265
0.399278849363327026 -0.252068251371383667 0.321511954069137573
0.399781286716461182 -0.262413322925567627 0.324244469404220581
0.224480703473091125 -0.323440790176391602 0.320129692554473877
0.411246031522750854 -0.267055213451385498 0.324569106101989746
-0.50860220193862915 0.0503922253847122192 0.194805681705474854
-0.630758821964263916 0.157176032662391663 -0.0525809861719608307
-0.501980781555175781 0.147917330265045166 0.345036089420318604
0.520682215690612793 -0.349982082843780518 -0.323611617088317871
0.495346426963806152 -0.34733206033706665 -0.00020781438797712326
-0.19824865460395813 0.0171105526387691498 -0.0503386668860912323
-0.557173550128936768 0.342470437288284302 -0.00595276989042758942
0.488574087619781494 -0.359730124473571777 0.040284380316734314
0.44881361722946167 -0.0737063139677047729 0.00137327378615736961
-0.556530654430389404 0.386156469583511353 0.157335057854652405
0.373759955167770386 -0.0803988277912139893 -0.120666429400444031
-0.389621376991271973 0.320519745349884033 0.168135285377502441
-0.384889781475067139 0.329277664422988892 0.196727558970451355
-0.364544004201889038 0.238949120044708252 -0.0842446163296699524
-0.407423675060272217 0.200335636734962463 0.0402746275067329407
-0.643791675567626953 0.287503212690353394 0.0940721333026885986
0.408469319343566895 -0.346608847379684448 0.135664284229278564
0.222409456968307495 0.0835320428013801575 -0.0341920033097267151
0.498313546180725098 -0.160592555999755859 0.123429074883460999
0.500022411346435547 -0.0921362116932868958 0.134131506085395813
0.215643808245658875 0.00239172531291842461 0.298662245273590088
-0.352919131517410278 -0.0669757574796676636 -0.00957845617085695267
-0.385633796453475952 0.266752541065216064 -0.0722365304827690125
0.506641268730163574 -0.346346467733383179 0.0543215759098529816
-0.357152462005615234 -0.0551548302173614502 -0.145600408315658569
0.132836952805519104 0.0734317973256111145 0.321138858795166016
-0.0991089195013046265 -0.264973640441894531 0.00606908043846487999
0.242627337574958801 0.0242270957678556442 0.321182698011398315
-0.480385631322860718 -0.0106697697192430496 0.185120046138763428
0.242729067802429199 0.0492911487817764282 0.316401869058609009
-0.277708292007446289 0.333627611398696899 0.0408373922109603882
0.36950567364692688 -0.0303122177720069885 -0.040742337703704834
0.520548045635223389 -0.347163259983062744 -0.0371584035456180573
0.293221443891525269 -0.0115384552627801895 0.0363446809351444244
-0.643672406673431396 0.285572588443756104 0.0929244458675384521
0.0358168706297874451 0.137223154306411743 0.084388241171836853
-0.3967704176902771 -0.0566605627536773682 0.125173553824424744
-0.441711246967315674 -0.0375464633107185364 0.130200818181037903
0.523946702480316162 -0.316668182611465454 -0.066115058958530426
0.423002690076828003 -0.279242068529129028 0.330577850341796875
0.5098152756690979 -0.344200372695922852 0.0565662011504173279
0.404026269912719727 -0.258177489042282104 0.322907298803329468
-0.480478405952453613 0.0189130380749702454 0.176016166806221008
0.236366435885429382 0.0694045946002006531 0.313230335712432861
-0.479488372802734375 -0.00733583420515060425 0.167149484157562256
0.239974170923233032 0.0683606788516044617 0.313455581665039062
0.387437105178833008 0.0264405719935894012 0.105231627821922302
0.22014281153678894 -0.315669268369674683 0.309639275074005127
0.382526010274887085 0.0434364825487136841 0.068129420280456543
0.462367624044418335 0.011464165523648262 0.174161314964294434
0.399630248546600342 -0.258064478635787964 0.326529115438461304
-0.499847382307052612 0.0220479853451251984 0.180130034685134888
-0.572962164878845215 0.26686897873878479 0.359854221343994141
-0.663335084915161133 0.230291768908500671 0.0220013838261365891
-0.149212151765823364 0.276183485984802246 0.0787752941250801086
0.522021114826202393 -0.334310859441757202 -0.323183327913284302
-0.220275908708572388 0.316504061222076416 0.0965726152062416077
0.499909341335296631 -0.345811069011688232 0.066334947943687439
-0.18964463472366333 0.303692996501922607 0.114544764161109924
0.313102036714553833 -0.129451006650924683 0.300117313861846924
0.225788325071334839 -0.0347223207354545593 0.304462015628814697
0.0576448403298854828 -0.330326378345489502 0.29088863730430603
0.435753911733627319 -0.279255092144012451 0.332051575183868408
0.409262031316757202 -0.285133630037307739 0.330347597599029541
0.385866791009902954 -0.265072524547576904 0.318184912204742432
0.396343469619750977 -0.384154319763183594 -0.226178854703903198
-0.161861017346382141 0.278959214687347412 0.128193378448486328
0.380016356706619263 0.0444320589303970337 0.0759417116641998291
0.390860944986343384 -0.255189180374145508 0.318129062652587891
-0.500365793704986572 0.0252671092748641968 0.18513953685760498
0.498946607112884521 -0.325396060943603516 -0.313921958208084106
0.379161536693572998 -0.375358492136001587 -0.217051640152931213
0.520986080169677734 -0.348617851734161377 -0.325533360242843628
0.52033156156539917 -0.347723931074142456 -0.322435975074768066
0.51293647289276123 -0.319069117307662964 -0.319263935089111328
0.254389464855194092 -0.221732363104820251 0.0569257773458957672
0.186395570635795593 -0.14185100793838501 -0.106080889701843262
0.507656693458557129 -0.319379419088363647 0.0286849364638328552
-0.469051837921142578 -0.0111912563443183899 0.180307462811470032
0.49571189284324646 -0.348621666431427002 -0.310709953308105469
0.521310210227966309 -0.326852887868881226 -0.322696328163146973
0.475326091051101685 -0.319932341575622559 -0.30378270149230957
-0.34120902419090271 0.230704754590988159 -0.0449042394757270813
0.201498493552207947 0.13338962197303772 0.111552290618419647
-0.17247714102268219 0.0228609628975391388 0.0250156614929437637
0.265722304582595825 -0.165233924984931946 0.00546529190614819527
0.544870615005493164 -0.327572435140609741 -0.0485740229487419128
-0.456296533346176147 -0.0523096546530723572 0.161371529102325439
0.469042569398880005 -0.355801045894622803 -0.307879030704498291
0.4778423011302948 -0.269237250089645386 -0.302373349666595459
0.466560721397399902 -0.361615210771560669 -0.308982610702514648
-0.320166885852813721 0.26758342981338501 0.0110395830124616623
0.0332500077784061432 0.0990056172013282776 0.127840325236320496
-0.284844517707824707 -0.0992284789681434631 -0.0876078605651855469
-0.616249799728393555 0.217516884207725525 -0.104973748326301575
0.244082838296890259 0.105195045471191406 -0.0304446667432785034
0.46483922004699707 -0.234603524208068848 -0.228711575269699097
-0.294186651706695557 -0.087441861629486084 -0.0960834026336669922
0.249677643179893494 -0.275277823209762573 0.321831971406936646
0.222051769495010376 0.0672767609357833862 -0.0288169458508491516
-0.25083458423614502 -0.129205599427223206 -0.0560096912086009979
-0.211325019598007202 0.302724301815032959 0.148406460881233215
0.339676350355148315 -0.139934107661247253 0.317574620246887207
0.530102252960205078 -0.355907291173934937 0.0688225775957107544
-0.599398970603942871 0.357272148132324219 0.0601876638829708099
-0.346386075019836426 -0.0546873211860656738 -0.143850445747375488
-0.433500826358795166 0.158432826399803162 -0.085484623908996582
0.52683943510055542 -0.330800652503967285 0.0196402426809072495
0.528401196002960205 -0.287093579769134521 -0.0708328858017921448
-0.49928852915763855 0.143320828676223755 -0.254392325878143311
0.146863684058189392 0.157434612512588501 0.0578706748783588409
0.253565430641174316 -0.00702573731541633606 0.326744973659515381
0.349584013223648071 -0.146566003561019897 0.319961905479431152
0.441154539585113525 -0.322012364864349365 -0.230452805757522583
-0.224008738994598389 -0.139164850115776062 -0.0540300644934177399
0.522658824920654297 -0.349558323621749878 0.0960632860660552979
-0.645373284816741943 0.254152208566665649 0.0242619439959526062
0.393398523330688477 -0.279388725757598877 0.321711093187332153
-0.47445988655090332 -0.00879191793501377106 0.164456576108932495
0.224772036075592041 -0.324447900056838989 0.318413078784942627
-0.363620012998580933 -0.120455078780651093 0.129551351070404053
-0.238549277186393738 -0.139833152294158936 -0.0543157793581485748
-0.11320970207452774 -0.00864909403026103973 -0.0169783011078834534
0.389587163925170898 -0.277598261833190918 0.32010042667388916
-0.507121026515960693 0.0120486132800579071 0.201201960444450378
0.461524933576583862 -0.296408325433731079 -0.29509618878364563
0.351038217544555664 -0.147517800331115723 0.320757120847702026
0.456752121448516846 -0.303057879209518433 -0.229515403509140015
0.0253195352852344513 -0.143388301134109497 -0.0204126946628093719
0.36857941746711731 -0.32712322473526001 0.318053990602493286
0.391915231943130493 -0.280801326036453247 0.316120177507400513
0.128478124737739563 -0.318453043699264526 -0.0978678017854690552
-0.134578689932823181 0.27913394570350647 0.116972021758556366
-0.333480954170227051 0.0953743308782577515 -0.103118151426315308
0.372599154710769653 -0.375220060348510742 -0.215836614370346069
0.519586145877838135 -0.344917625188827515 -0.323094338178634644
0.523436546325683594 -0.357287377119064331 -0.327195286750793457
-0.0681554526090621948 -0.254235714673995972 0.0982350632548332214
0.325734943151473999 -0.13028523325920105 0.314018458127975464
0.424603641033172607 -0.259125858545303345 0.32746046781539917
-0.480078637599945068 0.0326636135578155518 0.196058377623558044
0.526517689228057861 -0.298804789781570435 -0.322684168815612793
0.53809434175491333 -0.291694104671478271 -0.325030267238616943
0.376511514186859131 -0.373465627431869507 -0.214564502239227295
0.370290130376815796 -0.356491744518280029 -0.214559420943260193
0.524129092693328857 -0.350971817970275879 -0.325461447238922119
0.525436043739318848 -0.362654715776443481 -0.323634594678878784
0.515144467353820801 -0.32640385627746582 -0.32051810622215271
0.478645533323287964 -0.351505130529403687 -0.312665641307830811
0.477921903133392334 -0.365103363990783691 -0.313336730003356934
-0.361928433179855347 0.311314642429351807 0.238685384392738342
-0.320937484502792358 0.105080768465995789 0.0215220674872398376
-0.44766661524772644 0.204979300498962402 -0.0411241129040718079
-0.377796292304992676 0.280212908983230591 -0.0080933673307299614
-0.0223744064569473267 -0.260070085525512695 0.143202751874923706
-0.591621935367584229 0.362218201160430908 0.0640157461166381836
0.366225481033325195 -0.372733920812606812 -0.213174700736999512
-0.123987674713134766 -0.00995234586298465729 0.007412739098072052
0.395539969205856323 -0.352379322052001953 -0.218841448426246643
0.507080674171447754 -0.158987820148468018 0.124772384762763977
0.195662364363670349 0.125135600566864014 0.0055459323339164257
-0.0263408813625574112 0.167559117078781128 0.382441729307174683
-0.333998054265975952 -0.120226994156837463 0.0999005213379859924
-0.324948549270629883 0.303726792335510254 -0.037195105105638504
0.534474968910217285 -0.346076279878616333 0.03710218146443367
0.525734364986419678 -0.330921381711959839 0.0338248983025550842
-0.595487773418426514 0.383013069629669189 0.113231122493743896
-0.0111403167247772217 -0.14340132474899292 -0.0270221289247274399
-0.235621362924575806 0.173131093382835388 -0.00244734901934862137
-0.485383510589599609 -0.00962314009666442871 0.177071467041969299
-0.277650296688079834 0.337056815624237061 0.0423142872750759125
0.513422310352325439 -0.348330140113830566 0.0965150594711303711
-0.448244959115982056 -0.0348201319575309753 0.116441473364830017
0.43448987603187561 -0.252542316913604736 0.331316679716110229
0.415261596441268921 -0.277527034282684326 0.326808959245681763
-0.468958228826522827 0.035128910094499588 0.192754581570625305
0.502361774444580078 -0.33855736255645752 0.00772231724113225937
-0.481282323598861694 -0.00197756662964820862 0.177266538143157959
-0.377162456512451172 -0.105735816061496735 0.0922923833131790161
-0.501211285591125488 0.0231269076466560364 0.183686137199401855
0.360048145055770874 -0.286245882511138916 -0.142217129468917847
0.00173143856227397919 -0.230888634920120239 0.0896582752466201782
-0.14022381603717804 0.266009896993637085 0.0882460922002792358
-0.129460722208023071 0.255242913961410522 0.0710135996341705322
0.31177183985710144 -0.292504340410232544 -0.131595402956008911
0.42842373251914978 -0.254811882972717285 0.329716533422470093
-0.614712834358215332 0.307471215724945068 0.392285168170928955
0.409845858812332153 -0.357230305671691895 -0.227034464478492737
0.504471004009246826 -0.345899701118469238 -0.320358991622924805
0.507539868354797363 -0.351908743381500244 -0.323018521070480347
0.523154914379119873 -0.297754943370819092 -0.319112479686737061
0.509212315082550049 -0.346134871244430542 -0.320695668458938599
0.269590169191360474 -0.168484076857566833 -0.0801559984683990479
0.134254917502403259 0.121142297983169556 0.328234106302261353
0.252372920513153076 -0.284390032291412354 0.327578365802764893
0.324288815259933472 -0.119387120008468628 0.310201734304428101
0.301830321550369263 -0.203908264636993408 0.251009523868560791
0.250291287899017334 -0.00294088385999202728 0.324385493993759155
0.507154762744903564 -0.342357635498046875 0.0870380997657775879
0.24218769371509552 0.0907674580812454224 0.309369862079620361
0.462090075016021729 -0.283472061157226562 -0.231545552611351013
-0.261841863393783569 0.314912080764770508 0.0458889566361904144
0.343853533267974854 -0.139323726296424866 0.328911483287811279
0.372866690158843994 -0.363117396831512451 -0.209451034665107727
0.337408393621444702 -0.128452271223068237 0.320117473602294922
0.526647329330444336 -0.346417844295501709 -0.324455201625823975
0.524300694465637207 -0.351324141025543213 -0.327027350664138794
0.479435980319976807 -0.371730536222457886 -0.313324868679046631
-0.359984517097473145 -0.0639146715402603149 0.0823414921760559082
-0.407487988471984863 0.0895678848028182983 -0.113741010427474976
0.0149229727685451508 0.0987450331449508667 0.216880068182945251
-0.377538591623306274 -0.092537805438041687 -0.0287794061005115509
0.265183389186859131 0.0690705552697181702 -0.0924593061208724976
-0.108075469732284546 -0.0145843178033828735 0.0454077459871768951
-0.357928633689880371 -0.0910827070474624634 0.0128279784694314003
-0.289991915225982666 0.305684566497802734 0.166189372539520264
-0.355289220809936523 -0.0724094584584236145 0.0404594987630844116
-0.598084807395935059 0.295457035303115845 0.186391279101371765
0.249199017882347107 0.0977075546979904175 -0.0348094217479228973
0.378341317176818848 -0.354463011026382446 -0.210342004895210266
0.469358474016189575 -0.323977142572402954 0.137600064277648926
0.4642505943775177 -0.270982116460800171 -0.0935293883085250854
-0.439892053604125977 -0.0423642173409461975 0.0835636258125305176
-0.336498141288757324 -0.123780488967895508 0.127234384417533875
0.528742790222167969 -0.341192156076431274 0.0502672195434570312
0.392297267913818359 0.0477863773703575134 0.132820338010787964
-0.185416862368583679 0.314822614192962646 0.107665210962295532
-0.441438078880310059 -0.0421066135168075562 0.117194861173629761
0.537502527236938477 -0.325257658958435059 -0.0562373287975788116
-0.35291588306427002 0.307340800762176514 0.113717049360275269
0.49416235089302063 -0.345270067453384399 0.0435621105134487152
-0.574910461902618408 0.306056678295135498 0.379625648260116577
0.431547224521636963 -0.280252516269683838 0.33315122127532959
-0.478247642517089844 0.00496138958260416985 0.163364976644515991
0.525194704532623291 -0.348905086517333984 -0.00315860984846949577
-0.0668592453002929688 -0.262109875679016113 0.297673642635345459
-0.511974573135375977 0.0053494451567530632 0.187203541398048401
0.388960987329483032 -0.359525084495544434 -0.216266870498657227
-0.11872563511133194 0.255532056093215942 0.063650086522102356
-0.50052034854888916 0.00564498873427510262 0.192461073398590088
0.426953405141830444 -0.273634999990463257 0.330055534839630127
-0.333879590034484863 0.104669101536273956 -0.119377851486206055
-0.105593502521514893 0.255037277936935425 0.0936029106378555298
0.510348737239837646 -0.34107932448387146 -0.320217251777648926
-0.612186312675476074 0.303199172019958496 0.396464884281158447
-0.509033739566802979 0.0374626591801643372 0.187848940491676331
-0.290825575590133667 -0.0885471105575561523 -0.0791020095348358154
0.509085536003112793 -0.344277352094650269 -0.321577668190002441
0.0719482079148292542 0.139863550662994385 0.0720296874642372131
0.245806455612182617 0.10808071494102478 0.320838868618011475
0.47220274806022644 -0.286212235689163208 -0.231129914522171021
0.305007308721542358 -0.314049690961837769 0.331414997577667236
0.511369407176971436 -0.34937623143196106 -0.322570472955703735
-0.315127760171890259 -0.0863101109862327576 -0.0346686840057373047
0.514134228229522705 -0.355142772197723389 -0.323707699775695801
-0.625050723552703857 0.180889114737510681 -0.0861131101846694946
-0.353803455829620361 -0.054670579731464386 -0.144086837768554688
-0.33126986026763916 0.270341485738754272 -0.055613342672586441
-0.177518010139465332 0.140186071395874023 0.00469911890104413033
0.544955074787139893 -0.21694636344909668 0.159013956785202026
0.0309075862169265747 0.103189058601856232 0.0651732087135314941
0.509339332580566406 -0.330230623483657837 -0.319945812225341797
0.585676372051239014 -0.324549436569213867 -0.320447057485580444
0.250044375658035278 -0.287640511989593506 0.317772507667541504
0.255984872579574585 -0.00233535934239625931 0.327224493026733398
0.301626384258270264 -0.281909972429275513 0.330688506364822388
-0.343331664800643921 -0.0893373191356658936 0.0181969534605741501
-0.373568713665008545 -0.0890370458364486694 -0.0185630302876234055
-0.0651452094316482544 -0.272890716791152954 0.1587352454662323
-0.630260348320007324 0.276395171880722046 0.0758940726518630981
0.365385532379150391 -0.364925920963287354 -0.213103145360946655
-0.124073751270771027 -0.028558799996972084 -0.00682110060006380081
-0.598295986652374268 0.343199610710144043 0.0904037803411483765
0.443291664123535156 -0.249027401208877563 -0.286597341299057007
0.381573528051376343 -0.347420722246170044 -0.212953954935073853
0.311376810073852539 -0.372017621994018555 -0.156620234251022339
-0.179065898060798645 0.313401937484741211 0.0997928082942962646
0.535539388656616211 -0.318502873182296753 -0.0330708883702754974
-0.654340088367462158 0.238975778222084045 0.014399433508515358
-0.453132003545761108 -0.0530182048678398132 0.16248023509979248
0.50000464916229248 -0.347768127918243408 0.0707613080739974976
0.440718889236450195 -0.26008644700050354 0.333891063928604126
0.507227122783660889 -0.342875629663467407 0.029661109670996666
0.264129132032394409 0.122391507029533386 0.0265904180705547333
0.399453908205032349 0.0331221222877502441 0.139139771461486816
-0.106053292751312256 0.253259927034378052 0.0723835527896881104
0.315793216228485107 -0.380048274993896484 -0.157649248838424683
-0.566623330116271973 0.296093940734863281 -0.0517783910036087036
0.389610618352890015 -0.36207696795463562 -0.221669018268585205
0.358571499586105347 0.0339858159422874451 0.0478703267872333527
0.19425557553768158 -0.364832699298858643 -0.0966245383024215698
0.390212059020996094 -0.354727029800415039 -0.217675283551216125
0.519743740558624268 -0.334464222192764282 -0.323048174381256104
0.522814810276031494 -0.332434415817260742 -0.324523210525512695
0.244473040103912354 0.0249793026596307755 0.323246538639068604
0.212737247347831726 -0.338043868541717529 0.318069726228713989
0.237573295831680298 0.107059657573699951 0.314349263906478882
0.52162402868270874 -0.336184978485107422 -0.326245605945587158
0.317430078983306885 -0.379206418991088867 -0.151763752102851868
0.584091246128082275 -0.31738591194152832 -0.334654122591018677
-0.379844129085540771 -0.0922401845455169678 -0.0177447926253080368
0.457869648933410645 -0.324861347675323486 0.124636933207511902
0.388551115989685059 0.054258294403553009 0.130764514207839966
-0.173460304737091064 0.308072447776794434 0.10566692054271698
-0.462288230657577515 -0.029031507670879364 0.134013816714286804
0.439914286136627197 -0.260675549507141113 0.334676146507263184
0.399741917848587036 0.0254118591547012329 0.12720528244972229
0.427788376808166504 -0.262889713048934937 0.331306934356689453
-0.510118246078491211 0.00495777558535337448 0.190057128667831421
-0.131214186549186707 0.254529982805252075 0.0812599286437034607
-0.283751934766769409 0.3370208740234375 0.0347262546420097351
0.455550968647003174 -0.258855432271957397 0.3361835777759552
-0.331101149320602417 0.0984343290328979492 -0.118471503257751465
-0.508513748645782471 0.037004418671131134 0.187832087278366089
0.258278399705886841 0.00837891083210706711 0.326831638813018799
0.446007788181304932 -0.255282789468765259 0.333493620157241821
0.236595109105110168 0.110050007700920105 0.308002501726150513
0.302211672067642212 -0.328568637371063232 0.333965539932250977
-0.320531249046325684 0.267656505107879639 -0.0474295057356357574
-0.133016094565391541 -0.268011927604675293 -0.0051364898681640625
-0.376525372266769409 -0.074525296688079834 0.0235369894653558731
-0.375915706157684326 -0.0629725232720375061 -0.160989865660667419
-0.494820058345794678 -0.0219231322407722473 0.173421144485473633
-0.527428150177001953 -0.00618397723883390427 0.186305761337280273
0.38102489709854126 -0.365809261798858643 -0.22000575065612793
0.388883650302886963 -0.329527378082275391 0.185928061604499817
-0.577960431575775146 0.292639553546905518 -0.0412237755954265594
0.241473495960235596 0.0892705023288726807 -0.040272735059261322
0.373576372861862183 -0.350818514823913574 -0.210778772830963135
