ply
format ascii 1.0
element vertex 738
property float x
property float y
property float z
end_header
0.157002151012420654 -0.0905907377600669861 0.21229204535484314
-0.163111135363578796 0.147300198674201965 0.0695902407169342041
0.455565035343170166 -0.107869848608970642 -0.23170807957649231
-0.577962875366210938 0.245010212063789368 -0.120519667863845825
-0.572079777717590332 0.295311093330383301 -0.064884573221206665
0.517793118953704834 -0.241278082132339478 -0.159173890948295593
-0.370764940977096558 0.0993573814630508423 -0.0748770385980606079
-0.614188432693481445 0.264496326446533203 0.0380147732794284821
0.342512518167495728 -0.32790711522102356 -0.107073239982128143
0.339811325073242188 -0.188473761081695557 0.159735530614852905
0.532523095607757568 -0.246497616171836853 0.0920833870768547058
0.143563136458396912 0.0790467485785484314 0.0917647555470466614
-0.572618305683135986 0.305636078119277954 -0.0521172508597373962
0.271056264638900757 0.0058163003996014595 0.0700220167636871338
-0.6256561279296875 0.193721771240234375 -0.0889233797788619995
-0.462327688932418823 0.292753666639328003 -0.0626618266105651855
-0.153194352984428406 0.180730313062667847 0.0899735540151596069
-0.549902498722076416 0.174844279885292053 -0.0450597330927848816
-0.545109689235687256 0.278930187225341797 0.170966878533363342
0.400905013084411621 -0.232734709978103638 -0.0242073424160480499
0.285944730043411255 -0.0618082210421562195 -0.0977089181542396545
0.22090090811252594 0.0405583307147026062 -0.0711478739976882935
0.102458983659744263 -0.137782022356987 0.210102468729019165
0.114979535341262817 0.073184967041015625 0.315560638904571533
-0.371656477451324463 0.119133107364177704 0.235754579305648804
-0.023350197821855545 -0.0569865629076957703 0.136813431978225708
0.221718966960906982 -0.235283151268959045 0.0967565476894378662
0.0756583511829376221 0.0653221830725669861 0.0334943681955337524
-0.384054124355316162 -0.057293429970741272 0.103749267756938934
0.104021213948726654 0.079259037971496582 0.125104978680610657
0.251194685697555542 0.0292782541364431381 -0.0667350143194198608
-0.373418867588043213 0.27027428150177002 0.112485438585281372
0.0313875563442707062 -0.0549643076956272125 0.301467597484588623
-0.0149814300239086151 0.138092264533042908 0.0916857048869132996
-0.502419769763946533 0.0961674600839614868 -0.128888785839080811
-0.346733689308166504 0.0130619145929813385 0.149403184652328491
0.526900231838226318 -0.0540812164545059204 -0.309711813926696777
-0.500775694847106934 0.136310279369354248 -0.241728514432907104
0.472868263721466064 -0.268029481172561646 0.112468063831329346
0.376480370759963989 -0.133256673812866211 -0.0489388704299926758
0.23426547646522522 0.0935889557003974915 -0.0413886196911334991
0.137078642845153809 0.0135077713057398796 0.283948600292205811
0.520645856857299805 -0.203669950366020203 -0.0888674706220626831
-0.537365198135375977 0.125295877456665039 -0.106794729828834534
-0.579798877239227295 0.293259084224700928 -0.00186107074841856956
0.48282700777053833 -0.323994249105453491 0.0994146466255187988
0.499546527862548828 -0.268471360206604004 0.0350111052393913269
0.49318501353263855 -0.328921735286712646 -0.0635085254907608032
-0.483917295932769775 0.120756052434444427 -0.0463719591498374939
-0.592135965824127197 0.302246183156967163 0.174863144755363464
0.483820647001266479 -0.321946561336517334 0.133402079343795776
0.506129682064056396 -0.302504628896713257 -0.104828588664531708
-0.382162570953369141 0.317720651626586914 0.157617479562759399
-0.547278523445129395 0.335327208042144775 0.13338799774646759
0.460470736026763916 -0.258526057004928589 0.114122115075588226
0.533572793006896973 -0.206316769123077393 -0.0883714854717254639
0.513405144214630127 -0.230688318610191345 -0.30534285306930542
-0.554475784301757812 0.260090142488479614 -0.0218696668744087219
0.461402922868728638 -0.303625911474227905 0.108156681060791016
-0.452573984861373901 0.113245382905006409 -0.225669652223587036
0.486642420291900635 -0.313194364309310913 -0.304131597280502319
-0.560135364532470703 0.318383932113647461 0.354003816843032837
0.179126203060150146 -0.103445537388324738 -0.0167126394808292389
0.305782347917556763 0.0185776464641094208 -0.112500451505184174
0.507157981395721436 -0.336459904909133911 0.0245520416647195816
0.404498368501663208 0.0233866889029741287 0.00729970121756196022
0.47517743706703186 -0.287094712257385254 -0.300743937492370605
0.0102768335491418839 0.154452487826347351 0.0564935915172100067
0.523507595062255859 -0.299373865127563477 -0.0986483916640281677
-0.38193809986114502 0.334788024425506592 0.203913331031799316
-0.5518646240234375 0.338270366191864014 0.123968310654163361
0.418619006872177124 -0.251826941967010498 0.09704551100730896
-0.580633580684661865 0.208669036626815796 -0.215706855058670044
0.277027159929275513 -0.0844155550003051758 0.190232008695602417
-0.129938319325447083 0.225112318992614746 0.125713646411895752
-0.383397340774536133 0.104899033904075623 -0.0642106980085372925
0.551560521125793457 -0.219381421804428101 0.113656342029571533
0.383541792631149292 -0.241628482937812805 0.313453942537307739
-0.553217887878417969 0.163627982139587402 0.0789233297109603882
-0.135063484311103821 0.20204828679561615 0.167371049523353577
0.242280542850494385 0.110330626368522644 -0.050027407705783844
0.116055741906166077 0.0404591001570224762 0.327449887990951538
-0.559696018695831299 0.2785835862159729 0.00175177585333585739
0.319338560104370117 -0.132275700569152832 -0.0805745720863342285
-0.575603485107421875 0.200746551156044006 -0.226637899875640869
0.207955017685890198 0.118284322321414948 0.0443754345178604126
0.463923245668411255 -0.307378292083740234 0.134012266993522644
-0.585384368896484375 0.320130527019500732 -0.0253853220492601395
0.530878603458404541 -0.252688109874725342 0.0975602567195892334
-0.311087161302566528 0.0832429230213165283 -0.073029153048992157
-0.450557619333267212 0.00890310108661651611 -0.141132175922393799
-0.301616638898849487 0.291314482688903809 0.145710974931716919
-0.527349412441253662 0.182135790586471558 -0.216139659285545349
-0.392027139663696289 -0.0580601915717124939 0.100342586636543274
-0.546173214912414551 0.263356059789657593 -0.165482312440872192
0.313386589288711548 -0.333361685276031494 0.19711148738861084
-0.06031041219830513 0.0945995375514030457 0.320508748292922974
-0.101708546280860901 0.144104257225990295 0.0928109884262084961
0.500191569328308105 -0.361704975366592407 0.0755157619714736938
0.34872591495513916 -0.282020747661590576 -0.1357097327709198
-0.413016945123672485 0.198424592614173889 0.0353463031351566315
-0.345651805400848389 0.252327382564544678 -0.0144966747611761093
-0.267981529235839844 0.0796172469854354858 -0.0157368872314691544
-0.180563747882843018 0.0189275052398443222 0.0397005453705787659
-0.553760230541229248 0.213113754987716675 -0.0482553876936435699
0.407761245965957642 -0.399965047836303711 -0.216450631618499756
0.517954349517822266 -0.284147471189498901 -0.10096384584903717
0.394722998142242432 -0.263459920883178711 -0.194085493683815002
0.497893929481506348 -0.273222386837005615 -0.30136832594871521
0.434459865093231201 -0.256290555000305176 -0.00254774978384375572
-0.154849767684936523 -0.243593811988830566 0.14812062680721283
-0.629964590072631836 0.194888710975646973 -0.0480993874371051788
-0.356065571308135986 0.00100471777841448784 -0.151932835578918457
-0.501817226409912109 0.146965369582176208 0.34549376368522644
-0.33229982852935791 0.300542950630187988 0.190183550119400024
-0.335600793361663818 -0.0309753529727458954 -0.133229166269302368
0.113116592168807983 0.0958975702524185181 0.0288673080503940582
0.469701915979385376 -0.134304359555244446 0.0989518910646438599
0.398868680000305176 -0.304032057523727417 0.144350066781044006
-0.457914024591445923 0.168321549892425537 0.115735135972499847
-0.536843717098236084 0.288068532943725586 0.0414884313941001892
-0.276524484157562256 -0.127123579382896423 0.0810958147048950195
-0.483992338180541992 0.249872893095016479 -0.103643089532852173
0.171579435467720032 -0.271457552909851074 0.0359434038400650024
-0.345532655715942383 0.104061208665370941 0.00565465632826089859
-0.366181939840316772 0.283362984657287598 0.0862395614385604858
0.386525630950927734 -0.229204282164573669 -0.122228324413299561
-0.353330701589584351 0.00296864518895745277 0.0344772711396217346
-0.51806563138961792 0.202131032943725586 0.0482093542814254761
-0.385293692350387573 0.183291405439376831 0.0913691520690917969
-0.571877360343933105 0.328669488430023193 -0.0121773816645145416
-0.339955329895019531 -0.087016083300113678 -0.0547176562249660492
-0.13730323314666748 -0.268509447574615479 0.129438847303390503
0.273673653602600098 -0.165568441152572632 0.0543402098119258881
0.31285443902015686 -0.301718294620513916 -0.128819137811660767
-0.382076948881149292 0.251106142997741699 0.232673719525337219
0.309608519077301025 -0.216360017657279968 0.200758859515190125
0.496395885944366455 -0.25398331880569458 -0.106038764119148254
-0.119563952088356018 0.0729341804981231689 0.172970280051231384
0.5130157470703125 -0.360536128282546997 -0.031186375766992569
-0.509246706962585449 0.269511997699737549 -0.00561885535717010498
-0.594693183898925781 0.244221717119216919 -0.00308037083595991135
-0.58645254373550415 0.251622498035430908 0.193586304783821106
-0.548325717449188232 0.121676221489906311 -0.134843558073043823
-0.245727404952049255 0.183490589261054993 0.356180548667907715
0.462224185466766357 -0.263280153274536133 -0.290917664766311646
0.455681562423706055 -0.255160987377166748 -0.187343046069145203
0.520237922668457031 -0.30171734094619751 0.0436063781380653381
-0.62541043758392334 0.200481519103050232 0.0444596149027347565
-0.256719291210174561 -0.00416316278278827667 -0.0628346875309944153
0.244940847158432007 0.0996379256248474121 -0.069836936891078949
0.50513768196105957 -0.159193992614746094 0.130222141742706299
0.342229276895523071 -0.0694061070680618286 0.161150515079498291
0.399710953235626221 -0.236225008964538574 0.129665017127990723
-0.360018312931060791 -0.118184424936771393 0.115596748888492584
-0.479188710451126099 0.190160691738128662 0.0631353259086608887
-0.575310885906219482 0.342830359935760498 0.0249556135386228561
-0.359524637460708618 -0.0625742897391319275 0.0904866605997085571
-0.343689322471618652 0.0122211696580052376 -0.115018397569656372
0.302738457918167114 -0.295097261667251587 0.161249116063117981
-0.505244076251983643 0.221705913543701172 0.140834182500839233
-0.485447078943252563 0.0285944715142250061 -0.0476451292634010315
0.033536616712808609 0.0879327282309532166 0.0874584615230560303
-0.231897369027137756 0.347890883684158325 0.148284688591957092
0.0322566740214824677 0.0106900278478860855 0.0413962528109550476
-0.366008490324020386 -0.0361185744404792786 -0.0333325229585170746
-0.0485556982457637787 -0.233506590127944946 0.301409453153610229
0.186534598469734192 -0.292633086442947388 0.00293270591646432877
0.234146654605865479 -0.0109282191842794418 0.229777753353118896
-0.526748418807983398 0.141134679317474365 0.0673171132802963257
-0.521152317523956299 0.202136173844337463 -0.0679426565766334534
-0.553199887275695801 0.2865925133228302 0.107066303491592407
0.143595203757286072 0.00851867813616991043 0.307201802730560303
0.0678993165493011475 -0.285440027713775635 -0.0817878395318984985
-0.363081276416778564 0.0358500033617019653 -0.161988884210586548
0.307188361883163452 -0.292851895093917847 0.0288445092737674713
-0.340214729309082031 0.214182630181312561 0.158325791358947754
-0.188475579023361206 0.20067402720451355 0.367091596126556396
-0.540445506572723389 0.255367428064346313 -0.0846167653799057007
0.52267754077911377 -0.19874456524848938 -0.0931184142827987671
-0.519553482532501221 0.185920879244804382 0.135742589831352234
-0.543933272361755371 0.270454078912734985 -0.00289153261110186577
0.47155192494392395 -0.325295537710189819 0.043725915253162384
0.289068847894668579 0.0312932059168815613 0.052920851856470108
0.433503895998001099 -0.305328637361526489 -0.285584986209869385
-0.519466757774353027 0.0905175209045410156 -0.135798856616020203
-0.60093766450881958 0.286185890436172485 0.183737382292747498
0.46784895658493042 -0.320256501436233521 0.126652449369430542
0.467467606067657471 -0.259683609008789062 -0.294083654880523682
-0.404332190752029419 0.30103793740272522 0.142167389392852783
-0.454717814922332764 0.119983240962028503 -0.224325612187385559
0.48170885443687439 -0.310907036066055298 -0.302953243255615234
0.468352079391479492 -0.329657673835754395 -0.00380674982443451881
0.457323372364044189 -0.304473698139190674 -0.293008893728256226
0.524652183055877686 -0.261162102222442627 -0.102778121829032898
-0.409851610660552979 0.319433838129043579 0.161740466952323914
-0.561271369457244873 0.268233507871627808 0.364746361970901489
-0.576621174812316895 0.210970193147659302 -0.2013377845287323
0.447048991918563843 -0.295684307813644409 -0.22348448634147644
0.30962449312210083 -0.0756184756755828857 0.148139789700508118
0.535023152828216553 -0.247572362422943115 0.100630834698677063
-0.563638627529144287 0.120226800441741943 -0.233987405896186829
-0.409003347158432007 0.0770161300897598267 -0.117413073778152466
-0.580231547355651855 0.357176691293716431 0.0821538865566253662
0.0414287596940994263 0.115157529711723328 0.311733514070510864
-0.457346081733703613 0.0094215860590338707 0.180859357118606567
0.409302830696105957 -0.343110769987106323 0.159301772713661194
-0.555360615253448486 0.289072811603546143 -0.0497269183397293091
0.543458402156829834 -0.255098074674606323 0.112924501299858093
0.023692060261964798 -0.249251946806907654 0.2044343501329422
0.195695489645004272 0.130359336733818054 0.0342647843062877655
0.315107256174087524 -0.369766324758529663 -0.157628118991851807
0.110279425978660583 0.0602781809866428375 0.318326652050018311
-0.315792173147201538 0.307359248399734497 0.283293783664703369
-0.255353212356567383 -0.131987392902374268 -0.0737117603421211243
-0.38660353422164917 -0.0595532208681106567 0.106109984219074249
0.45267564058303833 -0.0721989646553993225 -0.117147848010063171
0.315528661012649536 -0.332405209541320801 0.195219963788986206
0.297943472862243652 0.0384245850145816803 0.0492121316492557526
0.476197779178619385 -0.330053180456161499 0.135641023516654968
0.439591884613037109 -0.2667522132396698 -0.282773613929748535
0.46139901876449585 -0.272330403327941895 0.137382209300994873
0.504776477813720703 -0.344709038734436035 0.0172828081995248795
0.518967926502227783 -0.268640071153640747 -0.0876604467630386353
0.49826011061668396 -0.0873587355017662048 0.16121615469455719
0.54236149787902832 -0.214525043964385986 0.110194385051727295
-0.57774043083190918 0.327814608812332153 0.0801689177751541138
0.246690273284912109 0.111549675464630127 -0.0553323552012443542
0.0327228158712387085 0.0690054595470428467 0.271905958652496338
-0.562156200408935547 0.275759071111679077 0.02355232834815979
-0.614093244075775146 0.272772461175918579 0.0384203307330608368
0.53575974702835083 -0.238406345248222351 0.102415233850479126
-0.576339185237884521 0.213135913014411926 -0.117208868265151978
-0.426141858100891113 0.0312570445239543915 -0.189213767647743225
0.3039054274559021 -0.125713512301445007 -0.108978390693664551
-0.385138273239135742 -0.0548281855881214142 0.100570723414421082
-0.60317528247833252 0.259990394115447998 0.0171200893819332123
-0.46158212423324585 0.307155221700668335 0.080280497670173645
0.50499415397644043 -0.262984246015548706 -0.109823822975158691
0.534868001937866211 -0.191627860069274902 0.0280061680823564529
-0.616308450698852539 0.211026906967163086 -0.0564579442143440247
0.452438205480575562 -0.123000815510749817 0.0889126881957054138
0.0335893034934997559 -0.2788657546043396 -0.0363947749137878418
0.402168989181518555 -0.31798255443572998 0.130058184266090393
-0.0944417938590049744 0.0744228065013885498 0.292672872543334961
0.243086099624633789 -0.136546656489372253 0.0101945856586098671
0.161406069993972778 -0.271106511354446411 0.0430371128022670746
-0.590710818767547607 0.369524210691452026 0.0895987823605537415
0.0271572545170783997 -0.0113047882914543152 0.0275096241384744644
0.195248022675514221 0.0346959568560123444 0.177402794361114502
-0.307087033987045288 -0.0907175838947296143 0.304644972085952759
0.494251549243927002 -0.365746200084686279 0.0190655533224344254
0.522339940071105957 -0.310361772775650024 0.0453320406377315521
0.502846479415893555 -0.152785331010818481 0.118202313780784607
0.0807888582348823547 -0.271495401859283447 -0.0598632469773292542
-0.325704187154769897 -0.102681666612625122 0.0876655131578445435
-0.586803019046783447 0.335676044225692749 0.0185116082429885864
-0.0741650983691215515 -0.235063076019287109 0.301119506359100342
0.194280192255973816 -0.339178144931793213 -0.0630231201648712158
-0.399369239807128906 0.272538840770721436 -0.055226203054189682
-0.52241969108581543 0.044562898576259613 -0.058469679206609726
-0.257916450500488281 0.142664790153503418 0.0906661450862884521
-0.214479371905326843 -0.135001838207244873 -0.063768342137336731
0.508397936820983887 -0.104003608226776123 0.143940955400466919
0.214049994945526123 -0.278924793004989624 -0.0100324712693691254
0.237580597400665283 -0.0756926760077476501 0.126536712050437927
-0.141008764505386353 0.297236531972885132 0.147024422883987427
-0.655700325965881348 0.171661511063575745 -0.112597443163394928
0.252639949321746826 -0.00877606496214866638 0.249313771724700928
0.250027298927307129 -0.178175762295722961 0.302166104316711426
-0.264007925987243652 -0.136435255408287048 -0.0683311149477958679
-0.200874447822570801 0.315021216869354248 0.0986191928386688232
0.258188813924789429 -0.277276366949081421 0.322301805019378662
0.178407758474349976 -0.0535772629082202911 -0.0515867620706558228
-0.443426340818405151 -0.0663236454129219055 0.128667622804641724
-0.504819333553314209 0.0306097120046615601 0.246329903602600098
-0.497691214084625244 0.0369184426963329315 -0.0124656409025192261
0.232589274644851685 0.0236921794712543488 0.313389778137207031
-0.371411502361297607 -0.0452367290854454041 0.142893463373184204
-0.349181294441223145 0.107069991528987885 0.0653330832719802856
0.30704343318939209 -0.198017001152038574 0.242401391267776489
0.30734679102897644 -0.00489595718681812286 0.218888998031616211
-0.443329989910125732 0.267071664333343506 -0.0380337350070476532
0.517471253871917725 -0.325456500053405762 -0.0819759666919708252
-0.538973689079284668 0.138751327991485596 -0.0977694690227508545
0.465580165386199951 -0.123759306967258453 0.00131431524641811848
-0.385173648595809937 0.255820751190185547 0.0320123098790645599
0.494228243827819824 -0.300845146179199219 0.120382778346538544
0.464921832084655762 -0.105389386415481567 0.0590847991406917572
0.203021228313446045 0.0160587616264820099 -0.0427464209496974945
-0.225226819515228271 0.296452373266220093 0.158019006252288818
-0.125529095530509949 -0.048306439071893692 0.0103599634021520615
-0.232229843735694885 0.229116454720497131 0.347369968891143799
-0.380830377340316772 -0.0536637641489505768 0.145193323493003845
0.340739220380783081 -0.0733315944671630859 0.0468285791575908661
-0.436317622661590576 -0.0119406376034021378 0.0331474281847476959
0.205289527773857117 0.0168639961630105972 0.0696430131793022156
0.0557994022965431213 -0.0853930115699768066 0.23874858021736145
-0.383814245462417603 -0.0587896928191184998 0.116493850946426392
-0.137131437659263611 -0.26421085000038147 -0.00176376150920987129
-0.244596093893051147 0.0641225054860115051 0.244387373328208923
-0.543049275875091553 0.211639061570167542 0.161888957023620605
-0.590698182582855225 0.287573426961898804 -0.00780700426548719406
0.307151138782501221 0.0178869552910327911 0.042048528790473938
0.4789867103099823 -0.313978433609008789 -0.305807322263717651
0.504125356674194336 -0.344407021999359131 -0.0643047541379928589
0.471883058547973633 -0.30417400598526001 0.114320822060108185
0.527633905410766602 -0.30184781551361084 -0.10997675359249115
-0.403470277786254883 0.312098383903503418 0.133729055523872375
0.51812899112701416 -0.250301778316497803 -0.307717770338058472
0.507915914058685303 -0.327751576900482178 -0.314527690410614014
0.519254863262176514 -0.330164194107055664 0.0910407379269599915
0.477577716112136841 -0.303347378969192505 -0.303525954484939575
0.527915894985198975 -0.284645378589630127 -0.108518525958061218
-0.560388147830963135 0.267867445945739746 0.365169525146484375
-0.640172839164733887 0.290082663297653198 0.08507586270570755
0.371181905269622803 -0.400241553783416748 -0.218091815710067749
-0.450258255004882812 -0.000565495342016220093 0.174554094672203064
0.176513195037841797 0.0733916237950325012 0.00606568343937397003
-0.453805923461914062 0.135093390941619873 -0.213928312063217163
0.40345427393913269 -0.33495938777923584 0.128147214651107788
-0.598885178565979004 0.207794368267059326 0.000497371889650821686
0.247126579284667969 -0.113730445504188538 -0.0711473971605300903
-0.484100818634033203 0.183207765221595764 -0.210826337337493896
-0.376005649566650391 -0.062329903244972229 0.0915542840957641602
0.523834168910980225 -0.319786578416824341 0.0351217202842235565
0.542481362819671631 -0.216578364372253418 0.10774558037519455
0.52633965015411377 -0.272527366876602173 0.0546930916607379913
0.110888019204139709 0.0848003625869750977 0.31678539514541626
-0.351210087537765503 -0.0475784242153167725 0.0443516857922077179
0.104895442724227905 0.0725161284208297729 0.295022398233413696
-0.165694355964660645 0.133484706282615662 0.150618791580200195
0.50288081169128418 -0.255523443222045898 -0.102963812649250031
0.429234176874160767 -0.302971452474594116 0.135180383920669556
-0.356835246086120605 -0.100723706185817719 0.158075153827667236
0.498493313789367676 -0.200760543346405029 -0.108317852020263672
-0.579230606555938721 0.348897606134414673 0.151856914162635803
0.104619771242141724 -0.0110573451966047287 0.0203502066433429718
-0.341799765825271606 -0.122743800282478333 0.103767894208431244
-0.120891779661178589 -0.275084018707275391 0.173457205295562744
-0.16143152117729187 0.167938351631164551 0.324368476867675781
0.515570402145385742 -0.357295632362365723 0.0263161864131689072
0.521715760231018066 -0.286402612924575806 -0.0122674759477376938
0.478492498397827148 -0.139231592416763306 0.107086740434169769
-0.181454017758369446 0.0297675859183073044 0.025239117443561554
-0.342379540205001831 -0.121040932834148407 0.102850988507270813
-0.600510954856872559 0.377426058053970337 0.188232973217964172
-0.120142363011837006 -0.266100406646728516 0.217483729124069214
0.523839414119720459 -0.307687908411026001 -0.0752909034490585327
0.516584932804107666 -0.251132011413574219 -0.309943437576293945
0.455139577388763428 -0.307309716939926147 -0.295034945011138916
0.240362793207168579 -0.0955431535840034485 0.157844379544258118
-0.620256245136260986 0.272934257984161377 0.0370864793658256531
-0.430808514356613159 -0.00310303457081317902 0.176645368337631226
-0.251217186450958252 -0.1361188143491745 -0.0716242492198944092
0.317253202199935913 -0.317983359098434448 0.122083380818367004
0.539555013179779053 -0.248917266726493835 0.106126829981803894
0.452705234289169312 -0.13927130401134491 0.0149489166215062141
0.429774284362792969 -0.319891154766082764 0.123156100511550903
0.413236707448959351 -0.329557448625564575 -0.210324272513389587
0.473560363054275513 -0.127826213836669922 0.108992531895637512
-0.549917459487915039 0.379449248313903809 0.172028541564941406
0.19047623872756958 -0.3390846848487854 -0.0138663314282894135
-0.202586665749549866 -0.134664490818977356 -0.0689197033643722534
-0.185565456748008728 0.31282845139503479 0.117558605968952179
0.103209570050239563 0.108306035399436951 0.174018681049346924
-0.444590538740158081 -0.0538004599511623383 0.0912311077117919922
-0.489870071411132812 0.030534796416759491 0.016132742166519165
0.23144298791885376 0.0119310319423675537 0.314469665288925171
-0.0249174218624830246 0.113855637609958649 0.311918795108795166
0.24258403480052948 -0.0378670431673526764 0.204096138477325439
-0.384275853633880615 0.245693296194076538 0.0336236841976642609
-0.653491735458374023 0.217039778828620911 -0.0395361222326755524
0.482985585927963257 -0.115473173558712006 0.0232119522988796234
0.122063055634498596 0.0797042772173881531 0.138429149985313416
-0.382206052541732788 -0.0715835839509963989 0.0953718870878219604
0.31906089186668396 -0.0716845914721488953 0.0617101304233074188
-0.440642386674880981 -0.0111539736390113831 0.00628939177840948105
-0.502839624881744385 0.23433627188205719 -0.0718151777982711792
-0.5478973388671875 0.20405539870262146 -0.0690593719482421875
0.0880808830261230469 0.0922123715281486511 0.0792553871870040894
-0.520177245140075684 0.205254137516021729 -0.0475061461329460144
-0.168667510151863098 0.0727263465523719788 0.231949716806411743
-0.0572007931768894196 -0.186328515410423279 0.0263181533664464951
-0.212888121604919434 0.291515052318572998 0.108732312917709351
0.249732762575149536 -0.0050222352147102356 0.0217076372355222702
-0.555881798267364502 0.204963162541389465 0.117784827947616577
-0.457361370325088501 0.216910615563392639 0.0238482430577278137
-0.463287800550460815 0.267210215330123901 -0.00324262632057070732
-0.575447797775268555 0.248055458068847656 -0.0767308622598648071
-0.389972835779190063 0.275611340999603271 -0.0845701843500137329
0.343500345945358276 -0.133791178464889526 0.3183269202709198
-0.498616993427276611 0.207528188824653625 -0.0119034163653850555
-0.346463859081268311 0.29351690411567688 -0.0508768968284130096
0.526631712913513184 -0.359958618879318237 0.0409091487526893616
-0.540641665458679199 0.215903624892234802 0.200444400310516357
-0.569664895534515381 0.295063108205795288 -0.00366683118045330048
0.316605806350708008 0.0241100694984197617 0.0479913391172885895
0.48223993182182312 -0.305886507034301758 -0.304174065589904785
0.48004460334777832 -0.32513388991355896 0.124606326222419739
0.523837804794311523 -0.306017398834228516 -0.0994817912578582764
0.490922808647155762 -0.309860914945602417 -0.307838380336761475
0.51692509651184082 -0.323856890201568604 0.118990212678909302
0.444649279117584229 -0.299097061157226562 -0.291131913661956787
0.523688435554504395 -0.303460210561752319 -0.0980841591954231262
0.134392648935317993 0.117164954543113708 0.336470901966094971
-0.642103433609008789 0.243073523044586182 -0.00958856940269470215
-0.293225079774856567 -0.113085582852363586 -0.106000065803527832
0.539880990982055664 -0.254726231098175049 0.0915245860815048218
0.129158675670623779 0.0983408093452453613 0.316871017217636108
-0.235895350575447083 -0.142773076891899109 -0.0719489380717277527
0.251734167337417603 0.0306761469691991806 -0.0865977108478546143
0.531880617141723633 -0.321936309337615967 0.00602071452885866165
-0.599521279335021973 0.307999759912490845 0.104122310876846313
0.532454133033752441 -0.243794545531272888 0.0861014127731323242
-0.373482108116149902 -0.06025739386677742 0.092097744345664978
0.526998221874237061 -0.274313598871231079 -0.123701825737953186
-0.501792252063751221 0.149324938654899597 0.352604299783706665
0.385206848382949829 -0.296651244163513184 0.131171345710754395
0.13260166347026825 -0.33098137378692627 -0.100830346345901489
0.523169934749603271 -0.353488951921463013 -0.0156265385448932648
-0.437424570322036743 0.151284262537956238 -0.0856262743473052979
0.516264975070953369 -0.29902300238609314 0.063808053731918335
0.393091738224029541 -0.366962015628814697 -0.214442819356918335
0.500489234924316406 -0.170636802911758423 0.129407912492752075
0.533960163593292236 -0.332877904176712036 0.0274096913635730743
-0.580252885818481445 0.349484682083129883 0.0401419699192047119
0.520227670669555664 -0.239964023232460022 -0.309078037738800049
-0.601226389408111572 0.371295660734176636 0.104319468140602112
-0.501291155815124512 0.14770825207233429 0.354878664016723633
0.234443411231040955 -0.2770061194896698 0.316501736640930176
-0.182014286518096924 -0.136125564575195312 -0.0558658204972743988
-0.228921994566917419 -0.13726004958152771 -0.0540557242929935455
-0.204630643129348755 0.299120813608169556 0.126207113265991211
0.262908816337585449 -0.288810104131698608 0.322973489761352539
-0.362706005573272705 -0.0299036949872970581 0.118834048509597778
-0.49980318546295166 0.019672539085149765 0.0313021391630172729
0.242630496621131897 0.000913974829018115997 0.321816086769104004
0.141670897603034973 -0.289637535810470581 0.311100184917449951
0.30733191967010498 -0.206801354885101318 0.247839212417602539
-0.385745018720626831 0.255350440740585327 0.0335752181708812714
0.531548678874969482 -0.261457651853561401 0.102263092994689941
0.22386738657951355 0.0234305933117866516 0.304899036884307861
0.53091120719909668 -0.146737754344940186 -0.308630287647247314
-0.644339799880981445 0.23171156644821167 -0.0476815700531005859
0.541854500770568848 -0.309793770313262939 -0.0450170673429965973
0.50800710916519165 -0.266621202230453491 -0.311743170022964478
0.5148659348487854 -0.31488451361656189 -0.295667082071304321
0.458845436573028564 -0.289821535348892212 -0.297074109315872192
-0.543496966361999512 0.268504917621612549 -0.189690813422203064
-0.621677041053771973 0.28960120677947998 0.066504254937171936
0.363223761320114136 -0.383297920227050781 -0.206751599907875061
-0.0929340720176696777 0.268134623765945435 0.188904047012329102
-0.448784589767456055 0.131637677550315857 -0.209378033876419067
-0.575829029083251953 0.204261288046836853 -0.127544835209846497
-0.630125761032104492 0.192278534173965454 -0.0401042662560939789
-0.470345616340637207 0.139698535203933716 -0.231551080942153931
0.257393032312393188 -0.0164869073778390884 -0.0727494508028030396
0.230072647333145142 0.0544296428561210632 -0.045962408185005188
0.112852349877357483 0.110379740595817566 0.301056146621704102
-0.584264397621154785 0.218725487589836121 -0.221753641963005066
-0.597892463207244873 0.235603123903274536 -0.0112369470298290253
-0.367007076740264893 -0.0910005345940589905 0.122329637408256531
-0.330030232667922974 -0.124710246920585632 0.136583641171455383
-0.634374022483825684 0.200024262070655823 -0.0384923666715621948
-0.42609676718711853 -0.0541541501879692078 0.0983316600322723389
-0.478144347667694092 0.0205403938889503479 -0.0373285040259361267
0.208478689193725586 0.00923532899469137192 0.30015718936920166
-0.634351670742034912 0.248696967959403992 -0.00620725750923156738
-0.127923905849456787 0.270502775907516479 0.131646513938903809
0.270892143249511719 -0.329404830932617188 0.179659202694892883
0.533047258853912354 -0.209055706858634949 -0.0993107855319976807
-0.127218842506408691 -0.111748166382312775 -0.0550439991056919098
0.454465806484222412 -0.33794131875038147 -0.298667669296264648
-0.213473677635192871 0.0367783419787883759 -0.0603447705507278442
-0.553454577922821045 0.176190182566642761 0.0120399119332432747
-0.199165508151054382 0.140344202518463135 0.0203232411295175552
-0.0127834565937519073 -0.10218869149684906 -0.0435281731188297272
0.264656394720077515 -0.274082541465759277 0.201929748058319092
0.348655521869659424 -0.320350587368011475 -0.000977357383817434311
-0.156291782855987549 0.0702316164970397949 0.0265935212373733521
-0.249410539865493774 0.131341069936752319 -0.0350975319743156433
0.19933946430683136 0.00206151045858860016 0.0184203200042247772
0.0764622315764427185 0.0814222991466522217 0.0233668535947799683
-0.283566027879714966 0.288876265287399292 -0.00644404161721467972
0.47700926661491394 -0.288631975650787354 -0.302427291870117188
-0.557169735431671143 0.266283005475997925 -0.0176646914333105087
-0.238130584359169006 0.0983199849724769592 -0.033194907009601593
0.137821614742279053 -0.280182421207427979 0.149370014667510986
0.297387599945068359 -0.2971477210521698 0.0563049428164958954
-0.286041617393493652 0.257732987403869629 0.000150848645716905594
-0.0209430176764726639 -0.0403224155306816101 0.0886435583233833313
0.204257965087890625 0.0433711186051368713 0.0650972127914428711
-0.144179940223693848 -0.084413185715675354 0.0912084281444549561
0.372151106595993042 -0.0727977454662322998 0.0310118477791547775
0.521664679050445557 -0.198099702596664429 -0.0991792082786560059
0.487504869699478149 -0.296822994947433472 -0.305885642766952515
0.481100261211395264 -0.313730597496032715 0.1217489093542099
0.514185786247253418 -0.306013256311416626 -0.103232055902481079
0.496661216020584106 -0.30853956937789917 -0.310172110795974731
0.506945550441741943 -0.326091736555099487 -0.00427930336445569992
0.512351512908935547 -0.323376297950744629 0.117460712790489197
0.465791970491409302 -0.287562131881713867 -0.297150373458862305
0.437753766775131226 -0.262332946062088013 -0.194722309708595276
0.135160624980926514 0.117845930159091949 0.336376786231994629
0.39672553539276123 -0.243420183658599854 0.318138033151626587
-0.601856410503387451 0.355096399784088135 0.0654856711626052856
-0.505766332149505615 0.358053505420684814 0.177830904722213745
0.543290078639984131 -0.28146827220916748 0.0973612070083618164
0.255948662757873535 0.0375794246792793274 -0.0727575868368148804
-0.233989357948303223 0.156700149178504944 -0.00594496354460716248
0.506922483444213867 -0.330225318670272827 -0.00262839440256357193
0.444294154644012451 -0.249080613255500793 -0.228458002209663391
-0.639029145240783691 0.255127251148223877 0.0544191189110279083
0.533124327659606934 -0.261741906404495239 0.0925104469060897827
-0.393549978733062744 -0.0586102008819580078 0.0999747589230537415
0.524379193782806396 -0.288524657487869263 -0.0928005427122116089
0.0278520844876766205 -0.273313343524932861 -0.0357711464166641235
0.385293394327163696 -0.305053770542144775 0.117885097861289978
-0.58279651403427124 0.367627441883087158 0.131367534399032593
0.23998558521270752 0.00365604693070054054 0.180426016449928284
-0.113443933427333832 0.166256949305534363 0.346926182508468628
0.482626527547836304 -0.367198795080184937 -0.0229370258748531342
0.412108749151229858 -0.319824725389480591 -0.21163468062877655
0.507506251335144043 -0.154674917459487915 0.123211704194545746
0.529522359371185303 -0.333420157432556152 0.0119399372488260269
-0.584455728530883789 0.337127745151519775 0.0341017358005046844
-0.591170012950897217 0.38262706995010376 0.131023183465003967
0.526592552661895752 -0.243315234780311584 -0.311170130968093872
0.47444385290145874 -0.289516568183898926 -0.300124377012252808
-0.597901105880737305 0.354561835527420044 0.169398993253707886
-0.587730228900909424 0.372236877679824829 0.100832372903823853
-0.212849289178848267 -0.128701850771903992 -0.0584218353033065796
0.235009670257568359 -0.292164653539657593 0.313908249139785767
0.237957373261451721 0.0681670308113098145 0.319203555583953857
0.542388319969177246 -0.312626391649246216 -0.0586065240204334259
-0.444841057062149048 -0.0479309596121311188 0.126130521297454834
0.359221428632736206 -0.38734552264213562 -0.209721192717552185
-0.55741274356842041 0.211921453475952148 -0.114234015345573425
0.521233022212982178 -0.278561532497406006 -0.177696898579597473
0.241598382592201233 0.0357333943247795105 0.313883155584335327
0.242790862917900085 0.00100633222609758377 0.0231488067656755447
0.380223333835601807 0.0395605526864528656 0.0110492883250117302
0.527064800262451172 -0.229535996913909912 -0.310693651437759399
0.326303273439407349 0.0971179753541946411 -0.0366325899958610535
-0.37490546703338623 -0.0595191232860088348 -0.133588135242462158
0.513313472270965576 -0.166637048125267029 0.135135993361473083
-0.574974715709686279 0.322889149188995361 0.0492702946066856384
-0.559707939624786377 0.284156709909439087 0.363798320293426514
0.223838865756988525 0.0327674038708209991 -0.0587653219699859619
-0.574909627437591553 0.215204790234565735 -0.22152554988861084
-0.0449381954967975616 0.157317414879798889 0.0807038471102714539
0.11394163966178894 0.110640630125999451 0.0249007400125265121
0.34259873628616333 -0.246178612112998962 -0.0975612252950668335
-0.28515625 0.301081091165542603 -0.00345625635236501694
0.152945995330810547 -0.00383848696947097778 -0.00419104937463998795
0.0689516440033912659 0.139528647065162659 0.0752463862299919128
-0.270295083522796631 0.280955195426940918 0.0013587030116468668
0.503445088863372803 -0.291355639696121216 -0.159725219011306763
0.137036457657814026 -0.0253114774823188782 0.0124666010960936546
-0.339851677417755127 -0.0312681570649147034 0.0221855118870735168
0.373298346996307373 -0.0911422297358512878 0.0436969995498657227
0.200007766485214233 0.101822853088378906 -0.00238032452762126923
-0.297440499067306519 -0.0244015101343393326 0.0358699597418308258
0.131605759263038635 -0.0172287337481975555 -0.0267759691923856735
0.101892642676830292 0.016361825168132782 0.0908695235848426819
0.175785571336746216 0.119945771992206573 0.03755970299243927
-0.230988472700119019 -0.0629092007875442505 0.104104533791542053
0.486390531063079834 -0.295626550912857056 -0.304226994514465332
-0.60362166166305542 0.290474086999893188 0.184989109635353088
0.467509478330612183 -0.307580620050430298 0.119412288069725037
0.377726048231124878 -0.0137003287672996521 0.00560060283169150352
0.514831900596618652 -0.294081747531890869 -0.104082472622394562
0.519026696681976318 -0.238694354891777039 -0.308041036128997803
0.478205621242523193 -0.308556258678436279 -0.300834149122238159
0.483373522758483887 -0.273391783237457275 -0.300571292638778687
0.116655439138412476 0.119560539722442627 0.296982467174530029
-0.584413230419158936 0.356981098651885986 0.0655213147401809692
0.383840799331665039 -0.33627888560295105 0.124702602624893188
-0.574572384357452393 0.31823432445526123 -0.026926133781671524
-0.604814767837524414 0.217817634344100952 -0.0872481614351272583
0.267318934202194214 0.0399508029222488403 -0.0868841558694839478
-0.357707470655441284 -0.0213919840753078461 -0.131853148341178894
-0.565063536167144775 0.315156459808349609 -0.00824275985360145569
0.190541490912437439 -0.33992418646812439 -0.0753678902983665466
0.404167234897613525 -0.35654979944229126 -0.224703341722488403
-0.501059651374816895 0.146343737840652466 0.354296624660491943
0.509719252586364746 -0.150521010160446167 0.114194668829441071
0.496987760066986084 -0.262776076793670654 -0.304922133684158325
0.457875221967697144 -0.279833704233169556 -0.290362626314163208
0.440807163715362549 -0.263975054025650024 -0.284299343824386597
-0.588187038898468018 0.358098268508911133 0.061537180095911026
0.505280375480651855 -0.125987648963928223 0.123819589614868164
-0.206631124019622803 0.313132673501968384 0.108229033648967743
0.268378853797912598 -0.283139139413833618 0.318437248468399048
0.232370972633361816 0.00443024002015590668 0.317217439413070679
0.513324201107025146 -0.174786984920501709 -0.282327473163604736
-0.115858674049377441 0.0105220377445220947 0.00528324535116553307
0.403982222080230713 -0.35867723822593689 -0.225427240133285522
0.417699724435806274 -0.312299013137817383 0.143025398254394531
-0.556342244148254395 0.37734454870223999 0.186199992895126343
-0.175907224416732788 0.310020357370376587 0.118131011724472046
-0.390550285577774048 0.276609063148498535 -0.0856316089630126953
0.364971756935119629 0.0524759069085121155 0.0237606856971979141
0.129349589347839355 0.116653762757778168 0.318125903606414795
-0.287611275911331177 -0.0996172577142715454 -0.0925800204277038574
0.257901519536972046 0.101639285683631897 -0.0627418681979179382
-0.362484633922576904 -0.0588355362415313721 -0.14474022388458252
0.134117275476455688 0.114548608660697937 0.337144374847412109
-0.563995718955993652 0.199887081980705261 -0.229611605405807495
-0.276651501655578613 0.288730591535568237 -0.00148047786206007004
0.454726755619049072 -0.245546489953994751 -0.288824081420898438
0.460213631391525269 -0.274383425712585449 -0.291457891464233398
-0.635402858257293701 0.308991551399230957 0.170034676790237427
0.513207197189331055 -0.316151976585388184 -0.0392537601292133331
0.468810468912124634 -0.264705270528793335 -0.298512458801269531
0.478353500366210938 -0.293796449899673462 -0.300705820322036743
0.457938075065612793 -0.245286762714385986 -0.290297001600265503
0.381090462207794189 -0.359949856996536255 -0.214630067348480225
-0.480223178863525391 -0.0116807464510202408 0.185425028204917908
-0.517281949520111084 0.366627514362335205 0.17344704270362854
-0.618793904781341553 0.202486634254455566 -0.0875853747129440308
-0.238041937351226807 0.0192577149718999863 -0.0731205493211746216
-0.382659435272216797 -0.0583713352680206299 0.0230970680713653564
0.475232183933258057 -0.367249876260757446 0.0206985026597976685
-0.649087607860565186 0.237283796072006226 0.032083071768283844
0.412615001201629639 -0.345639139413833618 -0.222459107637405396
0.526638150215148926 -0.335865527391433716 0.0791866183280944824
0.506226837635040283 -0.237986281514167786 -0.308408051729202271
0.249766826629638672 -0.281361132860183716 0.317434102296829224
0.239062905311584473 0.067450299859046936 0.313651382923126221
0.539917707443237305 -0.30075189471244812 -0.0943064838647842407
-0.448136568069458008 -0.0406217202544212341 0.126358002424240112
-0.044376470148563385 0.105354726314544678 0.31730160117149353
0.247605830430984497 0.0219202190637588501 0.321456700563430786
-0.285922646522521973 -0.0986342281103134155 -0.0995891392230987549
-0.138536855578422546 -0.0143494028598070145 -0.0496590696275234222
-0.278302490711212158 0.338511288166046143 0.046658005565404892
-0.255011767148971558 0.290457814931869507 -0.00380300357937812805
-0.219356507062911987 0.322777450084686279 0.0694130659103393555
-0.573615133762359619 0.152859523892402649 -0.0749498754739761353
-0.290447145700454712 0.293432235717773438 0.0154527788981795311
0.526399075984954834 -0.319327950477600098 0.0261840764433145523
0.345580190420150757 -0.0297758392989635468 -0.0353087708353996277
0.522571146488189697 -0.361763089895248413 0.0884563475847244263
-0.0839116126298904419 -0.11119377613067627 0.0778016895055770874
-0.404231816530227661 0.326757967472076416 0.120447874069213867
0.505255341529846191 -0.365444958209991455 -0.00477889180183410645
-0.118973731994628906 0.267005562782287598 0.120561808347702026
0.519477665424346924 -0.341681391000747681 0.0348552204668521881
0.130454480648040771 -0.333761274814605713 0.300800740718841553
0.466909587383270264 -0.309988737106323242 0.0715576261281967163
0.483240693807601929 -0.372893929481506348 0.0513247698545455933
0.420989960432052612 -0.0253314245492219925 0.0640976876020431519
0.494644761085510254 -0.362202972173690796 -0.0161695722490549088
-0.233353361487388611 0.287798792123794556 0.0836718156933784485
0.531866550445556641 -0.330416321754455566 -0.00798276346176862717
-0.272589772939682007 0.316309034824371338 0.113609254360198975
0.308240920305252075 0.00304074166342616081 0.0455399565398693085
0.467373132705688477 -0.262355595827102661 -0.296513766050338745
0.474122136831283569 -0.303248047828674316 0.113447412848472595
0.511621177196502686 -0.312391787767410278 -0.105168655514717102
0.509335517883300781 -0.244325220584869385 -0.308986902236938477
0.44792407751083374 -0.291399478912353516 -0.293330848217010498
0.466242313385009766 -0.282136499881744385 -0.297836989164352417
0.138392090797424316 0.113608948886394501 0.336157649755477905
-0.651807725429534912 0.286422312259674072 0.0981394127011299133
-0.638261318206787109 0.245465025305747986 -0.0382762141525745392
0.13616529107093811 0.0701130032539367676 0.337121963500976562
-0.577316164970397949 0.304378092288970947 -0.0559634268283843994
0.262202918529510498 0.0310732163488864899 -0.0740124136209487915
0.54210275411605835 -0.215859279036521912 0.110915660858154297
-0.361169517040252686 -0.0350357964634895325 -0.135119318962097168
-0.574996769428253174 0.328055083751678467 -0.0299132391810417175
-0.362851142883300781 -0.0701826959848403931 -0.0348568931221961975
-0.130785167217254639 -0.266972631216049194 0.118369221687316895
0.495777487754821777 -0.364256024360656738 -0.000631609000265598297
0.373845219612121582 -0.358308970928192139 -0.210748806595802307
-0.378719687461853027 -0.10602964460849762 0.101003304123878479
-0.0673293620347976685 -0.26323583722114563 0.295858234167098999
0.520024478435516357 -0.242305919528007507 -0.309888750314712524
0.51036369800567627 -0.328925907611846924 0.0151974493637681007
-0.593871533870697021 0.369828134775161743 0.120373427867889404
-0.654973447322845459 0.176047757267951965 -0.103112451732158661
-0.223530158400535583 -0.143326714634895325 -0.054266907274723053
-0.191415101289749146 0.317383289337158203 0.100368306040763855
0.257037967443466187 -0.282650202512741089 0.318954765796661377
0.238899648189544678 0.0332541652023792267 0.318354278802871704
-0.120678707957267761 -0.0454151779413223267 0.00654799770563840866
-0.641410768032073975 0.309305161237716675 0.101691827178001404
0.364431589841842651 -0.372905045747756958 -0.207580208778381348
0.537703096866607666 -0.216823801398277283 0.161246374249458313
-0.553873062133789062 0.38338586688041687 0.15750257670879364
-0.122853398323059082 0.260216325521469116 0.114659816026687622
0.12006804347038269 0.102740958333015442 0.089056164026260376
-0.376130670309066772 0.266483575105667114 -0.0901423990726470947
0.51737135648727417 -0.347924381494522095 0.0979805886745452881
-0.294315755367279053 -0.106266006827354431 -0.109713256359100342
0.274667263031005859 0.103499986231327057 -0.0584441535174846649
-0.575605571269989014 0.2200927734375 -0.213104873895645142
-0.115949049592018127 0.269321829080581665 0.179365813732147217
0.236742317676544189 -0.287183433771133423 0.313352704048156738
0.309616923332214355 -0.186472058296203613 0.240462839603424072
0.54235994815826416 -0.324770659208297729 -0.0215479470789432526
0.0790139287710189819 -0.337111234664916992 0.281668961048126221
-0.0062941061332821846 -0.171221375465393066 0.0038894235622137785
-0.282447397708892822 0.262317299842834473 0.00630123168230056763
0.513332962989807129 -0.235988721251487732 -0.30982661247253418
-0.647123575210571289 0.278964072465896606 0.0795644074678421021
-0.646239995956420898 0.183656901121139526 -0.0910165309906005859
0.515125751495361328 -0.321206122636795044 0.023371618241071701
-0.407349556684494019 -0.0629011392593383789 0.113210096955299377
0.51724553108215332 -0.354266047477722168 -0.0212702881544828415
-0.567515432834625244 0.375254184007644653 0.151949718594551086
0.235692292451858521 0.043940417468547821 0.312937021255493164
-0.664320170879364014 0.227584823966026306 0.0230146367102861404
-0.448390722274780273 -0.0378002524375915527 0.126739457249641418
0.503078341484069824 -0.301094710826873779 -0.179345279932022095
-0.589424490928649902 0.361927062273025513 0.0857616662979125977
-0.194489762187004089 0.315765708684921265 0.104465663433074951
0.246578723192214966 0.024822719395160675 0.323111832141876221
0.531328976154327393 -0.322576969861984253 -0.0588393174111843109
-0.183273255825042725 0.307951390743255615 0.127950727939605713
0.246764838695526123 0.00798404775559902191 0.323256522417068481
0.0586029253900051117 0.140445441007614136 0.345103055238723755
-0.506622195243835449 0.150156363844871521 0.356299906969070435
0.270664423704147339 -0.310372501611709595 0.325575262308120728
-0.25450056791305542 0.0240031816065311432 -0.0713335573673248291
0.241467133164405823 -0.2944163978099823 0.321704298257827759
0.248464122414588928 0.0447174198925495148 0.313718974590301514
0.468442469835281372 -0.101303845643997192 0.0342181026935577393
-0.125111550092697144 0.195899397134780884 0.114688888192176819
0.240324541926383972 -0.325828999280929565 0.317192882299423218
0.500764667987823486 -0.365439563989639282 0.073580130934715271
0.524220943450927734 -0.323496907949447632 0.0253750067204236984
0.444693088531494141 -0.252373158931732178 0.331712603569030762
0.320730507373809814 -0.130534559488296509 -0.107220456004142761
0.0630680620670318604 -0.0100065898150205612 0.321168303489685059
