ply
format ascii 1.0
element vertex 738
property float x
property float y
property float z
end_header
-0.185646861791610718 0.312800765037536621 0.117397114634513855
0.103169530630111694 0.108276702463626862 0.174004584550857544
-0.445060968399047852 -0.0536403395235538483 0.0913720875978469849
-0.489906787872314453 0.0305447280406951904 0.0160924196243286133
0.231467351317405701 0.0119411256164312363 0.314422249794006348
-0.0249538924545049667 0.113885775208473206 0.312005937099456787
0.242825537919998169 -0.0379617549479007721 0.204064905643463135
-0.384431421756744385 0.245835915207862854 0.0339045114815235138
-0.65320587158203125 0.216807067394256592 -0.0395384021103382111
0.482635319232940674 -0.115717411041259766 0.0231182388961315155
0.122093260288238525 0.0799250900745391846 0.138330727815628052
-0.382225930690765381 -0.0715275779366493225 0.0954560711979866028
0.318875163793563843 -0.0716230869293212891 0.0619606785476207733
-0.440728843212127686 -0.0111044589430093765 0.00629555340856313705
-0.50266951322555542 0.23425215482711792 -0.071897655725479126
-0.547524571418762207 0.203856572508811951 -0.0691131353378295898
0.0879464000463485718 0.0922528356313705444 0.0793527066707611084
-0.519921422004699707 0.205146923661231995 -0.0474498830735683441
-0.16859203577041626 0.0728584080934524536 0.231935381889343262
-0.0577516257762908936 -0.18636205792427063 0.0264479648321866989
-0.212640330195426941 0.29133644700050354 0.108578652143478394
0.24946121871471405 -0.00494533032178878784 0.0217482317239046097
-0.556020975112915039 0.204866483807563782 0.117774248123168945
-0.457493692636489868 0.21714387834072113 0.0240525864064693451
-0.463176876306533813 0.267108917236328125 -0.00327633274719119072
-0.575029373168945312 0.247866779565811157 -0.0768297165632247925
-0.389814555644989014 0.27558407187461853 -0.0848454013466835022
0.34293818473815918 -0.133958682417869568 0.318727016448974609
-0.49838566780090332 0.207528680562973022 -0.0117696933448314667
-0.345925241708755493 0.293218076229095459 -0.0509773567318916321
0.525978386402130127 -0.360222160816192627 0.0411733649671077728
-0.540088295936584473 0.215761542320251465 0.200358778238296509
-0.569258689880371094 0.294726550579071045 -0.00383762456476688385
0.316291332244873047 0.0241855159401893616 0.0481221601366996765
0.481467723846435547 -0.306280314922332764 -0.304266214370727539
0.47896537184715271 -0.325542241334915161 0.125087037682533264
0.522997021675109863 -0.306106746196746826 -0.0989863276481628418
0.489775627851486206 -0.309860646724700928 -0.307674378156661987
0.515952646732330322 -0.324130237102508545 0.119588576257228851
0.44355010986328125 -0.299558877944946289 -0.291139483451843262
0.522962450981140137 -0.30365481972694397 -0.0977327674627304077
0.134291455149650574 0.117128759622573853 0.336403906345367432
-0.641744613647460938 0.24288688600063324 -0.00966496020555496216
-0.293240457773208618 -0.113142281770706177 -0.106005087494850159
0.53829348087310791 -0.254653811454772949 0.0920402109622955322
0.129099339246749878 0.0982365384697914124 0.316850811243057251
-0.235924258828163147 -0.142910271883010864 -0.0718732848763465881
0.251956462860107422 0.0306103713810443878 -0.0865199416875839233
0.530888855457305908 -0.322211384773254395 0.00644082296639680862
-0.599045634269714355 0.307701587677001953 0.103953093290328979
0.531514763832092285 -0.243941694498062134 0.086304783821105957
-0.373650074005126953 -0.0601691305637359619 0.0920443311333656311
0.52622908353805542 -0.274520367383956909 -0.123533919453620911
-0.501897871494293213 0.149480521678924561 0.352457225322723389
0.384391337633132935 -0.296865642070770264 0.131312727928161621
0.132469072937965393 -0.331183552742004395 -0.101022526621818542
0.522712588310241699 -0.353825241327285767 -0.0153951793909072876
-0.437363117933273315 0.151271343231201172 -0.0855702012777328491
0.515398979187011719 -0.299302339553833008 0.0643328726291656494
0.392445504665374756 -0.36691814661026001 -0.214331582188606262
0.499643713235855103 -0.170727461576461792 0.129863515496253967
0.53331989049911499 -0.333238005638122559 0.0279057919979095459
-0.580063939094543457 0.349354654550552368 0.0400011464953422546
0.519386827945709229 -0.240315064787864685 -0.309122413396835327
-0.600840091705322266 0.371218681335449219 0.104388073086738586
-0.501417875289916992 0.147857949137687683 0.3546467125415802
0.233934983611106873 -0.277089893817901611 0.316879332065582275
-0.181978777050971985 -0.13625730574131012 -0.0559649206697940826
-0.228999882936477661 -0.137323528528213501 -0.0540893711149692535
-0.204535499215126038 0.298867255449295044 0.12596575915813446
0.262012958526611328 -0.289016425609588623 0.323366910219192505
-0.363121002912521362 -0.0297484919428825378 0.118756234645843506
-0.499849140644073486 0.0196581035852432251 0.0311956014484167099
0.242494344711303711 0.000924951396882534027 0.321845114231109619
0.141241639852523804 -0.289762526750564575 0.311275959014892578
0.307219415903091431 -0.206908702850341797 0.247710943222045898
-0.386152207851409912 0.255637466907501221 0.0340933166444301605
0.530617415904998779 -0.26166108250617981 0.102659761905670166
0.22424626350402832 0.0234563350677490234 0.304777175188064575
0.529740333557128906 -0.146548539400100708 -0.308408260345458984
-0.644113123416900635 0.231549188494682312 -0.0477070026099681854
0.541083455085754395 -0.31005483865737915 -0.0448966696858406067
0.507200181484222412 -0.267014682292938232 -0.311790704727172852
0.51397174596786499 -0.315346717834472656 -0.295463830232620239
0.457752585411071777 -0.290281832218170166 -0.297049671411514282
-0.543222129344940186 0.268395155668258667 -0.189772680401802063
-0.621468245983123779 0.289367467164993286 0.0664539933204650879
0.362661927938461304 -0.383257955312728882 -0.206786110997200012
-0.092579379677772522 0.267955899238586426 0.188832700252532959
-0.449316859245300293 0.131845206022262573 -0.209548115730285645
-0.575629234313964844 0.204123914241790771 -0.127501204609870911
-0.629719793796539307 0.191959112882614136 -0.039996512234210968
-0.470420897006988525 0.139638498425483704 -0.231657639145851135
0.257267743349075317 -0.0164632871747016907 -0.0727005451917648315
0.230546146631240845 0.0543267875909805298 -0.0459050685167312622
0.113046042621135712 0.110347852110862732 0.301021099090576172
-0.584279358386993408 0.218661293387413025 -0.221844971179962158
-0.597441256046295166 0.235413327813148499 -0.0112384036183357239
-0.366840988397598267 -0.0909223854541778564 0.122357547283172607
-0.330278396606445312 -0.124727748334407806 0.136523649096488953
-0.634127974510192871 0.19974556565284729 -0.0384173057973384857
-0.426336020231246948 -0.0540647581219673157 0.0984584689140319824
-0.477816462516784668 0.0205009710043668747 -0.0373264290392398834
0.20881083607673645 0.00924211274832487106 0.299874067306518555
-0.634083807468414307 0.248528450727462769 -0.006214141845703125
-0.128139570355415344 0.270399153232574463 0.131543949246406555
0.270526915788650513 -0.329532891511917114 0.179608926177024841
0.532632410526275635 -0.2092389315366745 -0.0992113873362541199
-0.127147272229194641 -0.111838027834892273 -0.054953698068857193
0.453480184078216553 -0.337947249412536621 -0.298549503087997437
-0.213181018829345703 0.0368030145764350891 -0.0602632388472557068
-0.553137540817260742 0.176091313362121582 0.0120952324941754341
-0.199287533760070801 0.140151143074035645 0.020252598449587822
-0.0128934122622013092 -0.10204632580280304 -0.0435258857905864716
0.264118939638137817 -0.274139106273651123 0.201965168118476868
0.348475217819213867 -0.320417940616607666 -0.000790627207607030869
-0.156550422310829163 0.0703170895576477051 0.026609811931848526
-0.249681517481803894 0.131386205554008484 -0.0351252704858779907
0.19933357834815979 0.00201085023581981659 0.0184141136705875397
0.0760977268218994141 0.0813818573951721191 0.0232513472437858582
-0.283346354961395264 0.288740158081054688 -0.00669420231133699417
0.47627374529838562 -0.289118498563766479 -0.302293539047241211
-0.556906223297119141 0.266103833913803101 -0.0177973043173551559
-0.237978756427764893 0.098255455493927002 -0.0329898446798324585
0.137339323759078979 -0.280155777931213379 0.149351298809051514
0.296295642852783203 -0.296837061643600464 0.056333836168050766
-0.285548895597457886 0.257392466068267822 0.000177976209670305252
-0.0215831752866506577 -0.0399626418948173523 0.0884857922792434692
0.204239159822463989 0.0432232245802879333 0.0650271177291870117
-0.144495785236358643 -0.0844704434275627136 0.0911266803741455078
0.371881484985351562 -0.0727557390928268433 0.0311001744121313095
0.520965397357940674 -0.198170378804206848 -0.0989707708358764648
0.486572951078414917 -0.296980530023574829 -0.305845081806182861
0.479716747999191284 -0.314048230648040771 0.122151859104633331
0.513369500637054443 -0.306182414293289185 -0.102949395775794983
0.495523959398269653 -0.308483749628067017 -0.310059428215026855
0.506105244159698486 -0.326479822397232056 -0.00426721107214689255
0.511430025100708008 -0.323625266551971436 0.118002176284790039
0.464688241481781006 -0.288164377212524414 -0.297303438186645508
0.436965197324752808 -0.262699007987976074 -0.194581091403961182
0.135046869516372681 0.117791615426540375 0.336323946714401245
0.395462721586227417 -0.24355025589466095 0.318659126758575439
-0.601752519607543945 0.354990124702453613 0.0653342455625534058
-0.505519330501556396 0.358030080795288086 0.177751839160919189
0.542075693607330322 -0.281584382057189941 0.0976357161998748779
0.255963444709777832 0.0375247709453105927 -0.0727768242359161377
-0.234083235263824463 0.156593978404998779 -0.00593405589461326599
0.506158113479614258 -0.330584824085235596 -0.0026140483096241951
0.443501561880111694 -0.249382182955741882 -0.228344440460205078
-0.639153838157653809 0.255016744136810303 0.0543570145964622498
0.532162487506866455 -0.261892437934875488 0.0929013118147850037
-0.393723189830780029 -0.0584764741361141205 0.100060015916824341
0.52365952730178833 -0.288669407367706299 -0.0925725847482681274
0.0275978222489356995 -0.273388147354125977 -0.0358118824660778046
0.384432524442672729 -0.305206507444381714 0.118230365216732025
-0.582804024219512939 0.36760324239730835 0.131321683526039124
0.239860087633132935 0.00368553260341286659 0.180343806743621826
-0.113867282867431641 0.166257038712501526 0.347110867500305176
0.481970995664596558 -0.36741909384727478 -0.0225988775491714478
0.411411881446838379 -0.320253580808639526 -0.211761474609375
0.506391346454620361 -0.154625236988067627 0.123744398355484009
0.528821766376495361 -0.333706438541412354 0.0121725518256425858
-0.584239482879638672 0.336975842714309692 0.0338377170264720917
-0.591077923774719238 0.382599383592605591 0.130957603454589844
0.525799214839935303 -0.24369397759437561 -0.311009585857391357
0.473479747772216797 -0.290071427822113037 -0.300095647573471069
-0.597521185874938965 0.354348242282867432 0.169320523738861084
-0.587588846683502197 0.372133046388626099 0.100794598460197449
-0.212748870253562927 -0.128783181309700012 -0.0583927333354949951
0.234427377581596375 -0.292236924171447754 0.31431087851524353
0.238251999020576477 0.0681592971086502075 0.319167554378509521
0.541669070720672607 -0.312851965427398682 -0.058528602123260498
-0.445444583892822266 -0.0476942285895347595 0.126342132687568665
0.358718812465667725 -0.387347787618637085 -0.209782302379608154
-0.557107329368591309 0.211823314428329468 -0.114209949970245361
0.520426571369171143 -0.27866712212562561 -0.177407175302505493
0.241813644766807556 0.0357706844806671143 0.313814282417297363
0.242710128426551819 0.00104395952075719833 0.0231222007423639297
0.380067259073257446 0.0396355092525482178 0.0112840784713625908
0.526318967342376709 -0.230030819773674011 -0.310539960861206055
0.326430708169937134 0.0969792008399963379 -0.0366160236299037933
-0.374702811241149902 -0.0596418082714080811 -0.133627310395240784
0.512336194515228271 -0.166689515113830566 0.135488957166671753
-0.574815154075622559 0.322707027196884155 0.0491790249943733215
-0.559400796890258789 0.28413054347038269 0.363760292530059814
0.224026679992675781 0.0327475816011428833 -0.0588837228715419769
-0.574631690979003906 0.215065568685531616 -0.221598178148269653
-0.0452463589608669281 0.157266184687614441 0.0806350931525230408
0.113827630877494812 0.110584430396556854 0.0247986000031232834
0.342034429311752319 -0.2461271733045578 -0.0976469218730926514
-0.284999310970306396 0.300912678241729736 -0.00360578950494527817
0.152871847152709961 -0.00373180024325847626 -0.00415850896388292313
0.0684911906719207764 0.139535754919052124 0.0750059857964515686
-0.270099550485610962 0.280827790498733521 0.00104112573899328709
0.502574682235717773 -0.291677743196487427 -0.159749507904052734
0.136717081069946289 -0.0252454504370689392 0.0124665079638361931
-0.339849799871444702 -0.0312592834234237671 0.0221523381769657135
0.372827202081680298 -0.0911903530359268188 0.0437830910086631775
0.200057119131088257 0.101756364107131958 -0.0025249626487493515
-0.297638952732086182 -0.0242701116949319839 0.0357614979147911072
0.131619811058044434 -0.0171837974339723587 -0.0269215982407331467
0.101249635219573975 0.0165877193212509155 0.0907174199819564819
0.175330102443695068 0.119974896311759949 0.0373683534562587738
-0.23086896538734436 -0.0629383474588394165 0.104319095611572266
0.48546251654624939 -0.295832931995391846 -0.304163992404937744
-0.603253304958343506 0.290306687355041504 0.184797897934913635
0.466130554676055908 -0.307940751314163208 0.12005499005317688
0.377629637718200684 -0.0137680992484092712 0.00577738648280501366
0.514121294021606445 -0.2943095862865448 -0.104012787342071533
0.518278181552886963 -0.239081248641014099 -0.308182746171951294
0.476857006549835205 -0.309002935886383057 -0.301066368818283081
0.482632935047149658 -0.273846805095672607 -0.300528287887573242
0.116881713271141052 0.119602784514427185 0.296928465366363525
-0.58443450927734375 0.356886953115463257 0.0654329359531402588
0.382978379726409912 -0.336519330739974976 0.124908514320850372
-0.574328899383544922 0.318034768104553223 -0.0269936546683311462
-0.604601025581359863 0.21764838695526123 -0.0872999280691146851
0.267295777797698975 0.0399551615118980408 -0.086887948215007782
-0.357728809118270874 -0.021375264972448349 -0.131935775279998779
-0.564939022064208984 0.315039694309234619 -0.00843836739659309387
0.190471455454826355 -0.340058267116546631 -0.0753911882638931274
0.403585910797119141 -0.356560558080673218 -0.224840998649597168
-0.501143515110015869 0.146448105573654175 0.354022383689880371
0.508695363998413086 -0.150590956211090088 0.114860564470291138
0.49593961238861084 -0.263166964054107666 -0.304904282093048096
0.456875860691070557 -0.280270844697952271 -0.290392577648162842
0.439868956804275513 -0.26445084810256958 -0.284231454133987427
-0.588227987289428711 0.358024477958679199 0.061413206160068512
0.504649817943572998 -0.126022025942802429 0.123970389366149902
-0.206602483987808228 0.312924742698669434 0.107850924134254456
0.267616838216781616 -0.283217668533325195 0.31875455379486084
0.232269644737243652 0.00444042868912220001 0.31721922755241394
0.512482762336730957 -0.174938589334487915 -0.282040715217590332
-0.116025090217590332 0.0105366017669439316 0.00528579344972968102
0.403464794158935547 -0.358653903007507324 -0.225549429655075073
0.416760891675949097 -0.312488049268722534 0.143465340137481689
-0.555965542793273926 0.377241909503936768 0.18607562780380249
-0.17610660195350647 0.309965461492538452 0.117907613515853882
-0.390364706516265869 0.276547700166702271 -0.0858476608991622925
0.364860594272613525 0.0524216294288635254 0.0238318014889955521
0.129264682531356812 0.116672217845916748 0.318181931972503662
-0.287314772605895996 -0.0998707786202430725 -0.0926268398761749268
0.257953941822052002 0.101519376039505005 -0.0627685189247131348
-0.362359970808029175 -0.0588571876287460327 -0.144793182611465454
0.134059995412826538 0.114545740187168121 0.337122350931167603
-0.563898682594299316 0.19977395236492157 -0.229681104421615601
-0.276205182075500488 0.288475394248962402 -0.00174329336732625961
0.453774869441986084 -0.245930597186088562 -0.2887229323387146
0.459270834922790527 -0.274773240089416504 -0.291333377361297607
-0.635015785694122314 0.308854520320892334 0.170119017362594604
0.512478828430175781 -0.31636965274810791 -0.0389891825616359711
0.467827826738357544 -0.265214323997497559 -0.298466801643371582
0.477076530456542969 -0.294305860996246338 -0.300954610109329224
0.456964284181594849 -0.245753899216651917 -0.290139436721801758
0.380521148443222046 -0.360103905200958252 -0.214786887168884277
-0.480177968740463257 -0.0116847492754459381 0.185178875923156738
-0.516898274421691895 0.366508752107620239 0.173421114683151245
-0.618492782115936279 0.202389612793922424 -0.0877017602324485779
-0.23787999153137207 0.0193893630057573318 -0.07311992347240448
-0.38265654444694519 -0.0582884103059768677 0.023227248340845108
0.474369317293167114 -0.367447227239608765 0.0213128216564655304
-0.649075806140899658 0.237176328897476196 0.0320038311183452606
0.412040442228317261 -0.345761001110076904 -0.222566425800323486
0.525792181491851807 -0.336237311363220215 0.0795288383960723877
0.505432367324829102 -0.238404199481010437 -0.308501929044723511
0.249174937605857849 -0.28145870566368103 0.317765742540359497
0.239427372813224792 0.0674962028861045837 0.313467741012573242
0.539356589317321777 -0.300996333360671997 -0.0940306633710861206
-0.448500394821166992 -0.0404587835073471069 0.126145288348197937
-0.0443720631301403046 0.105229996144771576 0.317359834909439087
0.2475433349609375 0.021956808865070343 0.321636468172073364
-0.285865485668182373 -0.0988210737705230713 -0.0996160432696342468
-0.138594701886177063 -0.0143484994769096375 -0.0496134459972381592
-0.278309881687164307 0.338522970676422119 0.0464852377772331238
-0.254739075899124146 0.290298193693161011 -0.00387980043888092041
-0.219456270337104797 0.32258877158164978 0.0691148564219474792
-0.573535799980163574 0.152781084179878235 -0.0750345736742019653
-0.29023444652557373 0.293213099241256714 0.0153831755742430687
0.52567136287689209 -0.3196677565574646 0.026619957759976387
0.345568239688873291 -0.0298177935183048248 -0.0352885313332080841
0.522126615047454834 -0.362060487270355225 0.0887224823236465454
-0.0839552879333496094 -0.111274100840091705 0.0778169035911560059
-0.404519557952880859 0.326826155185699463 0.120811700820922852
0.504653036594390869 -0.365870237350463867 -0.00463065877556800842
-0.119277916848659515 0.266902446746826172 0.120390929281711578
0.518622219562530518 -0.34200248122215271 0.0353496335446834564
0.130331337451934814 -0.333917766809463501 0.300714641809463501
0.465810537338256836 -0.310250163078308105 0.0723580047488212585
0.48248523473739624 -0.373250454664230347 0.0518579073250293732
0.420412689447402954 -0.0252732411026954651 0.0641521811485290527
0.493974000215530396 -0.362489432096481323 -0.0160234291106462479
-0.233354374766349792 0.287789225578308105 0.0834701284766197205
0.531187772750854492 -0.330712258815765381 -0.00778525602072477341
-0.272390276193618774 0.31603163480758667 0.113299742341041565
0.307801425457000732 0.00320182694122195244 0.0455779694020748138
0.466144800186157227 -0.262847065925598145 -0.296555280685424805
0.472751498222351074 -0.303447514772415161 0.114110365509986877
0.510919153690338135 -0.312609583139419556 -0.104835033416748047
0.508767485618591309 -0.244665190577507019 -0.308863312005996704
0.446943491697311401 -0.291897952556610107 -0.293332517147064209
0.465154379606246948 -0.282754987478256226 -0.29807889461517334
0.13847804069519043 0.113588243722915649 0.336131036281585693
-0.651719987392425537 0.286302357912063599 0.0980589091777801514
-0.637908637523651123 0.245332077145576477 -0.0382646806538105011
0.136204570531845093 0.0700955390930175781 0.337138831615447998
-0.576980233192443848 0.304086357355117798 -0.0560969896614551544
0.261991024017333984 0.0311150494962930679 -0.0741641223430633545
0.541028022766113281 -0.2159615159034729 0.111534252762794495
-0.361202329397201538 -0.035021614283323288 -0.135212093591690063
-0.574637770652770996 0.327772051095962524 -0.0300632789731025696
-0.36246025562286377 -0.0703044980764389038 -0.0348356291651725769
-0.131186097860336304 -0.266980141401290894 0.118393957614898682
0.495045959949493408 -0.364664644002914429 -0.000501916743814945221
0.373214066028594971 -0.358438014984130859 -0.210877642035484314
-0.378606975078582764 -0.10607842355966568 0.101006686687469482
-0.067370295524597168 -0.263370484113693237 0.295964062213897705
0.519393265247344971 -0.24266330897808075 -0.309878379106521606
0.509480297565460205 -0.32932320237159729 0.0149977253749966621
-0.593797564506530762 0.369897395372390747 0.120355412364006042
-0.655041992664337158 0.175979569554328918 -0.103239163756370544
-0.223486930131912231 -0.143470495939254761 -0.0543009117245674133
-0.191405981779098511 0.317289203405380249 0.100136056542396545
0.256267905235290527 -0.282769769430160522 0.319269895553588867
0.239112108945846558 0.0333592891693115234 0.318396985530853271
-0.120858006179332733 -0.045553252100944519 0.00688534509390592575
-0.641125679016113281 0.309134155511856079 0.101635575294494629
0.36389625072479248 -0.372923552989959717 -0.207764387130737305
0.536875784397125244 -0.216930463910102844 0.161569252610206604
-0.553415238857269287 0.383354693651199341 0.157390028238296509
-0.123094931244850159 0.260030925273895264 0.114417314529418945
0.119627505540847778 0.102908492088317871 0.0888349860906600952
-0.375423699617385864 0.266100227832794189 -0.0903095453977584839
0.516628026962280273 -0.348176479339599609 0.0982623472809791565
-0.294271290302276611 -0.106363207101821899 -0.109714597463607788
0.274700194597244263 0.103500761091709137 -0.0584011226892471313
-0.575526952743530273 0.219982266426086426 -0.213226854801177979
-0.11610797792673111 0.269331961870193481 0.179207876324653625
0.236180722713470459 -0.287232875823974609 0.313614994287490845
0.309466063976287842 -0.186577528715133667 0.240553110837936401
0.541638433933258057 -0.324906677007675171 -0.0213832519948482513
0.0787815302610397339 -0.337236255407333374 0.281597346067428589
-0.00662377197295427322 -0.171337708830833435 0.00376489455811679363
-0.282336413860321045 0.262135118246078491 0.00621027499437332153
0.512705028057098389 -0.236415937542915344 -0.309834599494934082
-0.647103250026702881 0.278877437114715576 0.0794865936040878296
-0.645996809005737305 0.183356046676635742 -0.0911447629332542419
0.514096677303314209 -0.321432560682296753 0.0238363742828369141
-0.407238304615020752 -0.0628365427255630493 0.113253846764564514
0.516790568828582764 -0.354529857635498047 -0.021140052005648613
-0.567155003547668457 0.375171929597854614 0.151902109384536743
0.23578856885433197 0.0440375395119190216 0.312970489263534546
-0.664258897304534912 0.227404966950416565 0.0227885451167821884
-0.448832482099533081 -0.0376746207475662231 0.126507878303527832
0.502382814884185791 -0.301256656646728516 -0.179197996854782104
-0.589431822299957275 0.361825346946716309 0.0856651365756988525
-0.194475144147872925 0.315598011016845703 0.104195281863212585
0.246624171733856201 0.0248708073049783707 0.323105752468109131
0.530802667140960693 -0.322771340608596802 -0.0586286447942256927
-0.183272004127502441 0.307818472385406494 0.127802103757858276
0.246634423732757568 0.00795992463827133179 0.323364526033401489
0.0583864003419876099 0.140389084815979004 0.345096975564956665
-0.506706178188323975 0.150216460227966309 0.356047183275222778
0.269923657178878784 -0.310527652502059937 0.32588726282119751
-0.25453418493270874 0.0241385512053966522 -0.0713856220245361328
0.240810662508010864 -0.294486790895462036 0.322071731090545654
0.24848504364490509 0.044806256890296936 0.313807398080825806
0.467848807573318481 -0.10144411027431488 0.0341240465641021729
-0.125602081418037415 0.19584953784942627 0.114635050296783447
0.239885732531547546 -0.325872868299484253 0.317307025194168091
0.499814212322235107 -0.365811079740524292 0.0741756558418273926
0.523340463638305664 -0.323753595352172852 0.0256634708493947983
0.443636775016784668 -0.252411842346191406 0.332253724336624146
0.320730865001678467 -0.130702584981918335 -0.107237964868545532
0.0628490447998046875 -0.0100103635340929031 0.321204304695129395
0.511369287967681885 -0.359860122203826904 0.0469978824257850647
0.135562807321548462 -0.100142382085323334 0.039838302880525589
0.0491827167570590973 0.0121247619390487671 0.0290616322308778763
0.0201973356306552887 0.0489234030246734619 0.0418569520115852356
0.0874545872211456299 -0.0654376968741416931 0.28921961784362793
-0.162833794951438904 -0.265168547630310059 0.147014021873474121
0.264672696590423584 -0.0194148942828178406 0.0610268153250217438
-0.0293490663170814514 -0.0282964110374450684 0.294822573661804199
0.50159984827041626 -0.239744424819946289 -0.302395820617675781
0.475257217884063721 -0.314104199409484863 -0.30236092209815979
-0.630961179733276367 0.306956946849822998 0.16699555516242981
0.474561810493469238 -0.319969981908798218 0.120870552957057953
0.508819401264190674 -0.299830734729766846 -0.106057114899158478
0.52780991792678833 -0.274201929569244385 -0.317550808191299438
0.493073403835296631 -0.331584066152572632 -0.311121582984924316
0.502982914447784424 -0.319122105836868286 0.0976592674851417542
0.473200112581253052 -0.305005192756652832 -0.298744261264801025
-0.559459507465362549 0.268735587596893311 0.363896727561950684
0.125105559825897217 0.117685779929161072 0.313280463218688965
-0.633901119232177734 0.283054053783416748 0.0541629903018474579
-0.587695658206939697 0.36350211501121521 0.102010995149612427
0.370641827583312988 -0.373135030269622803 -0.21349295973777771
0.437872171401977539 -0.347368806600570679 0.153707951307296753
0.0576330646872520447 0.122018061578273773 0.320554673671722412
-0.574678897857666016 0.369498997926712036 0.215102508664131165
0.26455920934677124 0.0251466743648052216 -0.0592376403510570526
0.368038803339004517 -0.336122572422027588 0.159995228052139282
0.510289669036865234 -0.300573110580444336 -0.112484604120254517
0.133458465337753296 -0.319851815700531006 -0.0983929261565208435
0.516639173030853271 -0.347736954689025879 -0.0207833647727966309
0.388742715120315552 -0.345754325389862061 -0.214861661195755005
-0.577049911022186279 0.319773018360137939 0.040523085743188858
0.535670578479766846 -0.27716594934463501 -0.320880860090255737
0.46682429313659668 -0.310222804546356201 -0.299788385629653931
0.507116317749023438 -0.346006602048873901 0.0175829734653234482
-0.556278645992279053 0.310453981161117554 0.101589769124984741
0.193694055080413818 -0.338703155517578125 -0.0598353147506713867
0.0699101313948631287 -0.281615108251571655 -0.0783431380987167358
0.251910477876663208 -0.249620169401168823 0.319823682308197021
0.239762365818023682 0.0319610536098480225 0.316098600625991821
-0.121887072920799255 -0.0472373589873313904 0.00770926475524902344
0.178542226552963257 -0.0996009260416030884 -0.0153241269290447235
0.532297611236572266 -0.331304401159286499 -0.0136298220604658127
0.369694888591766357 -0.348572373390197754 -0.209757208824157715
0.534568130970001221 -0.245134487748146057 0.176719099283218384
0.561036288738250732 -0.314981579780578613 -0.331212013959884644
0.553971529006958008 -0.21105581521987915 0.13373604416847229
-0.543747901916503906 0.381525784730911255 0.163948893547058105
0.123206250369548798 0.117664635181427002 0.132561355829238892
-0.582482874393463135 0.352688789367675781 0.097330629825592041
-0.482645303010940552 0.186614438891410828 -0.0923139080405235291
0.515485644340515137 -0.338248491287231445 0.0384067632257938385
0.25324094295501709 -0.278536707162857056 0.321592062711715698
0.278050363063812256 -0.355150192975997925 -0.126706033945083618
0.50730741024017334 -0.285785824060440063 -0.314047694206237793
-0.432266414165496826 -0.0566027723252773285 0.116237014532089233
0.201615005731582642 0.0910859182476997375 0.222619876265525818
0.244348481297492981 0.104957118630409241 -0.0581089146435260773
-0.196422427892684937 0.202135831117630005 0.348550617694854736
0.25020897388458252 0.0257365796715021133 0.322590798139572144
0.239707008004188538 0.019908493384718895 0.320393741130828857
-0.0315271839499473572 0.163452744483947754 0.382326036691665649
-0.483109116554260254 -0.0150820091366767883 0.179449260234832764
0.483529329299926758 -0.368365645408630371 0.0455968081951141357
-0.643468976020812988 0.287675470113754272 0.0861112102866172791
0.276002228260040283 -0.165377408266067505 -0.071085125207901001
-0.412713527679443359 -0.056300722062587738 0.0781353116035461426
-0.642740964889526367 0.175877213478088379 -0.0821350216865539551
-0.226321160793304443 -0.133433401584625244 -0.052777901291847229
0.25446125864982605 -0.264962613582611084 0.320792019367218018
-0.34621584415435791 0.0179378986358642578 -0.117735870182514191
-0.287895858287811279 -0.0907986536622047424 -0.1068543940782547
-0.585502922534942627 0.21022738516330719 -0.218484580516815186
0.267085850238800049 -0.296352893114089966 0.314836323261260986
-0.0260762013494968414 -0.18674999475479126 -0.0439109094440937042
-0.617913544178009033 0.277481794357299805 0.0312041677534580231
-0.608445465564727783 0.298635154962539673 0.0921297669410705566
-0.398044437170028687 -0.0622666105628013611 0.118927732110023499
-0.452176511287689209 -0.0374584272503852844 0.119080759584903717
0.43033948540687561 -0.271084010601043701 0.329032778739929199
-0.0528585687279701233 0.141313180327415466 0.0911588817834854126
-0.503946423530578613 0.151818767189979553 0.35469895601272583
0.240771561861038208 -0.31866079568862915 0.322322815656661987
0.496991634368896484 -0.370240360498428345 0.0568673461675643921
0.398312836885452271 -0.256167411804199219 0.3223114013671875
-0.158838778734207153 -0.263022512197494507 0.180786475539207458
-0.499683558940887451 0.0145797524601221085 0.157166510820388794
0.416886061429977417 -0.296645820140838623 0.328328311443328857
0.535404622554779053 -0.339422136545181274 -0.0188939180225133896
0.343452215194702148 -0.266649574041366577 -0.128550484776496887
-0.496530860662460327 0.0724136382341384888 0.203199207782745361
0.442711681127548218 -0.271494656801223755 0.333427131175994873
0.522240996360778809 -0.334624350070953369 0.032297719269990921
0.452874064445495605 -0.319214463233947754 -0.2935161292552948
0.473332613706588745 -0.311025917530059814 0.116760469973087311
0.516902923583984375 -0.277782410383224487 -0.31324198842048645
0.502349376678466797 -0.325246542692184448 -0.314604490995407104
0.517902016639709473 -0.32628786563873291 0.101583719253540039
0.478627979755401611 -0.310907363891601562 -0.302764683961868286
0.114235520362854004 0.119174167513847351 0.288369804620742798
-0.122482173144817352 0.269296020269393921 0.158079355955123901
-0.614558517932891846 0.26576724648475647 0.0516855046153068542
-0.480082064867019653 0.00363190891221165657 0.18044707179069519
0.426223188638687134 -0.354511260986328125 0.158047795295715332
-0.293033033609390259 -0.109821543097496033 -0.106091924011707306
0.130567848682403564 0.0662824809551239014 0.320441246032714844
0.25340801477432251 0.0391579344868659973 -0.0784417092800140381
0.235356971621513367 0.0944217592477798462 -0.0537772662937641144
0.416619062423706055 -0.260855644941329956 -0.202803269028663635
0.521783709526062012 -0.35372278094291687 -0.0199671946465969086
-0.609000325202941895 0.381681382656097412 0.181055948138237
0.517269134521484375 -0.278702020645141602 -0.315219610929489136
0.499092251062393188 -0.349206149578094482 0.0237680505961179733
-0.588075459003448486 0.370046436786651611 0.112880006432533264
0.505460023880004883 -0.104217305779457092 0.146867483854293823
-0.198330029845237732 0.312039196491241455 0.112361259758472443
0.26360282301902771 -0.285976767539978027 0.319457113742828369
0.237325876951217651 0.06287422776222229 0.309610038995742798
-0.145273804664611816 -0.0431644320487976074 0.0035793771967291832
-0.657111883163452148 0.214853405952453613 -0.0463250689208507538
-0.2895316481590271 -0.0755749642848968506 -0.0691292285919189453
0.227361515164375305 0.0425700247287750244 -0.0488074757158756256
0.550772786140441895 -0.143876433372497559 0.131890222430229187
0.519375920295715332 -0.294719517230987549 0.07448597252368927
0.517264783382415771 -0.2833823561668396 -0.181409075856208801
-0.358436077833175659 -0.0166498497128486633 -0.0284951888024806976
0.090822756290435791 0.0886783450841903687 0.0850704535841941833
0.466368705034255981 -0.36117851734161377 -0.0112516423687338829
-0.433423042297363281 0.158094793558120728 -0.0671652108430862427
0.523609638214111328 -0.334943264722824097 0.0685168653726577759
0.262519657611846924 -0.285339891910552979 0.318104982376098633
0.00925269350409507751 -0.0907336622476577759 -0.0264684651046991348
0.0322736389935016632 -0.130096986889839172 0.0214449577033519745
-0.630776166915893555 0.265397191047668457 0.028902154415845871
0.242073744535446167 0.0751849710941314697 0.317970693111419678
0.239991560578346252 0.0304575227200984955 0.31821402907371521
-0.175274312496185303 0.301385879516601562 0.115728698670864105
0.304152071475982666 -0.150769203901290894 0.307452857494354248
0.261476188898086548 -0.290156751871109009 0.32063940167427063
-0.476883888244628906 -0.00757586024701595306 0.165551140904426575
0.242693483829498291 0.082545056939125061 0.311468064785003662
0.520151734352111816 -0.350598812103271484 0.0813926160335540771
-0.0354857668280601501 -0.237206295132637024 0.123462289571762085
-0.637913167476654053 0.290497392416000366 0.0987398326396942139
-0.235068321228027344 -0.132296770811080933 -0.0586704500019550323
-0.379289746284484863 -0.108178570866584778 0.105185851454734802
-0.23698502779006958 -0.147368341684341431 -0.058511391282081604
-0.657486021518707275 0.21464189887046814 -0.0338347591459751129
0.528702497482299805 -0.352043956518173218 0.0773463398218154907
-0.620951414108276367 0.270666271448135376 0.0522039271891117096
-0.404311180114746094 -0.063678249716758728 0.112111374735832214
-0.446969866752624512 -0.0408024042844772339 0.121496692299842834
0.267404913902282715 -0.285039395093917847 0.323173999786376953
0.127711430191993713 -0.326149284839630127 0.31199607253074646
0.152366489171981812 -0.342655777931213379 0.317217528820037842
0.447015345096588135 -0.335082709789276123 -0.29354393482208252
0.515697658061981201 -0.302167981863021851 -0.108383849263191223
0.514874160289764404 -0.279645144939422607 -0.313302755355834961
0.484404444694519043 -0.327065110206604004 -0.310204684734344482
0.463745027780532837 -0.345307439565658569 -0.303070962429046631
0.5487518310546875 -0.209677889943122864 -0.3158835768699646
0.523895025253295898 -0.299404501914978027 -0.322784841060638428
0.51772618293762207 -0.300218790769577026 -0.318816930055618286
0.246657058596611023 0.0577969923615455627 0.315759867429733276
0.241247743368148804 0.0883713290095329285 0.311939924955368042
-0.292710781097412109 -0.0997831970453262329 -0.102306470274925232
-0.453927874565124512 -0.0512328930199146271 0.116914272308349609
0.404043406248092651 -0.271546483039855957 0.322311669588088989
-0.503092944622039795 0.00435191672295331955 0.18828369677066803
0.400314688682556152 -0.28660169243812561 0.324713259935379028
0.398351341485977173 -0.272813677787780762 0.32319226861000061
0.341391921043395996 -0.258392244577407837 0.0895244404673576355
-0.0195175390690565109 -0.244022831320762634 0.128254279494285583
-0.464877068996429443 0.0363419726490974426 0.188658356666564941
-0.194926038384437561 0.222273737192153931 0.171326324343681335
0.366482287645339966 -0.328606069087982178 -0.0241069365292787552
0.322772234678268433 -0.389357477426528931 -0.159650802612304688
0.535363316535949707 -0.322834998369216919 -0.0587450303137302399
-0.442573338747024536 -0.0039527546614408493 0.152143567800521851
-0.0195306353271007538 -0.0591707900166511536 0.141105100512504578
-0.00106338970363140106 -0.235716328024864197 0.105857357382774353
0.525851309299468994 -0.201020300388336182 -0.0802860036492347717
0.448920786380767822 -0.307816952466964722 -0.293387711048126221
0.526535987854003906 -0.274890542030334473 -0.316058635711669922
0.499516725540161133 -0.324134320020675659 -0.313031047582626343
0.474280983209609985 -0.30447801947593689 -0.298017621040344238
-0.127707391977310181 0.247095689177513123 0.138361454010009766
-0.648859679698944092 0.282647371292114258 0.0942506864666938782
-0.199749022722244263 0.287323594093322754 0.335232913494110107
0.497399687767028809 -0.0861927568912506104 0.136209309101104736
0.200618132948875427 -0.35862356424331665 -0.091509304940700531
0.505437672138214111 -0.366870492696762085 -0.0232630763202905655
0.526897072792053223 -0.241982251405715942 0.172546610236167908
-0.586382448673248291 0.37991642951965332 0.170198768377304077
0.444252759218215942 -0.31443411111831665 -0.288332194089889526
0.497880399227142334 -0.110576272010803223 0.111853048205375671
-0.655357837677001953 0.175618588924407959 -0.103928908705711365
-0.202595561742782593 0.309485733509063721 0.0886859297752380371
0.201160043478012085 -0.0131016205996274948 0.294571548700332642
0.16002500057220459 -0.0617319196462631226 -0.0447070188820362091
-0.579753756523132324 0.302854955196380615 0.36834290623664856
0.274934053421020508 0.0987142547965049744 -0.029817286878824234
-0.436339437961578369 0.156124398112297058 -0.0867454856634140015
0.534495711326599121 -0.332247048616409302 0.0122457509860396385
-0.569153010845184326 0.197660505771636963 -0.229487031698226929
-0.498121201992034912 0.045500241219997406 -0.0875511318445205688
0.0314927138388156891 -0.103926330804824829 0.0323800221085548401
0.533585906028747559 -0.263887405395507812 -0.316450715065002441
0.00924857519567012787 0.198147207498550415 0.0270258635282516479
0.301920682191848755 0.0392628088593482971 -0.0851962417364120483
-0.333029210567474365 -0.0153269339352846146 -0.10835602879524231
0.236547768115997314 0.0152152450755238533 0.321136713027954102
0.125117868185043335 0.0137273417785763741 0.298058837652206421
0.527469396591186523 -0.354530274868011475 0.0657690241932868958
0.466337263584136963 -0.309300094842910767 -0.233583599328994751
-0.651974737644195557 0.285916775465011597 0.104443192481994629
0.545874118804931641 -0.219331920146942139 0.163307011127471924
0.527985751628875732 -0.32251247763633728 -0.016618506982922554
-0.383164286613464355 -0.0555911287665367126 0.0758882090449333191
0.45626106858253479 -0.310457020998001099 -0.292798161506652832
0.504687309265136719 -0.339024454355239868 -0.318208515644073486
0.478141695261001587 -0.313796311616897583 -0.300079464912414551
0.520135045051574707 -0.300623595714569092 -0.317760556936264038
-0.00292484089732170105 -0.13938450813293457 -0.0252050459384918213
0.39670860767364502 -0.272413253784179688 0.323368877172470093
0.400359034538269043 -0.270825982093811035 0.323660403490066528
0.505736649036407471 -0.331118315458297729 0.105676382780075073
-0.467698156833648682 0.0428507179021835327 0.170075833797454834
0.409519016742706299 -0.345299035310745239 0.155964046716690063
-0.361962884664535522 -0.0346208177506923676 -0.148844927549362183
-0.129002928733825684 -0.267182320356369019 0.112014457583427429
0.51266932487487793 -0.368219524621963501 -0.0153060443699359894
-0.214059814810752869 0.313132375478744507 0.0970579162240028381
0.250307768583297729 -0.286515474319458008 0.322622537612915039
0.208630338311195374 0.00999917369335889816 -0.0467469058930873871
0.0697839856147766113 -0.151251658797264099 -0.01778428815305233
-0.170030117034912109 0.305340796709060669 0.118451707065105438
0.470774382352828979 -0.36355292797088623 0.00652885343879461288
-0.291834920644760132 -0.0985690504312515259 -0.103529706597328186
0.0364005714654922485 -0.149453461170196533 -0.0223385114222764969
0.232114031910896301 0.0571187473833560944 0.308483898639678955
0.253145158290863037 -0.288081079721450806 0.32036253809928894
-0.471980780363082886 0.00159928714856505394 0.167994946241378784
0.241207495331764221 0.063487909734249115 0.312300443649291992
0.508897840976715088 -0.351312488317489624 0.0634232312440872192
0.227400302886962891 -0.314170360565185547 0.314099282026290894
-0.375467658042907715 -0.0925049632787704468 0.0858061909675598145
-0.0629351884126663208 -0.241135686635971069 0.302194923162460327
-0.222880512475967407 -0.127190589904785156 -0.0535547398030757904
-0.410101830959320068 -0.0647803395986557007 0.0982849299907684326
-0.445658892393112183 -0.0440216064453125 0.132096648216247559
0.239046752452850342 -0.29345974326133728 0.313940107822418213
0.153845936059951782 -0.323870748281478882 0.319674968719482422
0.424446910619735718 -0.255387008190155029 0.328565150499343872
0.437503993511199951 -0.342108607292175293 -0.293169498443603516
0.506164491176605225 -0.333602458238601685 -0.318285822868347168
0.444466710090637207 -0.3516254723072052 -0.287217170000076294
0.238517090678215027 0.066570773720741272 0.311417192220687866
0.402695983648300171 -0.286817014217376709 0.325822442770004272
-0.495148986577987671 0.00727503513917326927 0.18756374716758728
0.485173135995864868 -0.0624907016754150391 0.131265595555305481
0.0122643858194351196 -0.170362144708633423 0.00940055213868618011
0.531444191932678223 -0.306770056486129761 -0.0626197755336761475
0.314262598752975464 -0.301567584276199341 -0.127443820238113403
0.444985806941986084 -0.290809422731399536 -0.285967737436294556
-0.337109744548797607 0.225376605987548828 0.125107675790786743
-0.400569647550582886 -0.0276101827621459961 -0.00232899095863103867
0.402442038059234619 -0.271009534597396851 0.324025720357894897
-0.133817464113235474 0.196386784315109253 0.166992872953414917
0.398418247699737549 -0.270915001630783081 0.323874831199645996
-0.446465134620666504 -0.0243621207773685455 0.0211110655218362808
-0.137930601835250854 0.245402514934539795 0.191263824701309204
-0.612231194972991943 0.294595867395401001 0.183484822511672974
0.124833159148693085 0.116926863789558411 0.315995246171951294
-0.121107310056686401 0.251220911741256714 0.16131870448589325
-0.583259165287017822 0.348591923713684082 0.0578622929751873016
0.426386177539825439 -0.347519248723983765 0.152426570653915405
-0.566674292087554932 0.295529067516326904 -0.0694517791271209717
0.251556992530822754 0.0273963175714015961 -0.0801835060119628906
0.247584357857704163 0.101094357669353485 -0.0489791668951511383
-0.358495891094207764 -0.0548891425132751465 -0.142655134201049805
0.198660030961036682 0.12065492570400238 0.0351306535303592682
0.545008420944213867 -0.13104015588760376 0.111969389021396637
-0.581277966499328613 0.322019875049591064 -0.0231810081750154495
0.206272095441818237 0.0253183487802743912 0.176207125186920166
-0.595426440238952637 0.375903815031051636 0.171764925122261047
0.444246202707290649 -0.31857636570930481 0.126935631036758423
0.255174875259399414 -0.278014898300170898 0.316036969423294067
0.235860049724578857 0.0247381459921598434 0.315896481275558472
-0.363412380218505859 -0.0489341691136360168 -0.0241885706782341003
-0.183057665824890137 0.118757031857967377 0.0416718460619449615
0.254683136940002441 -0.28743627667427063 0.319012254476547241
0.242028951644897461 0.0341006666421890259 0.321188896894454956
0.399389296770095825 0.0241045914590358734 0.114455029368400574
-0.341275006532669067 -0.0653093904256820679 -0.148089766502380371
0.0759822875261306763 -0.332410752773284912 0.298526942729949951
-0.386932611465454102 -0.0598011389374732971 0.0935329198837280273
-0.448506474494934082 -0.0404356196522712708 0.127380520105361938
0.438717395067214966 -0.278463900089263916 0.333497971296310425
0.0343727469444274902 -0.122373588383197784 -0.0260352529585361481
0.413852214813232422 -0.279821008443832397 0.326732993125915527
0.432552635669708252 -0.295321851968765259 0.332927167415618896
0.367161363363265991 -0.277845650911331177 -0.131074637174606323
-0.478147268295288086 0.00222287699580192566 0.187386289238929749
-0.292213618755340576 -0.095264434814453125 -0.104840293526649475
0.241568595170974731 -0.31215059757232666 0.309121489524841309
0.473121196031570435 -0.353381514549255371 0.00658560916781425476
-0.297025382518768311 -0.0954264476895332336 -0.107195436954498291
0.244584888219833374 -0.287781596183776855 0.319749295711517334
0.062500298023223877 -0.329012691974639893 0.296499550342559814
0.157980352640151978 -0.267104297876358032 -0.106114715337753296
0.250245273113250732 0.0643884316086769104 0.314740896224975586
-0.482839673757553101 -0.00709312222898006439 0.177389025688171387
0.236765205860137939 0.0675356015563011169 0.313758581876754761
0.238966643810272217 -0.330992370843887329 0.321025967597961426
-0.381382733583450317 -0.0912473946809768677 0.0365929529070854187
-0.216593563556671143 -0.139305099844932556 -0.0548639334738254547
-0.382563740015029907 -0.06260700523853302 0.0833230912685394287
0.150083437561988831 -0.331017106771469116 0.331419289112091064
0.44525030255317688 -0.27896466851234436 0.333357959985733032
0.406964749097824097 -0.27957230806350708 0.324911624193191528
-0.502436816692352295 0.00731610693037509918 0.187875747680664062
-0.322066009044647217 0.0979783684015274048 -0.0708767175674438477
0.532463014125823975 -0.206598818302154541 -0.0529636777937412262
0.450354218482971191 -0.293212682008743286 -0.291037440299987793
0.487225383520126343 -0.324373871088027954 -0.31129533052444458
0.445749253034591675 -0.30900120735168457 -0.291437745094299316
-0.577468633651733398 0.269808918237686157 0.365467607975006104
-0.461850285530090332 0.106520049273967743 -0.231439664959907532
0.374479442834854126 -0.317878067493438721 0.198500365018844604
-0.589746594429016113 0.367676347494125366 0.130966693162918091
0.392365574836730957 -0.352394402027130127 -0.218344837427139282
0.440550446510314941 -0.309554040431976318 -0.289613783359527588
-0.200933113694190979 0.306237220764160156 0.0945406779646873474
-0.155987128615379333 0.268722385168075562 0.151243314146995544
0.529904603958129883 -0.337714493274688721 0.071363396942615509
0.462925553321838379 -0.26545184850692749 -0.217976778745651245
-0.633527278900146484 0.276462823152542114 0.106858909130096436
0.43776211142539978 -0.307804197072982788 -0.28775438666343689
0.515374183654785156 -0.276424288749694824 -0.317229390144348145
0.516729056835174561 -0.339439451694488525 -0.321031004190444946
0.453974306583404541 -0.306361109018325806 -0.293700546026229858
0.490587413311004639 -0.321091622114181519 0.0938955917954444885
0.0206513814628124237 -0.275127261877059937 -0.0188854224979877472
-0.653282046318054199 0.172112047672271729 -0.10817091166973114
-0.224432945251464844 0.319107234477996826 0.120676770806312561
0.465185195207595825 -0.363201171159744263 0.00539231766015291214
0.481038212776184082 -0.336055934429168701 0.049741894006729126
0.511667847633361816 -0.33847537636756897 -0.319864422082901001
0.439714342355728149 -0.355671495199203491 -0.298301815986633301
-0.270140677690505981 0.32269364595413208 0.0414482764899730682
0.423558652400970459 -0.312691032886505127 -0.282155990600585938
0.415211409330368042 -0.294388234615325928 0.328153789043426514
-0.326425284147262573 -0.0747770443558692932 0.122857093811035156
-0.367329895496368408 -0.0659710094332695007 0.154225200414657593
-0.338788986206054688 0.215576007962226868 0.131774574518203735
0.00971628166735172272 0.119940072298049927 0.104519180953502655
0.542193591594696045 -0.308323979377746582 -0.0467124804854393005
0.0133781284093856812 -0.261292815208435059 0.0391732938587665558
-0.00385157577693462372 -0.236040353775024414 0.0937278419733047485
-0.000110141932964324951 -0.219135060906410217 0.0809018462896347046
0.464760363101959229 -0.360072940587997437 0.0298341251909732819
-0.270129412412643433 -0.137333154678344727 0.176671028137207031
-0.344889312982559204 -0.0651306584477424622 0.140991121530532837
