ply
format ascii 1.0
element vertex 737
property float x
property float y
property float z
end_header
-0.0355264879763126373 -0.237131759524345398 0.123412147164344788
-0.63808673620223999 0.290633320808410645 0.0988120585680007935
-0.235136330127716064 -0.13217829167842865 -0.0586237125098705292
-0.379744857549667358 -0.108184441924095154 0.104824237525463104
-0.237182468175888062 -0.147237300872802734 -0.0585352145135402679
-0.657558739185333252 0.214768141508102417 -0.0339234136044979095
0.529073238372802734 -0.35191422700881958 0.077181108295917511
-0.621054649353027344 0.270795881748199463 0.0522726550698280334
-0.404581546783447266 -0.0637948662042617798 0.111530527472496033
-0.446986019611358643 -0.0408653095364570618 0.121359989047050476
0.267724961042404175 -0.285025030374526978 0.323066353797912598
0.127759024500846863 -0.32617950439453125 0.31203305721282959
0.152425035834312439 -0.342669278383255005 0.31718483567237854
0.447570919990539551 -0.334891796112060547 -0.293574988842010498
0.516072511672973633 -0.302022367715835571 -0.108607590198516846
0.515344202518463135 -0.27944415807723999 -0.313330471515655518
0.484757363796234131 -0.32693895697593689 -0.310329616069793701
0.464150309562683105 -0.345162838697433472 -0.303263843059539795
0.549203097820281982 -0.209634706377983093 -0.31617283821105957
0.524239957332611084 -0.299223750829696655 -0.322958409786224365
0.518114387989044189 -0.300033152103424072 -0.318853318691253662
0.246450901031494141 0.0578523799777030945 0.315733522176742554
0.240940123796463013 0.0884303972125053406 0.311940163373947144
-0.292622894048690796 -0.0997373014688491821 -0.102288670837879181
-0.454013675451278687 -0.0513287410140037537 0.116501130163669586
0.404562681913375854 -0.271499931812286377 0.322088748216629028
-0.503583431243896484 0.00444629695266485214 0.187983915209770203
0.400972813367843628 -0.286534130573272705 0.324381768703460693
0.398944318294525146 -0.272788316011428833 0.32296326756477356
0.341541558504104614 -0.258288353681564331 0.0894064232707023621
-0.0194658208638429642 -0.243920579552650452 0.12806074321269989
-0.465567350387573242 0.0365641117095947266 0.188473731279373169
-0.195282280445098877 0.222260519862174988 0.171178072690963745
0.366400390863418579 -0.328611493110656738 -0.0240686777979135513
0.32275816798210144 -0.389343321323394775 -0.159671977162361145
0.535512030124664307 -0.322763413190841675 -0.058788251131772995
-0.442928791046142578 -0.00404332391917705536 0.151706695556640625
-0.0198229290544986725 -0.0591154098510742188 0.141062349081039429
-0.000883987173438072205 -0.235731244087219238 0.105805739760398865
0.52590477466583252 -0.200997158885002136 -0.0803503245115280151
0.449556261301040649 -0.307545959949493408 -0.293456733226776123
0.526877522468566895 -0.274663269519805908 -0.31614723801612854
0.499837756156921387 -0.324094325304031372 -0.313153594732284546
0.474926143884658813 -0.304320007562637329 -0.29794013500213623
-0.127835407853126526 0.247248873114585876 0.138410285115242004
-0.648848116397857666 0.282713115215301514 0.0943506509065628052
-0.199857264757156372 0.287494659423828125 0.335145264863967896
0.49737316370010376 -0.0860643014311790466 0.136093944311141968
0.200500369071960449 -0.358555793762207031 -0.0914599150419235229
0.505623877048492432 -0.366857856512069702 -0.0233756657689809799
0.527058839797973633 -0.241919994354248047 0.172400087118148804
-0.586690604686737061 0.380141377449035645 0.170177936553955078
0.444820553064346313 -0.314151644706726074 -0.288362503051757812
0.498123854398727417 -0.110465534031391144 0.111702844500541687
-0.655062973499298096 0.175584495067596436 -0.103857435286045074
-0.20259895920753479 0.309574007987976074 0.0887688547372817993
0.200718671083450317 -0.0130777489393949509 0.294709771871566772
0.159521386027336121 -0.0615362823009490967 -0.044635917991399765
-0.580044150352478027 0.30292782187461853 0.368351876735687256
0.274407655000686646 0.0989191010594367981 -0.0298953242599964142
-0.436395645141601562 0.156207233667373657 -0.0868207067251205444
0.534682571887969971 -0.332167655229568481 0.0122110536321997643
-0.569353401660919189 0.197756573557853699 -0.229547485709190369
-0.498646646738052368 0.0455934256315231323 -0.0875991508364677429
0.0315115712583065033 -0.103811606764793396 0.0323665961623191833
0.533969283103942871 -0.263682126998901367 -0.316725611686706543
0.00931652449071407318 0.198244363069534302 0.0269585363566875458
0.301224291324615479 0.0394868776202201843 -0.085352286696434021
-0.333177566528320312 -0.015304960310459137 -0.108389541506767273
0.236270397901535034 0.01514431182295084 0.321177393198013306
0.124722763895988464 0.0136375417932868004 0.298334956169128418
0.527803540229797363 -0.354430258274078369 0.0656525343656539917
0.466820329427719116 -0.309188038110733032 -0.233738496899604797
-0.652025878429412842 0.285993576049804688 0.104469344019889832
0.546109914779663086 -0.219278812408447266 0.163112789392471313
0.528189361095428467 -0.322462260723114014 -0.0167411919683218002
-0.383556365966796875 -0.0556245073676109314 0.0755021274089813232
0.45672231912612915 -0.310106962919235229 -0.292990535497665405
0.505111575126647949 -0.338982522487640381 -0.318301022052764893
0.478762775659561157 -0.313596218824386597 -0.300090193748474121
0.520579755306243896 -0.300449132919311523 -0.317804664373397827
-0.00291664153337478638 -0.139313623309135437 -0.0251755788922309875
0.397290259599685669 -0.272362470626831055 0.323153674602508545
0.400943160057067871 -0.270758390426635742 0.323384970426559448
0.505998611450195312 -0.331139653921127319 0.10552360862493515
-0.468499869108200073 0.0430291593074798584 0.16955120861530304
0.409698337316513062 -0.345257848501205444 0.155859798192977905
-0.362109601497650146 -0.034521251916885376 -0.148889154195785522
-0.128648608922958374 -0.267223387956619263 0.111720561981201172
0.512865364551544189 -0.368161648511886597 -0.0153924040496349335
-0.214097246527671814 0.313253879547119141 0.0971591472625732422
0.250570327043533325 -0.286471247673034668 0.322498410940170288
0.208214789628982544 0.0101742791011929512 -0.0467368364334106445
0.0698917359113693237 -0.151224136352539062 -0.0176407154649496078
-0.17012670636177063 0.305465459823608398 0.118484809994697571
0.471062749624252319 -0.36352229118347168 0.00636250432580709457
-0.291715294122695923 -0.0985372141003608704 -0.103489309549331665
0.0363731905817985535 -0.149337083101272583 -0.0221982952207326889
0.231885895133018494 0.0571896880865097046 0.308408826589584351
0.253467053174972534 -0.288056224584579468 0.32019999623298645
-0.472571760416030884 0.00179266510531306267 0.167737618088722229
0.240912869572639465 0.0634678676724433899 0.312379390001296997
0.509157538414001465 -0.351247340440750122 0.0632982701063156128
0.227425739169120789 -0.314171731472015381 0.31412389874458313
-0.375908315181732178 -0.0925176292657852173 0.0855093896389007568
-0.0629808381199836731 -0.241167724132537842 0.30209815502166748
-0.223180890083312988 -0.126997277140617371 -0.0536112748086452484
-0.410300791263580322 -0.0649528577923774719 0.0978066623210906982
-0.445738226175308228 -0.0441037900745868683 0.131731122732162476
0.239167362451553345 -0.293487846851348877 0.313858240842819214
0.153980106115341187 -0.323920935392379761 0.319617480039596558
0.425102829933166504 -0.255326986312866211 0.328147560358047485
0.43799513578414917 -0.341991245746612549 -0.293312042951583862
0.506538450717926025 -0.333637714385986328 -0.318435519933700562
0.445049971342086792 -0.351411134004592896 -0.287407845258712769
0.238449081778526306 0.0665573328733444214 0.311554878950119019
0.403272092342376709 -0.286763966083526611 0.325524836778640747
-0.495814859867095947 0.00736612966284155846 0.18721240758895874
0.485382080078125 -0.0625242739915847778 0.131089642643928528
0.0123983100056648254 -0.170365482568740845 0.00938370637595653534
0.531638920307159424 -0.306696534156799316 -0.0626064762473106384
0.314243853092193604 -0.301582396030426025 -0.127334997057914734
0.445832580327987671 -0.290512681007385254 -0.286155998706817627
-0.337452292442321777 0.225456118583679199 0.124798506498336792
-0.401013195514678955 -0.0275154951959848404 -0.00246987771242856979
0.402947813272476196 -0.270930290222167969 0.323769241571426392
-0.133860751986503601 0.196476295590400696 0.166836455464363098
0.398997455835342407 -0.27087363600730896 0.323633134365081787
-0.446544438600540161 -0.0243809428066015244 0.0209753308445215225
-0.13802453875541687 0.245532602071762085 0.191241592168807983
-0.612799108028411865 0.294906973838806152 0.18350943922996521
0.124770551919937134 0.116942286491394043 0.316030323505401611
-0.121085509657859802 0.251334786415100098 0.161376342177391052
-0.583330035209655762 0.348767638206481934 0.0578951425850391388
0.426570773124694824 -0.347419619560241699 0.152413994073867798
-0.567225933074951172 0.295769333839416504 -0.0693647786974906921
0.25105246901512146 0.0274893846362829208 -0.0802846327424049377
0.247190937399864197 0.101202614605426788 -0.0491569265723228455
-0.358691692352294922 -0.0548089444637298584 -0.14265836775302887
0.198463514447212219 0.120794743299484253 0.0351724699139595032
0.545268058776855469 -0.130881220102310181 0.111742466688156128
-0.581463098526000977 0.322246909141540527 -0.0231924448162317276
0.205506503582000732 0.0254537723958492279 0.176176562905311584
-0.595781266689300537 0.376009821891784668 0.171806305646896362
0.444683432579040527 -0.318474709987640381 0.126751735806465149
0.255380570888519287 -0.278013706207275391 0.315997123718261719
0.235551580786705017 0.0246403291821479797 0.315861761569976807
-0.36363905668258667 -0.0488998666405677795 -0.0244068056344985962
-0.182923465967178345 0.118864685297012329 0.0416673347353935242
0.254974097013473511 -0.287411302328109741 0.318874478340148926
0.241770088672637939 0.03401976078748703 0.321325868368148804
0.399340778589248657 0.0241732224822044373 0.114455334842205048
-0.341569900512695312 -0.0651619136333465576 -0.148051261901855469
0.0759271234273910522 -0.332461029291152954 0.298528999090194702
-0.386900901794433594 -0.0598940104246139526 0.0930897817015647888
-0.448626577854156494 -0.0404550284147262573 0.127242982387542725
0.439433962106704712 -0.278401225805282593 0.333184599876403809
0.034342106431722641 -0.122285753488540649 -0.0260633900761604309
0.414427697658538818 -0.279830902814865112 0.326533615589141846
0.433208823204040527 -0.295212239027023315 0.332646071910858154
0.367422044277191162 -0.277868598699569702 -0.130989491939544678
-0.478391826152801514 0.00234765931963920593 0.187263116240501404
-0.292125940322875977 -0.0952357202768325806 -0.1048106849193573
0.241633519530296326 -0.312175184488296509 0.30909419059753418
0.473396360874176025 -0.353278905153274536 0.00640486180782318115
-0.296950817108154297 -0.0953485816717147827 -0.107115879654884338
0.244820401072502136 -0.287785828113555908 0.319670230150222778
0.0624183900654315948 -0.329122304916381836 0.296560347080230713
0.158070832490921021 -0.267055779695510864 -0.106112003326416016
0.250016003847122192 0.0644088014960289001 0.314894318580627441
-0.483147978782653809 -0.00706375017762184143 0.177291393280029297
0.236679002642631531 0.0675333887338638306 0.313859820365905762
0.238952308893203735 -0.331052660942077637 0.321033060550689697
-0.382039636373519897 -0.0912479832768440247 0.0361834019422531128
-0.216618582606315613 -0.139239773154258728 -0.0548916533589363098
-0.382903516292572021 -0.0627496838569641113 0.0827106907963752747
0.150156021118164062 -0.330979853868484497 0.331438660621643066
0.445941179990768433 -0.278909564018249512 0.333109587430953979
0.407600283622741699 -0.279594093561172485 0.324617296457290649
-0.502935111522674561 0.00738291442394256592 0.187622383236885071
-0.322449624538421631 0.097990766167640686 -0.0709923207759857178
0.532475054264068604 -0.206578731536865234 -0.0530197136104106903
0.450994342565536499 -0.292904883623123169 -0.291089743375778198
0.487572580575942993 -0.3242625892162323 -0.311412841081619263
0.446405231952667236 -0.30872836709022522 -0.291485786437988281
-0.577625393867492676 0.269884079694747925 0.365512251853942871
-0.461916327476501465 0.106565609574317932 -0.231388971209526062
0.374378085136413574 -0.317826300859451294 0.198393478989601135
-0.590044319629669189 0.3678455650806427 0.130957111716270447
0.392592042684555054 -0.352426499128341675 -0.218376874923706055
0.441069990396499634 -0.309263616800308228 -0.289662152528762817
-0.200876086950302124 0.306294739246368408 0.0946540161967277527
-0.155988037586212158 0.268765062093734741 0.151069208979606628
0.53021472692489624 -0.337560266256332397 0.0712093636393547058
0.463618099689483643 -0.265374541282653809 -0.218197077512741089
-0.633617818355560303 0.276576578617095947 0.106926493346691132
0.43837815523147583 -0.307541847229003906 -0.287821948528289795
0.515734434127807617 -0.276247799396514893 -0.317283570766448975
0.517038464546203613 -0.339381575584411621 -0.32117953896522522
0.454414397478103638 -0.306134015321731567 -0.293828070163726807
0.490928292274475098 -0.321001827716827393 0.0937958359718322754
0.020754106342792511 -0.275089472532272339 -0.0188858397305011749
-0.653102755546569824 0.17214551568031311 -0.108108893036842346
-0.22477366030216217 0.319214791059494019 0.120695441961288452
0.465471506118774414 -0.363179147243499756 0.00520500261336565018
0.481355965137481689 -0.335951417684555054 0.0496053434908390045
0.512008070945739746 -0.338406860828399658 -0.319882303476333618
0.44012451171875 -0.355524629354476929 -0.298382878303527832
-0.270208954811096191 0.322886437177658081 0.0415566004812717438
0.424104452133178711 -0.312430888414382935 -0.282471120357513428
0.415788024663925171 -0.294356286525726318 0.327970892190933228
-0.326779693365097046 -0.074681110680103302 0.122670680284500122
-0.368172794580459595 -0.0658043771982192993 0.153546333312988281
-0.338832944631576538 0.21564994752407074 0.131894409656524658
0.00985417328774929047 0.119875311851501465 0.104474842548370361
0.542351722717285156 -0.308245062828063965 -0.0467268191277980804
0.0137972868978977203 -0.261290609836578369 0.0391249507665634155
-0.00369446538388729095 -0.236008226871490479 0.093632332980632782
0.000125624239444732666 -0.219080299139022827 0.0809113830327987671
0.465141564607620239 -0.360048264265060425 0.0296282097697257996
-0.27008432149887085 -0.137313917279243469 0.176726207137107849
-0.345620334148406982 -0.0651840865612030029 0.140414625406265259
0.123166970908641815 -0.276131898164749146 0.128263786435127258
-0.134455889463424683 0.0795572027564048767 0.0896917432546615601
0.463244795799255371 -0.0537338666617870331 0.0171385575085878372
-0.0144031178206205368 -0.216285556554794312 0.0797350034117698669
-0.555179715156555176 0.392510473728179932 0.147254973649978638
0.496854573488235474 -0.365825176239013672 0.00471251923590898514
-0.610770881175994873 0.294932812452316284 0.186297014355659485
0.530199527740478516 -0.274293959140777588 -0.318119913339614868
0.369973659515380859 -0.263908982276916504 0.180867642164230347
0.420063495635986328 -0.343695640563964844 0.150195181369781494
0.251126140356063843 0.0400718674063682556 -0.0675797760486602783
0.549235939979553223 -0.149096012115478516 0.12376723438501358
-0.570961713790893555 0.284705311059951782 -0.00695366226136684418
0.501322746276855469 -0.361614018678665161 -0.0016405903734266758
0.208233371376991272 0.116197958588600159 -0.0113389380276203156
-0.28994479775428772 -0.0848855972290039062 -0.0670492947101593018
0.158679604530334473 -0.082573235034942627 -0.0366381295025348663
-0.340396583080291748 -0.104782313108444214 0.140531301498413086
0.511294245719909668 -0.280442953109741211 -0.313766658306121826
-0.339405357837677002 -0.0789056122303009033 0.0381466448307037354
-0.370035499334335327 0.281551927328109741 -0.06322479248046875
0.510055184364318848 -0.340043574571609497 0.0645530596375465393
0.301335453987121582 -0.205295845866203308 0.247616827487945557
0.543089985847473145 -0.311104506254196167 -0.0611430555582046509
0.141485393047332764 0.0701462626457214355 0.335840940475463867
-0.59421241283416748 0.267880469560623169 0.0116942394524812698
0.221590816974639893 -0.00636051781475543976 0.295154988765716553
0.230627730488777161 0.0351156666874885559 0.312140345573425293
0.533803105354309082 -0.318623900413513184 -0.0134718362241983414
-0.389718025922775269 -0.0632655322551727295 0.105072662234306335
-0.448047518730163574 -0.0392551310360431671 0.126130878925323486
0.495319753885269165 -0.0905910879373550415 0.153868168592453003
0.250669479370117188 0.064078211784362793 0.316037088632583618
-0.291820764541625977 -0.092064395546913147 0.306902766227722168
-0.366913765668869019 -0.113934144377708435 0.103399008512496948
-0.563734948635101318 0.127846822142601013 -0.0790077000856399536
-0.502160608768463135 0.0242075137794017792 0.185798689723014832
0.518435060977935791 -0.296421557664871216 -0.314586669206619263
0.472407341003417969 -0.327356547117233276 -0.300481468439102173
-0.574168741703033447 0.269536077976226807 0.362477809190750122
-0.57152634859085083 0.355766713619232178 0.16671714186668396
-0.191841334104537964 0.305403620004653931 0.101005807518959045
-0.661416530609130859 0.240333721041679382 0.0417814813554286957
-0.505411207675933838 0.145136311650276184 0.352822721004486084
0.507474422454833984 -0.346228837966918945 -0.318786025047302246
-0.200751453638076782 0.305789053440093994 0.101722285151481628
0.475330919027328491 -0.35680311918258667 0.00396424811333417892
0.509844660758972168 -0.32984316349029541 0.0658918619155883789
-0.610649287700653076 0.368182718753814697 0.0875272005796432495
-0.562659800052642822 0.28890913724899292 -0.0563162043690681458
0.219934999942779541 0.011080227792263031 0.30842551589012146
0.240193650126457214 0.00607738178223371506 0.321127653121948242
-0.360624700784683228 -0.0559060722589492798 -0.138581663370132446
0.399146050214767456 -0.25194847583770752 0.3215179443359375
0.399262011051177979 -0.262346208095550537 0.324402809143066406
0.224028229713439941 -0.32352718710899353 0.32030951976776123
0.410851806402206421 -0.267089933156967163 0.324611812829971313
-0.509698390960693359 0.0502092018723487854 0.194447845220565796
-0.630980074405670166 0.156897291541099548 -0.0527502335608005524
-0.502561688423156738 0.147774979472160339 0.34473186731338501
0.521338164806365967 -0.349801212549209595 -0.323512494564056396
0.495538055896759033 -0.347397863864898682 -0.000215343199670314789
-0.198652535676956177 0.0169364344328641891 -0.0506629198789596558
-0.557808458805084229 0.342522919178009033 -0.00602687336504459381
0.488797634840011597 -0.359660595655441284 0.0402147024869918823
0.448806673288345337 -0.0736161172389984131 0.00133902346715331078
-0.556987643241882324 0.386217087507247925 0.157382369041442871
0.373852968215942383 -0.0803441107273101807 -0.120700530707836151
-0.390216469764709473 0.320324450731277466 0.167948037385940552
-0.385289460420608521 0.328967511653900146 0.196528077125549316
-0.364770054817199707 0.238790988922119141 -0.0842253118753433228
-0.407862037420272827 0.200101807713508606 0.0401270277798175812
-0.644034445285797119 0.287498444318771362 0.0939255356788635254
0.408576667308807373 -0.346527159214019775 0.135573983192443848
0.22187843918800354 0.0834326744079589844 -0.03438529372215271
0.498247593641281128 -0.160587742924690247 0.123323202133178711
0.499890804290771484 -0.0921261906623840332 0.134104162454605103
0.214908257126808167 0.00253204023465514183 0.29903024435043335
-0.353869408369064331 -0.067340552806854248 -0.00982198584824800491
-0.386102616786956787 0.266790509223937988 -0.0723717063665390015
0.506835460662841797 -0.346251785755157471 0.0542448647320270538
-0.358070313930511475 -0.0554658882319927216 -0.146224990487098694
0.132141545414924622 0.0733490064740180969 0.321366429328918457
-0.0997117459774017334 -0.264970362186431885 0.00576284294947981834
0.242151111364364624 0.0241696145385503769 0.321304857730865479
-0.48103797435760498 -0.0109182205051183701 0.184570670127868652
0.242210820317268372 0.0491802319884300232 0.316464483737945557
-0.278349488973617554 0.333550214767456055 0.0403294526040554047
0.369148790836334229 -0.0302073750644922256 -0.0407597087323665619
0.520552635192871094 -0.347143679857254028 -0.0371286682784557343
0.292938143014907837 -0.0115068349987268448 0.0363073498010635376
-0.643821597099304199 0.285485953092575073 0.0927404314279556274
0.0357339084148406982 0.137195274233818054 0.084430992603302002
-0.397885382175445557 -0.0569242760539054871 0.125080466270446777
-0.442123830318450928 -0.0376223362982273102 0.130604326725006104
0.523983776569366455 -0.316694736480712891 -0.0660531893372535706
0.422483205795288086 -0.279216855764389038 0.330629825592041016
0.510008096694946289 -0.344143152236938477 0.056433357298374176
0.403703957796096802 -0.258140206336975098 0.323050647974014282
-0.480769544839859009 0.0186732746660709381 0.175851643085479736
0.235768571496009827 0.0693318694829940796 0.313527345657348633
-0.480185747146606445 -0.00752471573650836945 0.166572645306587219
0.239380925893783569 0.0682769492268562317 0.313900381326675415
0.387313008308410645 0.0266742538660764694 0.105106964707374573
0.219649374485015869 -0.315534710884094238 0.309761106967926025
0.382407158613204956 0.0434889495372772217 0.0680805370211601257
0.462062954902648926 0.0115002430975437164 0.174201354384422302
0.399304896593093872 -0.257967680692672729 0.326615273952484131
-0.50050508975982666 0.0217993892729282379 0.179970189929008484
-0.573305606842041016 0.266802549362182617 0.359635770320892334
-0.663600265979766846 0.230233237147331238 0.0219338070601224899
-0.14938652515411377 0.27604597806930542 0.0786442682147026062
0.522319972515106201 -0.334149837493896484 -0.323141813278198242
-0.220693141222000122 0.316308647394180298 0.0962334722280502319
0.500001311302185059 -0.345792979001998901 0.0663736313581466675
-0.190087854862213135 0.303552329540252686 0.114331632852554321
0.312671780586242676 -0.129473179578781128 0.300214171409606934
0.224830374121665955 -0.0346916317939758301 0.304537504911422729
0.0574217438697814941 -0.330403298139572144 0.290860652923583984
0.435219913721084595 -0.279241055250167847 0.332160204648971558
0.409111946821212769 -0.285117030143737793 0.330307245254516602
0.385472685098648071 -0.265177935361862183 0.318289279937744141
0.397112041711807251 -0.383912920951843262 -0.22646939754486084
-0.162347793579101562 0.278955638408660889 0.127930507063865662
0.380017906427383423 0.0444993562996387482 0.0759533047676086426
0.390704035758972168 -0.255176663398742676 0.318261146545410156
-0.501056194305419922 0.0250807274132966995 0.184770524501800537
0.499617516994476318 -0.325139284133911133 -0.313813686370849609
0.380170464515686035 -0.375174283981323242 -0.217227891087532043
0.521421194076538086 -0.348407775163650513 -0.325532227754592896
0.521069169044494629 -0.347583681344985962 -0.322430580854415894
0.513535499572753906 -0.318839132785797119 -0.319101810455322266
0.254581928253173828 -0.221829250454902649 0.0566609017550945282
0.185799956321716309 -0.141814544796943665 -0.106251776218414307
0.507897794246673584 -0.319332420825958252 0.0285720005631446838
-0.470037847757339478 -0.0113806016743183136 0.179896652698516846
0.496326625347137451 -0.348281264305114746 -0.310508877038955688
0.521745204925537109 -0.326661080121994019 -0.322584241628646851
0.47598305344581604 -0.319519251585006714 -0.303818047046661377
-0.341567397117614746 0.230523332953453064 -0.0451260656118392944
0.201323673129081726 0.133375436067581177 0.111390307545661926
-0.17300066351890564 0.0226458683609962463 0.0248895231634378433
0.265583127737045288 -0.165460169315338135 0.00534490169957280159
0.544899582862854004 -0.327568173408508301 -0.0485273189842700958
-0.456748843193054199 -0.0525533705949783325 0.161185011267662048
0.469623029232025146 -0.355371683835983276 -0.307918280363082886
0.47825998067855835 -0.269080072641372681 -0.302327126264572144
0.467280745506286621 -0.361193835735321045 -0.309020340442657471
-0.320340752601623535 0.267335861921310425 0.0108027439564466476
0.0329645313322544098 0.0989318713545799255 0.127821385860443115
-0.285188734531402588 -0.0993522703647613525 -0.0878526866436004639
-0.616292178630828857 0.217354565858840942 -0.105071559548377991
0.243805259466171265 0.105024777352809906 -0.0306302309036254883
0.465752929449081421 -0.234508305788040161 -0.229072928428649902
-0.294653624296188354 -0.0877413302659988403 -0.0964921563863754272
0.249043598771095276 -0.27530786395072937 0.322071164846420288
0.221643194556236267 0.0672661513090133667 -0.028820231556892395
-0.251284331083297729 -0.129571646451950073 -0.0561930276453495026
-0.212089136242866516 0.302616715431213379 0.147846803069114685
0.339257329702377319 -0.139985665678977966 0.317888557910919189
0.530180573463439941 -0.355891376733779907 0.0688090994954109192
-0.599755823612213135 0.357263237237930298 0.0602284818887710571
-0.347191154956817627 -0.0549565032124519348 -0.144398093223571777
-0.433591306209564209 0.158174768090248108 -0.0855445042252540588
0.526845335960388184 -0.330763667821884155 0.0196917261928319931
0.528405129909515381 -0.28720209002494812 -0.0709247440099716187
-0.499550968408584595 0.14327356219291687 -0.254457771778106689
0.146153286099433899 0.157276272773742676 0.0579004213213920593
0.25272175669670105 -0.0070856977254152298 0.327186763286590576
0.349390864372253418 -0.146547511219978333 0.320154845714569092
0.442041993141174316 -0.321843892335891724 -0.230291828513145447
-0.224481657147407532 -0.139318495988845825 -0.0543985925614833832
0.522831976413726807 -0.349478244781494141 0.0960665345191955566
-0.645534813404083252 0.25398293137550354 0.0240616872906684875
0.393155306577682495 -0.279449224472045898 0.321717321872711182
-0.475269466638565063 -0.00911346636712551117 0.164095237851142883
0.224328994750976562 -0.324516654014587402 0.318507730960845947
-0.364359229803085327 -0.120503544807434082 0.12937551736831665
-0.239074468612670898 -0.140001490712165833 -0.0546074546873569489
-0.114544093608856201 -0.00871430337429046631 -0.0174603573977947235
0.389303833246231079 -0.277665674686431885 0.320060759782791138
-0.507784485816955566 0.0118951629847288132 0.200773611664772034
0.462370008230209351 -0.296110004186630249 -0.295160144567489624
0.3508930504322052 -0.147456720471382141 0.320997238159179688
0.457501441240310669 -0.302940666675567627 -0.229596585035324097
0.0246391370892524719 -0.14344613254070282 -0.0205303877592086792
0.368697315454483032 -0.327076256275177002 0.31817057728767395
0.391746699810028076 -0.280831426382064819 0.316159248352050781
0.128467023372650146 -0.318453997373580933 -0.0977673530578613281
-0.134877771139144897 0.279116302728652954 0.116887703537940979
-0.334049910306930542 0.0952268391847610474 -0.103219881653785706
0.373662561178207397 -0.375048011541366577 -0.215718626976013184
0.520251452922821045 -0.344824314117431641 -0.323087453842163086
0.523856639862060547 -0.357125341892242432 -0.32710614800453186
-0.0687716081738471985 -0.254282057285308838 0.0983175486326217651
0.325233519077301025 -0.13015514612197876 0.31441834568977356
0.424132943153381348 -0.259109050035476685 0.327694147825241089
-0.480633467435836792 0.0326874032616615295 0.195887953042984009
0.526892185211181641 -0.298719108104705811 -0.322664558887481689
0.538328468799591064 -0.291656076908111572 -0.325007766485214233
0.377480387687683105 -0.373272836208343506 -0.214474871754646301
0.370994836091995239 -0.356231570243835449 -0.21451897919178009
0.524458229541778564 -0.350743293762207031 -0.325446993112564087
0.52577662467956543 -0.362527161836624146 -0.32358783483505249
0.515774190425872803 -0.326239407062530518 -0.320449620485305786
0.479470103979110718 -0.351442217826843262 -0.312796652317047119
0.478532552719116211 -0.364747673273086548 -0.31341087818145752
-0.362593978643417358 0.311177641153335571 0.238890588283538818
-0.32163006067276001 0.104948513209819794 0.0215746127068996429
-0.447873115539550781 0.204745486378669739 -0.0412292145192623138
-0.37828943133354187 0.280145645141601562 -0.00819426681846380234
-0.0230703577399253845 -0.260302126407623291 0.143028572201728821
-0.591859281063079834 0.362087547779083252 0.0640662312507629395
0.367121309041976929 -0.37263643741607666 -0.213179096579551697
-0.124602034687995911 -0.0101011861115694046 0.00731387734413146973
0.396517336368560791 -0.352495968341827393 -0.219211757183074951
0.507113158702850342 -0.158883184194564819 0.124582454562187195
0.19528469443321228 0.125080481171607971 0.00570647744461894035
-0.0270752403885126114 0.167488113045692444 0.382610827684402466
-0.334571570158004761 -0.120420314371585846 0.0995309203863143921
-0.325726985931396484 0.303647041320800781 -0.0375001430511474609
0.53458791971206665 -0.346020519733428955 0.0371211916208267212
0.525720775127410889 -0.330942660570144653 0.0338942632079124451
-0.595879256725311279 0.382942229509353638 0.113120682537555695
-0.0116327852010726929 -0.143545225262641907 -0.0272689405828714371
-0.235988065600395203 0.172932371497154236 -0.0025167735293507576
-0.486025720834732056 -0.00989777036011219025 0.176592111587524414
-0.278209984302520752 0.336934208869934082 0.0419513136148452759
0.513692498207092285 -0.348241150379180908 0.0964028239250183105
-0.449045687913894653 -0.0349766910076141357 0.116714775562286377
0.434123754501342773 -0.252520531415939331 0.331358194351196289
0.414731085300445557 -0.277554690837860107 0.326766520738601685
-0.469697654247283936 0.0351971238851547241 0.192487567663192749
0.502529382705688477 -0.338593155145645142 0.00763894151896238327
-0.482196003198623657 -0.00199679844081401825 0.176876217126846313
-0.377615779638290405 -0.105979762971401215 0.0922116935253143311
-0.501937627792358398 0.0229390654712915421 0.183345824480056763
0.359950125217437744 -0.286077320575714111 -0.142339661717414856
0.00137765146791934967 -0.230934560298919678 0.0894835516810417175
-0.140614405274391174 0.265854805707931519 0.088016510009765625
-0.129775017499923706 0.255134671926498413 0.070894092321395874
0.312085181474685669 -0.2925243079662323 -0.131966978311538696
0.428020328283309937 -0.254831463098526001 0.329808056354522705
-0.61487656831741333 0.307311117649078369 0.392190933227539062
0.410587131977081299 -0.357025146484375 -0.227136388421058655
0.50534212589263916 -0.345532387495040894 -0.320283442735671997
0.508102178573608398 -0.351639747619628906 -0.32303166389465332
0.523874819278717041 -0.297566503286361694 -0.319078505039215088
0.510052502155303955 -0.345859616994857788 -0.320507943630218506
0.269640296697616577 -0.168766871094703674 -0.0803013667464256287
0.13366776704788208 0.12101060152053833 0.328453481197357178
0.251744925975799561 -0.28438955545425415 0.327781051397323608
0.323856979608535767 -0.119421765208244324 0.310188412666320801
0.301559567451477051 -0.203950658440589905 0.25083586573600769
0.249558597803115845 -0.00306739099323749542 0.324732512235641479
0.507334113121032715 -0.342255562543869019 0.0870749950408935547
0.241479724645614624 0.0907554030418395996 0.309271752834320068
0.462634474039077759 -0.283330172300338745 -0.231778055429458618
-0.262356340885162354 0.314778149127960205 0.0455663837492465973
0.343451201915740967 -0.139265432953834534 0.329241037368774414
0.373507142066955566 -0.36292111873626709 -0.209403157234191895
0.336958616971969604 -0.128450989723205566 0.320330411195755005
0.52690356969833374 -0.346229344606399536 -0.324431151151657104
0.524710774421691895 -0.351156175136566162 -0.327017217874526978
0.480139881372451782 -0.371408730745315552 -0.31355699896812439
-0.360708951950073242 -0.0641885697841644287 0.0821047872304916382
-0.408342719078063965 0.0893877744674682617 -0.113959431648254395
0.0139923356473445892 0.0987455695867538452 0.216603398323059082
-0.378878146409988403 -0.0925713703036308289 -0.0290106944739818573
0.26495438814163208 0.069042503833770752 -0.0925681740045547485
-0.108789041638374329 -0.0145207643508911133 0.0452606864273548126
-0.358847320079803467 -0.0913333520293235779 0.0122925164178013802
-0.290945261716842651 0.305771470069885254 0.165874496102333069
-0.355924338102340698 -0.0728522911667823792 0.040069185197353363
-0.598701298236846924 0.295477032661437988 0.186300098896026611
0.248637408018112183 0.0975432395935058594 -0.0351107604801654816
0.378959953784942627 -0.354015111923217773 -0.210131332278251648
0.469484388828277588 -0.323979973793029785 0.137469947338104248
0.464284062385559082 -0.271068453788757324 -0.0934981852769851685
-0.440038383007049561 -0.0424194112420082092 0.0836113542318344116
-0.337070167064666748 -0.123963929712772369 0.126843959093093872
0.528796553611755371 -0.341077953577041626 0.0503678619861602783
0.392000526189804077 0.0479433760046958923 0.132896333932876587
-0.185848549008369446 0.314680755138397217 0.107529371976852417
-0.441776454448699951 -0.0423010066151618958 0.11710493266582489
0.537515521049499512 -0.325307935476303101 -0.0561936125159263611
-0.353627532720565796 0.30719718337059021 0.11338411271572113
0.494317144155502319 -0.345198571681976318 0.0435778163373470306
-0.575539529323577881 0.305955290794372559 0.379276573657989502
0.431048125028610229 -0.280224114656448364 0.333149641752243042
-0.478727608919143677 0.00482398970052599907 0.163040071725845337
0.525299608707427979 -0.348862141370773315 -0.0031239720992743969
-0.0674350261688232422 -0.262386053800582886 0.297911792993545532
-0.512492358684539795 0.0053513282909989357 0.187018215656280518
0.389815688133239746 -0.359420239925384521 -0.216459661722183228
-0.118920326232910156 0.255275309085845947 0.0633306056261062622
-0.501230180263519287 0.00556401396170258522 0.192213281989097595
0.426347255706787109 -0.273753762245178223 0.3301810622215271
-0.334288626909255981 0.104750983417034149 -0.119258560240268707
-0.106000259518623352 0.255030333995819092 0.0933398976922035217
0.511038362979888916 -0.340800255537033081 -0.320044338703155518
-0.612369716167449951 0.303108662366867065 0.396269381046295166
-0.510014593601226807 0.0372598282992839813 0.187313854694366455
-0.291847646236419678 -0.0884871482849121094 -0.0792619362473487854
0.509869158267974854 -0.344053119421005249 -0.321406781673431396
0.0716968625783920288 0.139769241213798523 0.0719104781746864319
0.245200708508491516 0.108022138476371765 0.320749878883361816
0.472996532917022705 -0.286054342985153198 -0.231318742036819458
0.304851323366165161 -0.314114809036254883 0.331494837999343872
0.512094795703887939 -0.349172115325927734 -0.32257312536239624
-0.315959423780441284 -0.0863720476627349854 -0.0350426025688648224
0.514716267585754395 -0.354875564575195312 -0.323527693748474121
-0.624928474426269531 0.180699720978736877 -0.0862412005662918091
-0.354600340127944946 -0.0550384372472763062 -0.144637703895568848
-0.33154374361038208 0.270179390907287598 -0.05578652024269104
-0.177871569991111755 0.139797240495681763 0.00446616159752011299
0.54506230354309082 -0.216831386089324951 0.158695399761199951
0.0303537733852863312 0.103104770183563232 0.0649722293019294739
0.510199189186096191 -0.330008804798126221 -0.319778919219970703
0.586265444755554199 -0.324447542428970337 -0.320325672626495361
0.249703869223594666 -0.287674665451049805 0.317931681871414185
0.255143046379089355 -0.00239605363458395004 0.327602475881576538
0.30132746696472168 -0.281871408224105835 0.330771476030349731
-0.344325721263885498 -0.0900491699576377869 0.0174946542829275131
-0.374751955270767212 -0.0893948599696159363 -0.0189140345901250839
-0.0658212155103683472 -0.27292245626449585 0.158780395984649658
-0.630329668521881104 0.27635657787322998 0.0759054124355316162
0.366192519664764404 -0.36481902003288269 -0.213027030229568481
-0.124873161315917969 -0.0286218337714672089 -0.00727035198360681534
-0.598566114902496338 0.343084901571273804 0.0904396846890449524
0.44374963641166687 -0.248772084712982178 -0.286818414926528931
0.382411420345306396 -0.347203612327575684 -0.212822794914245605
0.311665743589401245 -0.37192341685295105 -0.15685737133026123
-0.179598033428192139 0.313342899084091187 0.0996970981359481812
0.535381197929382324 -0.318476587533950806 -0.0329903997480869293
-0.654622972011566162 0.23883548378944397 0.0141421165317296982
-0.453603655099868774 -0.0532621815800666809 0.162265270948410034
0.500181138515472412 -0.347802698612213135 0.0707860738039016724
0.440331995487213135 -0.260143280029296875 0.334019482135772705
0.507532119750976562 -0.34286344051361084 0.0294745955616235733
0.264061927795410156 0.122288972139358521 0.0263930447399616241
0.399162769317626953 0.0332313328981399536 0.139029324054718018
-0.106502808630466461 0.25325852632522583 0.0721959173679351807
0.316091418266296387 -0.379922151565551758 -0.157808408141136169
-0.566843926906585693 0.296076834201812744 -0.0518637336790561676
0.390254676342010498 -0.361961215734481812 -0.221828028559684753
0.358365327119827271 0.0341066122055053711 0.0477395020425319672
0.194342866539955139 -0.364815860986709595 -0.0965047627687454224
0.391155809164047241 -0.354823946952819824 -0.21804046630859375
0.52000504732131958 -0.334285199642181396 -0.323003321886062622
0.523241281509399414 -0.332450687885284424 -0.32448539137840271
0.243933632969856262 0.0249099638313055038 0.323382854461669922
0.212369963526725769 -0.338021427392959595 0.318172365427017212
0.237094908952713013 0.106983169913291931 0.31437450647354126
0.521965444087982178 -0.336208939552307129 -0.326109021902084351
0.317730545997619629 -0.37903130054473877 -0.151840239763259888
0.584547579288482666 -0.317325621843338013 -0.334550589323043823
-0.380970865488052368 -0.0927697122097015381 -0.0183911565691232681
0.458010286092758179 -0.324834704399108887 0.124485895037651062
0.388230025768280029 0.054384082555770874 0.130750685930252075
-0.174024268984794617 0.307973355054855347 0.105572149157524109
-0.462776273488998413 -0.0293795689940452576 0.133674174547195435
0.439494192600250244 -0.260726094245910645 0.334791660308837891
0.399573028087615967 0.0254617445170879364 0.127145662903785706
0.427167147397994995 -0.262906730175018311 0.331675201654434204
-0.510630488395690918 0.00509429629892110825 0.189801141619682312
-0.131500408053398132 0.254458039999008179 0.0811487212777137756
-0.284440696239471436 0.336759746074676514 0.0340022146701812744
0.455198019742965698 -0.258818596601486206 0.336180895566940308
-0.331613779067993164 0.0984677150845527649 -0.118541635572910309
-0.50953596830368042 0.0367825403809547424 0.187255099415779114
0.257620751857757568 0.0082478569820523262 0.327024638652801514
0.445818662643432617 -0.255318135023117065 0.333392322063446045
0.236220091581344604 0.109990142285823822 0.307980656623840332
0.302000939846038818 -0.328591644763946533 0.334056168794631958
-0.320900529623031616 0.267542541027069092 -0.0477159842848777771
-0.133599042892456055 -0.268050223588943481 -0.00535485893487930298
-0.37711980938911438 -0.0748580247163772583 0.0232609007507562637
-0.376600682735443115 -0.062923237681388855 -0.16089293360710144
-0.495596975088119507 -0.0219262205064296722 0.173022463917732239
-0.528393030166625977 -0.00631102453917264938 0.185647845268249512
0.381885379552841187 -0.365794390439987183 -0.219977706670761108
0.388892829418182373 -0.329549014568328857 0.185730993747711182
-0.578214108943939209 0.292492061853408813 -0.0413039587438106537
0.240969419479370117 0.0891746878623962402 -0.0403465442359447479
0.37431943416595459 -0.350571781396865845 -0.210528209805488586
0.187046080827713013 0.10828612744808197 0.00106344488449394703
-0.342011183500289917 0.273583173751831055 -0.0526712201535701752
0.532916903495788574 -0.352998971939086914 0.0527472309768199921
-0.114292323589324951 0.185946673154830933 0.354012966156005859
-0.216107115149497986 0.31408652663230896 0.111640647053718567
0.470149785280227661 -0.304285258054733276 -0.236291408538818359
0.536755084991455078 -0.320105791091918945 -0.0269121527671813965
-0.266611188650131226 0.31087532639503479 0.0450142920017242432
0.278189480304718018 0.00894432142376899719 -0.0280527323484420776
0.384203851222991943 -0.361334353685379028 -0.217767015099525452
0.0276668146252632141 -0.0950157642364501953 0.0183656048029661179
-0.417325079441070557 -0.0571380555629730225 0.132190495729446411
0.385112881660461426 -0.28683057427406311 -0.110418185591697693
0.381896018981933594 -0.362411916255950928 -0.220299273729324341
0.199679985642433167 -0.36575925350189209 -0.0966229736804962158
0.38752177357673645 -0.353225857019424438 -0.217423304915428162
0.512078285217285156 -0.335989266633987427 -0.320248425006866455
0.513308286666870117 -0.33572852611541748 -0.322444677352905273
0.233033299446105957 0.0350965633988380432 0.318065792322158813
0.241692349314689636 0.0898683369159698486 0.309119492769241333
0.362497657537460327 -0.2822246253490448 0.315581023693084717
0.530821263790130615 -0.345560014247894287 -0.330564379692077637
0.200075715780258179 -0.1898307204246521 -0.0722609460353851318
-0.193560764193534851 0.134218931198120117 0.00830450374633073807
0.320521175861358643 -0.37365877628326416 -0.159284055233001709
0.204649686813354492 -0.325101882219314575 0.315302342176437378
0.322543710470199585 -0.276893854141235352 0.316808849573135376
-0.499980658292770386 0.016897149384021759 0.18275095522403717
0.346704483032226562 -0.272291064262390137 -0.132861822843551636
0.244456022977828979 0.0221604257822036743 0.321165800094604492
0.195066869258880615 -0.166828736662864685 -0.0682816356420516968
0.0372387059032917023 0.132091358304023743 0.10490475594997406
-0.455908477306365967 -0.0500899478793144226 0.153853878378868103
-0.140492677688598633 0.269911378622055054 0.079309612512588501
0.539721071720123291 -0.225591033697128296 0.172425821423530579
0.236331313848495483 0.105303466320037842 0.308660328388214111
-0.452832937240600586 -0.0268564652651548386 0.123301953077316284
-0.510310888290405273 0.00221515120938420296 0.172302737832069397
0.23657718300819397 0.0845016688108444214 0.30972057580947876
-0.488608241081237793 -0.0221727248281240463 0.177032306790351868
-0.521039366722106934 -0.000921565108001232147 0.185741692781448364
-0.084003940224647522 0.0745292305946350098 0.0414683371782302856
0.367097258567810059 -0.0222003422677516937 -0.0827235355973243713
-0.232872903347015381 0.0477493517100811005 -0.0693233460187911987
0.495486617088317871 -0.340490043163299561 -0.450158864259719849
-0.628320932388305664 0.29280206561088562 0.175323456525802612
-0.111831404268741608 0.154117822647094727 0.0485314279794692993
0.523135840892791748 -0.343868106603622437 -0.0215047448873519897
-0.583784699440002441 0.375408023595809937 0.184651508927345276
-0.186288759112358093 0.314030319452285767 0.131286174058914185
0.026935674250125885 -0.124693162739276886 -0.0350747518241405487
0.319628924131393433 0.0755977705121040344 -0.108240164816379547
-0.0376120433211326599 0.157506927847862244 0.385098934173583984
0.47627672553062439 -0.307350367307662964 -0.227765291929244995
0.49599844217300415 -0.290204823017120361 -0.168311834335327148
0.449440628290176392 -0.254411607980728149 0.33248022198677063
0.507128655910491943 -0.358256995677947998 0.0412638597190380096
0.425350576639175415 -0.284743428230285645 0.329269498586654663
0.504261255264282227 -0.346422851085662842 0.0194803215563297272
0.400111466646194458 -0.343741774559020996 -0.216566890478134155
-0.49073442816734314 0.0477775037288665771 -0.0948560982942581177
-0.128456383943557739 0.261771351099014282 0.0783154144883155823
0.325791269540786743 -0.371921539306640625 -0.15567895770072937
0.319127291440963745 -0.292503446340560913 -0.132903441786766052
0.433667600154876709 -0.29522329568862915 0.332623004913330078
0.409356296062469482 -0.355245292186737061 -0.226701527833938599
0.223599225282669067 -0.335844844579696655 0.317519217729568481
0.240168139338493347 0.0890112519264221191 0.308183193206787109
0.368362367153167725 -0.321264117956161499 0.319648861885070801
0.521628916263580322 -0.357542365789413452 -0.32629820704460144
-0.260861307382583618 -0.144975572824478149 -0.0605663992464542389
0.52765965461730957 -0.339189887046813965 0.0344602540135383606
-0.24432547390460968 0.0750414952635765076 0.00680930819362401962
0.197884812951087952 -0.335597902536392212 0.31557154655456543
0.466942071914672852 -0.273896187543869019 0.338594764471054077
-0.503897964954376221 0.00488473661243915558 0.186344608664512634
0.452666103839874268 -0.278726696968078613 0.332229971885681152
-0.456613481044769287 -0.0526024103164672852 0.1614035964012146
-0.503843605518341064 0.00415212055668234825 0.187444791197776794
-0.640299856662750244 0.29828980565071106 0.419379919767379761
0.540451765060424805 -0.215345650911331177 0.153203770518302917
-0.499955266714096069 0.00290031684562563896 0.186942785978317261
0.160110399127006531 -0.272467702627182007 -0.0728637948632240295
-0.339009970426559448 0.285043150186538696 0.125847309827804565
0.199496567249298096 -0.231256946921348572 -0.00482673197984695435
-0.349939733743667603 -0.0802809968590736389 -0.0471265390515327454
-0.350359350442886353 0.29229322075843811 0.201408684253692627
-0.364772796630859375 -0.0975499376654624939 -0.0317395143210887909
0.371064662933349609 -0.374736994504928589 -0.216414973139762878
-0.576349616050720215 0.308889508247375488 -0.0515756979584693909
-0.140038996934890747 -0.0321300849318504333 -0.0195514783263206482
0.385711610317230225 -0.341796964406967163 -0.215107157826423645
-0.585394978523254395 0.373952984809875488 0.184638023376464844
-0.181921541690826416 -0.114720284938812256 -0.0532492771744728088
-0.446155130863189697 -0.0456693544983863831 0.0948824957013130188
-0.343754351139068604 -0.117370963096618652 0.10151701420545578
-0.189008027315139771 0.303758442401885986 0.0966072976589202881
0.408630847930908203 -0.354997873306274414 -0.225310415029525757
-0.279851943254470825 0.337839037179946899 0.0425016842782497406
0.474649250507354736 -0.310308933258056641 -0.231224700808525085
0.515082299709320068 -0.353745579719543457 0.0542828701436519623
0.500846982002258301 -0.361394405364990234 0.0760307163000106812
-0.198081254959106445 -0.241435185074806213 -0.0313849113881587982
-0.480128824710845947 -0.0010294327512383461 0.165835261344909668
0.534748852252960205 -0.35006287693977356 0.0654699951410293579
0.389700621366500854 -0.349396795034408569 -0.214504390954971313
0.457577168941497803 -0.301008164882659912 -0.223760649561882019
0.350721091032028198 -0.276174306869506836 -0.103622868657112122
-0.0872891992330551147 -0.141259551048278809 -0.0343836359679698944
0.0174578502774238586 -0.135894149541854858 -0.0240254998207092285
0.205556347966194153 -0.344654291868209839 -0.0878516435623168945
0.457175105810165405 0.0444725640118122101 0.177188113331794739
0.448333621025085449 0.0672258511185646057 0.19232603907585144
0.349383920431137085 -0.343924850225448608 0.320487141609191895
0.206276684999465942 -0.356648743152618408 -0.0937042236328125
-0.386023014783859253 -0.0940160453319549561 0.0589390099048614502
0.437048941850662231 -0.280697256326675415 0.333897978067398071
-0.498178750276565552 0.016722414642572403 0.168516874313354492
0.373925238847732544 -0.302752435207366943 -0.146627962589263916
0.442147791385650635 -0.27695426344871521 0.333311975002288818
-0.447745621204376221 -0.0393425039947032928 0.124261856079101562
-0.503059685230255127 0.0153860226273536682 0.17956136167049408
-0.388880491256713867 -0.0774805545806884766 -0.170905962586402893
-0.48579561710357666 -0.0203955080360174179 0.175776094198226929
-0.233821585774421692 0.0250858180224895477 -0.0599706396460533142
-0.0959569364786148071 0.21167127788066864 0.371840029954910278
0.433255165815353394 -0.256501227617263794 0.330511301755905151
0.380247503519058228 -0.133856192231178284 0.331335067749023438
0.453652948141098022 -0.268581807613372803 0.33781665563583374
