ply
format ascii 1.0
element vertex 739
property float x
property float y
property float z
end_header
0.138158664107322693 0.113488063216209412 0.336197882890701294
-0.652052998542785645 0.286609023809432983 0.0981384217739105225
-0.638312101364135742 0.245575740933418274 -0.038280922919511795
0.135852649807929993 0.0699067860841751099 0.337323576211929321
-0.577395915985107422 0.304539740085601807 -0.0558512061834335327
0.261651188135147095 0.031186198815703392 -0.0742755681276321411
0.541642725467681885 -0.215919762849807739 0.11113150417804718
-0.361217647790908813 -0.0348796695470809937 -0.135200023651123047
-0.575198888778686523 0.32821810245513916 -0.0298721380531787872
-0.362869083881378174 -0.0699945837259292603 -0.0347058996558189392
-0.131169438362121582 -0.266865760087966919 0.11832582950592041
0.495365113019943237 -0.364810764789581299 -0.00100882072001695633
0.37320592999458313 -0.358457803726196289 -0.210936293005943298
-0.379169613122940063 -0.106007032096385956 0.100485265254974365
-0.0679460912942886353 -0.263553112745285034 0.295939058065414429
0.519922137260437012 -0.242534995079040527 -0.309912800788879395
0.509842872619628906 -0.329423218965530396 0.0147533277049660683
-0.593957304954528809 0.370054811239242554 0.12028782069683075
-0.654827713966369629 0.176005542278289795 -0.103163443505764008
-0.223595961928367615 -0.143337666988372803 -0.0543494708836078644
-0.19170987606048584 0.317591398954391479 0.100341111421585083
0.256162524223327637 -0.28280174732208252 0.319337308406829834
0.238490968942642212 0.033053182065486908 0.318691045045852661
-0.120896980166435242 -0.045418865978717804 0.00654800515621900558
-0.641560912132263184 0.309387534856796265 0.10183437168598175
0.364198207855224609 -0.372923105955123901 -0.207702532410621643
0.537261247634887695 -0.216924816370010376 0.161299377679824829
-0.55391085147857666 0.383701622486114502 0.157602936029434204
-0.123054556548595428 0.260306060314178467 0.114726126194000244
0.118921197950839996 0.103252723813056946 0.0888808965682983398
-0.376237660646438599 0.266654074192047119 -0.0903262495994567871
0.51714557409286499 -0.348086506128311157 0.0981255397200584412
-0.294220864772796631 -0.106237813830375671 -0.109703965485095978
0.274486124515533447 0.103780433535575867 -0.0585106201469898224
-0.575873374938964844 0.220318391919136047 -0.213026762008666992
-0.116068840026855469 0.269479960203170776 0.179379209876060486
0.235680028796195984 -0.287313997745513916 0.313766837120056152
0.309250593185424805 -0.186702519655227661 0.240591883659362793
0.542003452777862549 -0.324809342622756958 -0.0216332525014877319
0.0785260200500488281 -0.337205588817596436 0.28169211745262146
-0.00662184227257966995 -0.171337217092514038 0.00380367483012378216
-0.282855719327926636 0.26259574294090271 0.00633146613836288452
0.513188838958740234 -0.236362338066101074 -0.309893876314163208
-0.647215187549591064 0.278982251882553101 0.0794774889945983887
-0.646179139614105225 0.183612674474716187 -0.0910809934139251709
0.514603495597839355 -0.321508228778839111 0.0235104113817214966
-0.407775282859802246 -0.063000015914440155 0.112418755888938904
0.517105579376220703 -0.35456395149230957 -0.0213030073791742325
-0.567647576332092285 0.375465422868728638 0.151976451277732849
0.235295712947845459 0.0439179465174674988 0.313057243824005127
-0.664635598659515381 0.227616876363754272 0.0229469295591115952
-0.449153721332550049 -0.0379437357187271118 0.125189557671546936
0.502961158752441406 -0.301223516464233398 -0.179499402642250061
-0.589743614196777344 0.362106561660766602 0.0857834741473197937
-0.194645434617996216 0.315930694341659546 0.104339510202407837
0.246223956346511841 0.0247021131217479706 0.3233184814453125
0.53119736909866333 -0.322732031345367432 -0.0588154159486293793
-0.18344561755657196 0.308031082153320312 0.128025367856025696
0.246364384889602661 0.00775226578116416931 0.323407769203186035
0.0579805187880992889 0.140424609184265137 0.345242708921432495
-0.506726920604705811 0.150226518511772156 0.356244683265686035
0.270137369632720947 -0.310529053211212158 0.325803667306900024
-0.254856586456298828 0.024375351145863533 -0.0715716183185577393
0.240601897239685059 -0.294619202613830566 0.322049707174301147
0.24811437726020813 0.0446383021771907806 0.313697665929794312
0.468012869358062744 -0.101082935929298401 0.0339518636465072632
-0.125418037176132202 0.196065336465835571 0.114691749215126038
0.239665970206260681 -0.325988352298736572 0.317414641380310059
0.500212252140045166 -0.365761011838912964 0.073871910572052002
0.52377164363861084 -0.323747843503952026 0.0254773739725351334
0.444176673889160156 -0.252413451671600342 0.332009315490722656
0.320615947246551514 -0.130607873201370239 -0.107427388429641724
0.0626018643379211426 -0.0101164598017930984 0.32134854793548584
0.511696457862854004 -0.35977250337600708 0.0469029955565929413
0.135278910398483276 -0.100015990436077118 0.039912790060043335
0.0489672198891639709 0.0122043509036302567 0.0290149878710508347
0.0200408287346363068 0.0488958023488521576 0.0418857373297214508
0.0867534652352333069 -0.0654830336570739746 0.289457172155380249
-0.162699446082115173 -0.265057891607284546 0.147114142775535583
0.264379709959030151 -0.0195827949792146683 0.0606312192976474762
-0.0298162102699279785 -0.0284570455551147461 0.295075356960296631
0.502060413360595703 -0.239689171314239502 -0.302536576986312866
0.475715756416320801 -0.314219027757644653 -0.302468925714492798
-0.631317794322967529 0.307119518518447876 0.167076170444488525
0.475616574287414551 -0.319961071014404297 0.12018314003944397
0.509372591972351074 -0.299689888954162598 -0.106286391615867615
0.528386831283569336 -0.273985892534255981 -0.317714869976043701
0.493572711944580078 -0.331643164157867432 -0.311240524053573608
0.503297090530395508 -0.319106191396713257 0.0974469184875488281
0.473937392234802246 -0.304984599351882935 -0.298779547214508057
-0.559745311737060547 0.268929809331893921 0.364035874605178833
0.124713554978370667 0.117470130324363708 0.313534587621688843
-0.634048342704772949 0.283211499452590942 0.0542808733880519867
-0.58793938159942627 0.363778382539749146 0.101985812187194824
0.370745629072189331 -0.373143047094345093 -0.213516771793365479
0.438153505325317383 -0.347277194261550903 0.153620824217796326
0.0574266910552978516 0.12195318192243576 0.320701539516448975
-0.575110018253326416 0.369571119546890259 0.215179443359375
0.264056354761123657 0.025342380627989769 -0.0594411417841911316
0.368282794952392578 -0.336169421672821045 0.159942284226417542
0.510848581790924072 -0.300441563129425049 -0.112754449248313904
0.133486509323120117 -0.31983223557472229 -0.0982973575592041016
0.516925394535064697 -0.347695380449295044 -0.0208519697189331055
0.388799339532852173 -0.345747888088226318 -0.214864209294319153
-0.577424526214599609 0.320084661245346069 0.0404662489891052246
0.536166608333587646 -0.276995241641998291 -0.321108758449554443
0.467556476593017578 -0.310188323259353638 -0.299905955791473389
0.50746452808380127 -0.346040040254592896 0.0173269230872392654
-0.556420087814331055 0.310796380043029785 0.101757630705833435
0.193695440888404846 -0.338683903217315674 -0.0598353929817676544
0.0699332058429718018 -0.281596213579177856 -0.0784211456775665283
0.251799583435058594 -0.249728888273239136 0.319758147001266479
0.239225387573242188 0.031664922833442688 0.316358000040054321
-0.121912389993667603 -0.0471035465598106384 0.007379923015832901
0.178387969732284546 -0.0994965657591819763 -0.0154679976403713226
0.53276294469833374 -0.331307113170623779 -0.0138186905533075333
0.36991003155708313 -0.348565906286239624 -0.209658995270729065
0.534796476364135742 -0.24503643810749054 0.176681876182556152
0.561378061771392822 -0.314905762672424316 -0.33137550950050354
0.554381728172302246 -0.210912048816680908 0.13346707820892334
-0.54451286792755127 0.382104218006134033 0.164298146963119507
0.122717112302780151 0.117744013667106628 0.132557332515716553
-0.582794249057769775 0.353100895881652832 0.0974633842706680298
-0.482992589473724365 0.186854541301727295 -0.0925071984529495239
0.515965580940246582 -0.338174015283584595 0.0382001660764217377
0.253094851970672607 -0.278563201427459717 0.321595668792724609
0.278164714574813843 -0.355168640613555908 -0.126703083515167236
0.507963299751281738 -0.285827070474624634 -0.314170718193054199
-0.433151066303253174 -0.0565627291798591614 0.115527719259262085
0.201063811779022217 0.0912424325942993164 0.222681298851966858
0.243731945753097534 0.105317853391170502 -0.0580103099346160889
-0.196460321545600891 0.202174335718154907 0.348404526710510254
0.24988090991973877 0.025544947013258934 0.322779148817062378
0.239212304353713989 0.0197012778371572495 0.320587456226348877
-0.0316139236092567444 0.163409292697906494 0.382160484790802002
-0.483643472194671631 -0.0149305742233991623 0.179134711623191833
0.48395085334777832 -0.368322968482971191 0.0452951304614543915
-0.643732905387878418 0.287833869457244873 0.0861064493656158447
0.275625258684158325 -0.165216207504272461 -0.0711589455604553223
-0.413068085908889771 -0.0562419593334197998 0.0778082013130187988
-0.642751038074493408 0.176033437252044678 -0.0820755809545516968
-0.226580232381820679 -0.133233368396759033 -0.0528941340744495392
0.254353910684585571 -0.264978468418121338 0.32076650857925415
-0.34642559289932251 0.0180382654070854187 -0.11788671463727951
-0.288072705268859863 -0.0907373800873756409 -0.107021242380142212
-0.585864484310150146 0.210536926984786987 -0.218436121940612793
0.267099201679229736 -0.296427249908447266 0.31480783224105835
-0.026051446795463562 -0.186728000640869141 -0.044065181165933609
-0.61825793981552124 0.277706563472747803 0.0313371308147907257
-0.608982324600219727 0.299080967903137207 0.092384040355682373
-0.398280054330825806 -0.0620489120483398438 0.117741860449314117
-0.452622085809707642 -0.0377424247562885284 0.117703795433044434
0.430835604667663574 -0.271052181720733643 0.3287811279296875
-0.0530626624822616577 0.141501307487487793 0.0911008268594741821
-0.50410228967666626 0.15189594030380249 0.354839056730270386
0.240439504384994507 -0.318761974573135376 0.322377830743789673
0.497235119342803955 -0.370125323534011841 0.0566632002592086792
0.398794054985046387 -0.256195008754730225 0.322117894887924194
-0.158648699522018433 -0.263066619634628296 0.180831819772720337
-0.500303089618682861 0.0146069098263978958 0.156868070363998413
0.417414844036102295 -0.296694338321685791 0.328307986259460449
0.535839557647705078 -0.339419752359390259 -0.0190885942429304123
0.343682348728179932 -0.266608744859695435 -0.12857469916343689
-0.497444510459899902 0.0727494582533836365 0.203150525689125061
0.443391501903533936 -0.271550863981246948 0.333091646432876587
0.522536158561706543 -0.334499716758728027 0.0321278981864452362
0.453318953514099121 -0.319165915250778198 -0.293534219264984131
0.474369853734970093 -0.31104743480682373 0.115841612219810486
0.517441093921661377 -0.277642488479614258 -0.313349455595016479
0.502662122249603271 -0.325289607048034668 -0.314799696207046509
0.518398642539978027 -0.326244920492172241 0.101263701915740967
0.479222953319549561 -0.310886591672897339 -0.302765220403671265
0.113853573799133301 0.118920356035232544 0.288803011178970337
-0.122183933854103088 0.269377380609512329 0.158383950591087341
-0.61491096019744873 0.266105502843856812 0.0517759397625923157
-0.480795800685882568 0.00378323765471577644 0.180095970630645752
0.426415413618087769 -0.354432404041290283 0.157991409301757812
-0.292977005243301392 -0.109750263392925262 -0.106118723750114441
0.130055144429206848 0.0660852491855621338 0.32075849175453186
0.252844423055648804 0.0393678173422813416 -0.0785662159323692322
0.235061302781105042 0.0945719480514526367 -0.0538765899837017059
0.41743895411491394 -0.260931402444839478 -0.203028708696365356
0.522213578224182129 -0.353803545236587524 -0.0202560313045978546
-0.609360218048095703 0.38183826208114624 0.181120201945304871
0.517865419387817383 -0.278532058000564575 -0.315251916646957397
0.499451935291290283 -0.349220842123031616 0.0235453080385923386
-0.588403761386871338 0.370241433382034302 0.112795814871788025
0.505687236785888672 -0.103966183960437775 0.146719202399253845
-0.198650583624839783 0.31246832013130188 0.112546674907207489
0.263488739728927612 -0.286008834838867188 0.31944391131401062
0.236676007509231567 0.0627228990197181702 0.309665381908416748
-0.145185187458992004 -0.0428023859858512878 0.00330921169370412827
-0.657242417335510254 0.215004265308380127 -0.0462405718863010406
-0.289779961109161377 -0.0754101574420928955 -0.0693614259362220764
0.2267647385597229 0.0427422001957893372 -0.0488562546670436859
0.551496148109436035 -0.143660366535186768 0.131525278091430664
0.519992649555206299 -0.294567614793777466 0.0743120238184928894
0.517800867557525635 -0.283312141895294189 -0.181776121258735657
-0.359307140111923218 -0.0163705851882696152 -0.02897682785987854
0.0902963057160377502 0.0888000354170799255 0.0849247872829437256
0.4666861891746521 -0.361138135194778442 -0.0113929091021418571
-0.434137254953384399 0.158461585640907288 -0.0673609301447868347
0.524035036563873291 -0.334729552268981934 0.0683555155992507935
0.262389421463012695 -0.285363227128982544 0.318110644817352295
0.00892460718750953674 -0.0905612856149673462 -0.0265804324299097061
0.032160494476556778 -0.129981786012649536 0.0213867723941802979
-0.630993545055389404 0.265565365552902222 0.0289055891335010529
0.241456761956214905 0.0750668495893478394 0.318252861499786377
0.239468872547149658 0.0302190221846103668 0.318487167358398438
-0.17532743513584137 0.30174332857131958 0.115913361310958862
0.303597509860992432 -0.150895088911056519 0.307511717081069946
0.261432826519012451 -0.290205240249633789 0.320650666952133179
-0.477693080902099609 -0.00752902403473854065 0.165009066462516785
0.242179006338119507 0.0824054256081581116 0.311557590961456299
0.520602583885192871 -0.350506484508514404 0.0813554972410202026
-0.0355501845479011536 -0.237089693546295166 0.123406179249286652
-0.638430178165435791 0.29077109694480896 0.0988068729639053345
-0.235189527273178101 -0.132205143570899963 -0.0586730539798736572
-0.380071401596069336 -0.108054839074611664 0.104685693979263306
-0.237160861492156982 -0.147252544760704041 -0.0585506781935691833
-0.657510280609130859 0.214862599968910217 -0.0338405482470989227
0.52906644344329834 -0.351915180683135986 0.0772336125373840332
-0.621351182460784912 0.270955741405487061 0.0522958151996135712
-0.404756247997283936 -0.0639406666159629822 0.111108064651489258
-0.446988880634307861 -0.0410974659025669098 0.120207905769348145
0.267418563365936279 -0.285098433494567871 0.323127299547195435
0.127457976341247559 -0.326253235340118408 0.312094897031784058
0.152158170938491821 -0.342721492052078247 0.317358911037445068
0.447548329830169678 -0.334925353527069092 -0.293701708316802979
0.51620328426361084 -0.301998525857925415 -0.108725577592849731
0.515466392040252686 -0.27946743369102478 -0.31335747241973877
0.484902054071426392 -0.327038943767547607 -0.310366928577423096
0.464203178882598877 -0.345200836658477783 -0.303192645311355591
0.549448132514953613 -0.209655731916427612 -0.316324830055236816
0.524448633193969727 -0.299304604530334473 -0.322956234216690063
0.518343269824981689 -0.300026565790176392 -0.318818926811218262
0.246145948767662048 0.0576521009206771851 0.315858900547027588
0.240796685218811035 0.0882164984941482544 0.31204676628112793
-0.292576253414154053 -0.0997846722602844238 -0.102383211255073547
-0.454500734806060791 -0.0514127835631370544 0.115473568439483643
0.404428392648696899 -0.271566838026046753 0.322152435779571533
-0.503933727741241455 0.00437927152961492538 0.187780886888504028
0.400629729032516479 -0.286620914936065674 0.324534028768539429
0.398857027292251587 -0.272834837436676025 0.323001265525817871
0.341723769903182983 -0.258372187614440918 0.0893768817186355591
-0.0194298122078180313 -0.243944942951202393 0.128014117479324341
-0.46558651328086853 0.0367024987936019897 0.188533976674079895
-0.195201694965362549 0.222304970026016235 0.171243041753768921
0.366648823022842407 -0.32856336236000061 -0.0242443177849054337
0.322905242443084717 -0.389368295669555664 -0.159613668918609619
0.535770416259765625 -0.322738677263259888 -0.0588508397340774536
-0.443018734455108643 -0.00404466688632965088 0.151464790105819702
-0.0197900645434856415 -0.0590781718492507935 0.141024813055992126
-0.000723505392670631409 -0.235746830701828003 0.105791099369525909
0.526145398616790771 -0.201020658016204834 -0.0804622098803520203
0.449660897254943848 -0.307626008987426758 -0.293477803468704224
0.527078330516815186 -0.274691879749298096 -0.316179007291793823
0.49998241662979126 -0.324267089366912842 -0.313266754150390625
0.474945604801177979 -0.304423362016677856 -0.298080146312713623
-0.127715244889259338 0.247274249792098999 0.138504505157470703
-0.649001896381378174 0.282775968313217163 0.0943601131439208984
-0.199843689799308777 0.287412285804748535 0.335227996110916138
0.497483432292938232 -0.0860687270760536194 0.136007606983184814
0.200660616159439087 -0.358633995056152344 -0.0913657769560813904
0.505735695362091064 -0.366862744092941284 -0.0234161447733640671
0.52714914083480835 -0.241957932710647583 0.172386884689331055
-0.586783826351165771 0.380236536264419556 0.170202001929283142
0.444825887680053711 -0.314240127801895142 -0.288438320159912109
0.498439818620681763 -0.110260970890522003 0.111519649624824524
-0.655134916305541992 0.175616338849067688 -0.103854402899742126
-0.202782124280929565 0.309815466403961182 0.0888221710920333862
0.20051911473274231 -0.0130682606250047684 0.294783532619476318
0.159624725580215454 -0.061566375195980072 -0.0446213036775588989
-0.580026388168334961 0.302958697080612183 0.368402391672134399
0.274653643369674683 0.098951287567615509 -0.0298274457454681396
-0.436473757028579712 0.156222328543663025 -0.087103821337223053
0.534776031970977783 -0.332212269306182861 0.0121282776817679405
-0.569627463817596436 0.19801841676235199 -0.229417949914932251
-0.49881020188331604 0.0457246936857700348 -0.0877663493156433105
0.0312677696347236633 -0.103689529001712799 0.0324274301528930664
0.53414541482925415 -0.263736158609390259 -0.316738128662109375
0.00939040444791316986 0.198188289999961853 0.0267544947564601898
0.301323413848876953 0.0395855382084846497 -0.0853365510702133179
-0.33318251371383667 -0.0152712035924196243 -0.108430258929729462
0.236137270927429199 0.0150445820763707161 0.321162819862365723
0.124493628740310669 0.0134240603074431419 0.298460721969604492
0.527879118919372559 -0.354382753372192383 0.0656668543815612793
0.466902345418930054 -0.309338122606277466 -0.233830034732818604
-0.652104794979095459 0.286098837852478027 0.104447886347770691
0.54621577262878418 -0.219273552298545837 0.163054510951042175
0.528532981872558594 -0.322462916374206543 -0.0168273579329252243
-0.384153962135314941 -0.0558931156992912292 0.0748065710067749023
0.456666499376296997 -0.310215145349502563 -0.29307064414024353
0.505348324775695801 -0.339116960763931274 -0.318377077579498291
0.478735983371734619 -0.313775628805160522 -0.300045609474182129
0.520767927169799805 -0.300470948219299316 -0.317817926406860352
-0.00279806554317474365 -0.1394452303647995 -0.025337565690279007
0.397174060344696045 -0.272425442934036255 0.323172569274902344
0.40089946985244751 -0.270828038454055786 0.323415398597717285
0.506168365478515625 -0.331095099449157715 0.105366617441177368
-0.469020545482635498 0.0430679842829704285 0.169314831495285034
0.409768283367156982 -0.34529450535774231 0.155866712331771851
-0.361931085586547852 -0.0344368666410446167 -0.14888530969619751
-0.128639087080955505 -0.267171978950500488 0.111668199300765991
0.513029694557189941 -0.368184685707092285 -0.0154075697064399719
-0.214178204536437988 0.313484311103820801 0.0972393304109573364
0.25020831823348999 -0.286577999591827393 0.322644323110580444
0.208346277475357056 0.00997031945735216141 -0.046932172030210495
0.0696123689413070679 -0.151067927479743958 -0.0176846031099557877
-0.170177310705184937 0.305715352296829224 0.118483886122703552
0.471221268177032471 -0.363675594329833984 0.00626082997769117355
-0.29173046350479126 -0.0985900908708572388 -0.103632636368274689
0.0363150276243686676 -0.149366661906242371 -0.0221798885613679886
0.231773078441619873 0.0569333098828792572 0.308631986379623413
0.253058016300201416 -0.288134455680847168 0.320349454879760742
-0.473032563924789429 0.00186758255586028099 0.167371943593025208
0.24058067798614502 0.063396945595741272 0.312530189752578735
0.509237706661224365 -0.351269632577896118 0.0632729977369308472
0.227317377924919128 -0.314280152320861816 0.31409156322479248
-0.376379609107971191 -0.0924429520964622498 0.0852445140480995178
-0.0633943676948547363 -0.24139384925365448 0.301981896162033081
-0.223171964287757874 -0.126951068639755249 -0.0535411424934864044
-0.410717904567718506 -0.0649206936359405518 0.0972862392663955688
-0.445907235145568848 -0.044118143618106842 0.13122279942035675
0.238597527146339417 -0.293532133102416992 0.313997775316238403
0.153709590435028076 -0.323970139026641846 0.319748193025588989
0.424938768148422241 -0.255368471145629883 0.328220963478088379
0.438003450632095337 -0.342091143131256104 -0.293253004550933838
0.506745338439941406 -0.333809942007064819 -0.318554043769836426
0.444966554641723633 -0.351487994194030762 -0.28739851713180542
0.238032042980194092 0.0664874017238616943 0.311779171228408813
0.402933001518249512 -0.286841392517089844 0.325624763965606689
-0.495972692966461182 0.00738142384216189384 0.18719831109046936
0.48564794659614563 -0.0625246167182922363 0.131067514419555664
0.0124150626361370087 -0.170399725437164307 0.00939121656119823456
0.531979203224182129 -0.306649774312973022 -0.06273641437292099
0.31438058614730835 -0.301598489284515381 -0.12751750648021698
0.445704162120819092 -0.290595293045043945 -0.286136776208877563
-0.337427079677581787 0.225514873862266541 0.124780282378196716
-0.401220917701721191 -0.0275992024689912796 -0.00268515851348638535
0.402896970510482788 -0.270997434854507446 0.323832184076309204
-0.133715063333511353 0.1964835524559021 0.166796773672103882
0.398911148309707642 -0.270924270153045654 0.32364422082901001
-0.447457730770111084 -0.0242841541767120361 0.0202318299561738968
-0.138040989637374878 0.245562702417373657 0.19121202826499939
-0.61298680305480957 0.295093566179275513 0.18369254469871521
0.124316677451133728 0.116663888096809387 0.316178858280181885
-0.121091209352016449 0.25140950083732605 0.161431670188903809
-0.583810925483703613 0.349019944667816162 0.0578906461596488953
0.426734894514083862 -0.347442775964736938 0.152382880449295044
-0.56727135181427002 0.295932024717330933 -0.0692062303423881531
0.25123971700668335 0.0274733435362577438 -0.0802300125360488892
0.247239992022514343 0.101164892315864563 -0.0492307431995868683
-0.358584165573120117 -0.0547521263360977173 -0.142518281936645508
0.198598906397819519 0.120789267122745514 0.0353309214115142822
0.545511543750762939 -0.130726993083953857 0.111525878310203552
-0.581806659698486328 0.322490334510803223 -0.0231854040175676346
0.205531030893325806 0.0254794266074895859 0.176174074411392212
-0.595642685890197754 0.376009821891784668 0.171892449259757996
0.444806098937988281 -0.318461686372756958 0.126660868525505066
0.25494036078453064 -0.278075456619262695 0.316022336483001709
0.235273152589797974 0.0245266221463680267 0.316015571355819702
-0.363666415214538574 -0.0489155128598213196 -0.0244960300624370575
-0.183217018842697144 0.118830680847167969 0.0416740924119949341
0.254550457000732422 -0.287496685981750488 0.3190041184425354
0.24158807098865509 0.0338482856750488281 0.321423381567001343
0.399330615997314453 0.0241702478379011154 0.114449463784694672
-0.34145084023475647 -0.0651668384671211243 -0.147897273302078247
0.075603783130645752 -0.332440108060836792 0.298600196838378906
-0.38702961802482605 -0.0600608140230178833 0.0925073623657226562
-0.448940396308898926 -0.0407463535666465759 0.125803679227828979
0.439179182052612305 -0.278458982706069946 0.333346843719482422
0.0345282629132270813 -0.122381970286369324 -0.0260701850056648254
0.414205104112625122 -0.27989274263381958 0.326617330312728882
0.432946324348449707 -0.295236676931381226 0.332818210124969482
0.367507070302963257 -0.277816712856292725 -0.131003826856613159
-0.47885584831237793 0.00243694521486759186 0.186876192688941956
-0.292121320962905884 -0.0953113958239555359 -0.104946345090866089
0.241374656558036804 -0.31232839822769165 0.309283912181854248
0.473398476839065552 -0.353325068950653076 0.0063375718891620636
-0.296897023916244507 -0.0954398587346076965 -0.107270687818527222
0.244397684931755066 -0.287832558155059814 0.319839745759963989
0.0621002763509750366 -0.329171985387802124 0.296659588813781738
0.158060759305953979 -0.267081201076507568 -0.1060820072889328
0.249704897403717041 0.0642661973834037781 0.315034747123718262
-0.483434349298477173 -0.00713024847209453583 0.177098646759986877
0.236254319548606873 0.0674355626106262207 0.314151287078857422
0.238652735948562622 -0.331142663955688477 0.320966899394989014
-0.382633715867996216 -0.0912086516618728638 0.035958513617515564
-0.216569513082504272 -0.139216586947441101 -0.0549259297549724579
-0.383372247219085693 -0.0629630386829376221 0.0819963216781616211
0.150011450052261353 -0.331011980772018433 0.331499367952346802
0.445744305849075317 -0.278981387615203857 0.333264648914337158
0.407220363616943359 -0.279581040143966675 0.324861794710159302
-0.503218412399291992 0.00738566555082798004 0.187442809343338013
-0.322343766689300537 0.0980437099933624268 -0.0710574090480804443
0.53274458646774292 -0.206618785858154297 -0.0531176105141639709
0.45093730092048645 -0.292971700429916382 -0.291176795959472656
0.487682461738586426 -0.324372857809066772 -0.311444640159606934
0.446509897708892822 -0.308861076831817627 -0.29156222939491272
-0.577638030052185059 0.269947230815887451 0.365688025951385498
-0.462454438209533691 0.106536939740180969 -0.231933295726776123
0.374432086944580078 -0.317878276109695435 0.198302879929542542
-0.590109586715698242 0.368037611246109009 0.131054863333702087
0.392290472984313965 -0.352369964122772217 -0.218315869569778442
0.441193133592605591 -0.309408664703369141 -0.289729386568069458
-0.20086003839969635 0.306571811437606812 0.0948032736778259277
-0.155740737915039062 0.268813014030456543 0.151040732860565186
0.530321955680847168 -0.337491840124130249 0.0711960345506668091
0.463654875755310059 -0.265465021133422852 -0.218329310417175293
-0.633701145648956299 0.276673614978790283 0.107059530913829803
0.438463568687438965 -0.307670921087265015 -0.287815093994140625
0.515948653221130371 -0.27627137303352356 -0.317381113767623901
0.517261862754821777 -0.339425891637802124 -0.321257591247558594
0.454521596431732178 -0.306253969669342041 -0.293918311595916748
0.491175413131713867 -0.321034133434295654 0.0937341749668121338
0.0207307413220405579 -0.275127917528152466 -0.0188996978104114532
-0.653429150581359863 0.172305434942245483 -0.10808330774307251
-0.224888920783996582 0.31950107216835022 0.120854876935482025
0.465567409992218018 -0.363264679908752441 0.00507192406803369522
0.481305629014968872 -0.335857570171356201 0.049595806747674942
0.51217496395111084 -0.338440001010894775 -0.320023238658905029
0.440166950225830078 -0.355675548315048218 -0.298383861780166626
-0.270460039377212524 0.323062688112258911 0.0415931083261966705
0.424189269542694092 -0.312428772449493408 -0.282551825046539307
0.415501922369003296 -0.294398307800292969 0.328092575073242188
-0.326846808195114136 -0.0746265724301338196 0.122487485408782959
-0.368109583854675293 -0.0657863542437553406 0.15346953272819519
-0.338502615690231323 0.215593919157981873 0.131921038031578064
0.00989919714629650116 0.119938023388385773 0.104532361030578613
0.542563915252685547 -0.308205872774124146 -0.0468395650386810303
0.0136912427842617035 -0.261231511831283569 0.0390672124922275543
-0.00363135151565074921 -0.235993966460227966 0.09357500821352005
-0.000121224671602249146 -0.219002097845077515 0.080964997410774231
0.465215235948562622 -0.360075116157531738 0.0295127145946025848
-0.270226806402206421 -0.137314707040786743 0.176709294319152832
-0.345626562833786011 -0.0652162358164787292 0.140227228403091431
0.123326584696769714 -0.276140034198760986 0.12833520770072937
-0.134479984641075134 0.0796893984079360962 0.0897160917520523071
0.463133484125137329 -0.0535511225461959839 0.0168433394283056259
-0.0147179868072271347 -0.21624283492565155 0.0796941369771957397
-0.555152654647827148 0.392637550830841064 0.147293597459793091
0.496972441673278809 -0.365888833999633789 0.00448757130652666092
-0.61081850528717041 0.295040607452392578 0.186476349830627441
0.530399978160858154 -0.27432626485824585 -0.318223059177398682
0.370064675807952881 -0.263939261436462402 0.180671587586402893
0.420271575450897217 -0.343712925910949707 0.15005260705947876
0.251171529293060303 0.0400804430246353149 -0.0674993991851806641
0.549693703651428223 -0.149029135704040527 0.123626857995986938
-0.570976555347442627 0.284852087497711182 -0.0068131815642118454
0.501511991024017334 -0.361726105213165283 -0.00188076356425881386
0.20809076726436615 0.116216406226158142 -0.0112537182867527008
-0.290095627307891846 -0.0848474502563476562 -0.0671076849102973938
0.158775448799133301 -0.0825467631220817566 -0.0366365537047386169
-0.340441495180130005 -0.104681886732578278 0.140530094504356384
0.511410415172576904 -0.28049352765083313 -0.313777744770050049
-0.339748114347457886 -0.0789122357964515686 0.0378647036850452423
-0.37001386284828186 0.281748861074447632 -0.063083648681640625
0.510204076766967773 -0.340020686388015747 0.0645009055733680725
0.301217138767242432 -0.205408751964569092 0.247654572129249573
0.543394327163696289 -0.311071693897247314 -0.0613122954964637756
0.141249582171440125 0.070066601037979126 0.33596724271774292
-0.594590604305267334 0.268169045448303223 0.0118973273783922195
0.221404358744621277 -0.00638828054070472717 0.295232206583023071
0.230472013354301453 0.0350598394870758057 0.312229454517364502
0.533949017524719238 -0.318675398826599121 -0.0134848114103078842
-0.389788210391998291 -0.0633662715554237366 0.104504980146884918
-0.448238462209701538 -0.0395728200674057007 0.12472042441368103
0.495483219623565674 -0.0905969440937042236 0.153716474771499634
0.250340938568115234 0.0639278143644332886 0.316175520420074463
-0.292185127735137939 -0.0922330468893051147 0.30712592601776123
-0.367112398147583008 -0.113844133913516998 0.103345818817615509
-0.563990294933319092 0.128063738346099854 -0.0789889246225357056
-0.502401471138000488 0.0242328103631734848 0.18561553955078125
0.518613696098327637 -0.296457767486572266 -0.314536094665527344
0.472541183233261108 -0.327448010444641113 -0.300503194332122803
-0.574118077754974365 0.269571065902709961 0.362631797790527344
-0.571765363216400146 0.355900168418884277 0.166788488626480103
-0.191964507102966309 0.30554470419883728 0.100982636213302612
-0.661561965942382812 0.240404650568962097 0.0417777746915817261
-0.505640566349029541 0.145153090357780457 0.35285523533821106
0.507608652114868164 -0.346345245838165283 -0.318918287754058838
-0.200917810201644897 0.305999249219894409 0.101718425750732422
0.475428462028503418 -0.356882929801940918 0.00385227706283330917
0.509927153587341309 -0.329796016216278076 0.0658060312271118164
-0.61080324649810791 0.368294179439544678 0.0877419039607048035
-0.562727689743041992 0.289035886526107788 -0.0562012121081352234
0.219878152012825012 0.0110357869416475296 0.308371752500534058
0.240082591772079468 0.00589389819651842117 0.321147412061691284
-0.360671252012252808 -0.0558616854250431061 -0.138493582606315613
0.398806482553482056 -0.252014905214309692 0.3215903639793396
0.399121642112731934 -0.262390762567520142 0.324329912662506104
0.223990082740783691 -0.323558717966079712 0.320273429155349731
0.410673946142196655 -0.267117798328399658 0.324744820594787598
-0.51002812385559082 0.0503970235586166382 0.194366678595542908
-0.631011664867401123 0.156989574432373047 -0.0529115200042724609
-0.502623975276947021 0.147808685898780823 0.344859540462493896
0.521492183208465576 -0.349827110767364502 -0.323492050170898438
0.495676010847091675 -0.347411245107650757 -0.000348324887454509735
-0.198616668581962585 0.016909085214138031 -0.0506655424833297729
-0.558117032051086426 0.342737495899200439 -0.00597131066024303436
0.488888651132583618 -0.359694421291351318 0.0402396880090236664
0.448659420013427734 -0.0734240859746932983 0.00124370073899626732
-0.557020664215087891 0.386274635791778564 0.15744483470916748
0.373700141906738281 -0.0802165642380714417 -0.120650969445705414
-0.390356123447418213 0.32052198052406311 0.167738199234008789
-0.385407090187072754 0.32926100492477417 0.196483194828033447
-0.364719808101654053 0.239005520939826965 -0.0840619653463363647
-0.407710164785385132 0.200149610638618469 0.0400600805878639221
-0.644045531749725342 0.287537544965744019 0.0938751846551895142
0.40869864821434021 -0.346548885107040405 0.13557550311088562
0.221949517726898193 0.083535321056842804 -0.0343208685517311096
0.498619616031646729 -0.160552963614463806 0.12312161922454834
0.500078976154327393 -0.0920700877904891968 0.134034588932991028
0.214786455035209656 0.0024907807819545269 0.299117922782897949
-0.354008972644805908 -0.0673300027847290039 -0.009822857566177845
-0.386051207780838013 0.266906380653381348 -0.0723220854997634888
0.506816685199737549 -0.346239149570465088 0.0541999265551567078
-0.357954889535903931 -0.055453769862651825 -0.146107375621795654
0.131911605596542358 0.073166288435459137 0.321575582027435303
-0.0998548567295074463 -0.264956533908843994 0.0056170276366174221
0.241977229714393616 0.0239462684839963913 0.321353048086166382
-0.481329977512359619 -0.0109861250966787338 0.184332519769668579
0.241864874958992004 0.0489863082766532898 0.316656142473220825
-0.278526425361633301 0.333730369806289673 0.0404083430767059326
0.369391202926635742 -0.0300890058279037476 -0.0407950691878795624
0.520798027515411377 -0.347120195627212524 -0.0372054912149906158
0.292821884155273438 -0.01134512759745121 0.0362827703356742859
-0.643939614295959473 0.285522699356079102 0.0926587209105491638
0.0354429297149181366 0.137202665209770203 0.0843780040740966797
-0.397995799779891968 -0.0568681210279464722 0.124317198991775513
-0.442415237426757812 -0.0376383587718009949 0.129757389426231384
0.524334549903869629 -0.316695034503936768 -0.066174626350402832
0.422245651483535767 -0.279298484325408936 0.330793589353561401
0.510040104389190674 -0.344153463840484619 0.056336965411901474
0.403489649295806885 -0.258181542158126831 0.323141276836395264
-0.481292992830276489 0.0187772400677204132 0.175675332546234131
0.235263422131538391 0.069273926317691803 0.313730776309967041
-0.480435669422149658 -0.00738242082297801971 0.166330397129058838
0.238902747631072998 0.068212553858757019 0.314192742109298706
0.387450993061065674 0.0267623234540224075 0.105017408728599548
0.21943037211894989 -0.315618693828582764 0.309901535511016846
0.382188737392425537 0.0435570292174816132 0.0681527182459831238
0.462020933628082275 0.0115657709538936615 0.174283862113952637
0.399110794067382812 -0.258054018020629883 0.326748162508010864
-0.500791966915130615 0.0216970667243003845 0.179900214076042175
-0.573287546634674072 0.266816556453704834 0.359823524951934814
-0.663812577724456787 0.230310693383216858 0.0219159927219152451
-0.149532079696655273 0.276181459426879883 0.078797072172164917
0.52255934476852417 -0.334295451641082764 -0.323104798793792725
-0.220769912004470825 0.316533356904983521 0.0964629054069519043
0.500037491321563721 -0.345798075199127197 0.0662888288497924805
-0.190043866634368896 0.30369269847869873 0.114336304366588593
0.312407821416854858 -0.12955176830291748 0.300204634666442871
0.224634647369384766 -0.0346587859094142914 0.304628521203994751
0.0571124330163002014 -0.330420106649398804 0.290827572345733643
0.435053110122680664 -0.279307276010513306 0.33228030800819397
0.40875619649887085 -0.285177737474441528 0.330388903617858887
0.385154485702514648 -0.265196502208709717 0.318360656499862671
0.39697226881980896 -0.383917033672332764 -0.226356357336044312
-0.162267431616783142 0.278926461935043335 0.127949222922325134
0.37976345419883728 0.0446744412183761597 0.0759326517581939697
0.390361875295639038 -0.255244821310043335 0.318419158458709717
-0.501242876052856445 0.0251237563788890839 0.184670209884643555
0.499763667583465576 -0.325336098670959473 -0.31391790509223938
0.37992587685585022 -0.375204175710678101 -0.217252910137176514
0.521600186824798584 -0.348510384559631348 -0.325471580028533936
0.521201372146606445 -0.347636699676513672 -0.322460651397705078
0.513655304908752441 -0.318914860486984253 -0.319121807813644409
0.25439000129699707 -0.221793979406356812 0.05675506591796875
0.185747742652893066 -0.141832053661346436 -0.106237143278121948
0.508058011531829834 -0.319390535354614258 0.0284440182149410248
-0.470252275466918945 -0.0112918820232152939 0.179869756102561951
0.496416449546813965 -0.348403453826904297 -0.310587048530578613
0.521886646747589111 -0.326738148927688599 -0.322588145732879639
0.475953727960586548 -0.319654792547225952 -0.303784966468811035
-0.341674268245697021 0.23068469762802124 -0.0448763296008110046
0.201313048601150513 0.133367225527763367 0.111474722623825073
-0.17311704158782959 0.0227629467844963074 0.0247492101043462753
0.265558838844299316 -0.165445134043693542 0.00536772655323147774
0.545162677764892578 -0.327568620443344116 -0.0485878698527812958
-0.457204043865203857 -0.0525781288743019104 0.160708606243133545
0.469640970230102539 -0.355379939079284668 -0.307942092418670654
0.478311240673065186 -0.269180268049240112 -0.302330553531646729
0.467294692993164062 -0.361260712146759033 -0.309065967798233032
-0.320403546094894409 0.267570197582244873 0.0108829345554113388
0.0331865623593330383 0.0989024043083190918 0.127749189734458923
-0.285256028175354004 -0.0992229878902435303 -0.0879142060875892639
-0.61638253927230835 0.217470794916152954 -0.104977548122406006
0.243949666619300842 0.10506661981344223 -0.0306038111448287964
0.465845793485641479 -0.234558343887329102 -0.229136884212493896
-0.294630229473114014 -0.0877836495637893677 -0.0965329259634017944
0.248794972896575928 -0.275385528802871704 0.322209268808364868
0.221713736653327942 0.0673274248838424683 -0.0287202335894107819
-0.251444786787033081 -0.12949959933757782 -0.0562060847878456116
-0.212036997079849243 0.302776187658309937 0.147896885871887207
0.338807284832000732 -0.139969542622566223 0.318087011575698853
0.530128359794616699 -0.355798810720443726 0.0687925368547439575
-0.599829316139221191 0.357432305812835693 0.0602544583380222321
-0.347013235092163086 -0.0549485161900520325 -0.144180819392204285
-0.433655589818954468 0.158360332250595093 -0.0856305509805679321
0.526998519897460938 -0.330811023712158203 0.0196891557425260544
0.528511404991149902 -0.287221193313598633 -0.0709673464298248291
-0.499944835901260376 0.143382608890533447 -0.2544231116771698
0.146099835634231567 0.157113134860992432 0.0577995851635932922
0.252631217241287231 -0.00713341124355792999 0.327129930257797241
0.349212825298309326 -0.146624892950057983 0.320188671350479126
0.442072480916976929 -0.322027921676635742 -0.230496719479560852
-0.224494680762290955 -0.139326870441436768 -0.0544090010225772858
0.522984683513641357 -0.349432706832885742 0.0960495397448539734
-0.64567863941192627 0.253987342119216919 0.0239290185272693634
0.392900377511978149 -0.279479861259460449 0.321814745664596558
-0.475816965103149414 -0.00910396501421928406 0.163609057664871216
0.22427619993686676 -0.324554562568664551 0.318498045206069946
-0.364293545484542847 -0.12041039764881134 0.12952268123626709
-0.239051505923271179 -0.139996618032455444 -0.0546081811189651489
-0.114715956151485443 -0.00864615477621555328 -0.0174652077257633209
0.388991117477416992 -0.277722626924514771 0.32020115852355957
-0.507958769798278809 0.0118565168231725693 0.20072472095489502
0.462457895278930664 -0.296237200498580933 -0.295279651880264282
0.350671231746673584 -0.147538810968399048 0.320998847484588623
0.457551091909408569 -0.303083807229995728 -0.229879379272460938
0.024455677717924118 -0.143414035439491272 -0.020621035248041153
0.368547618389129639 -0.327138394117355347 0.318210303783416748
0.391319781541824341 -0.280851513147354126 0.316384434700012207
0.12846451997756958 -0.318510234355926514 -0.097747117280960083
-0.134923636913299561 0.279283642768859863 0.116998009383678436
-0.333935141563415527 0.0951963439583778381 -0.10341828316450119
0.37336355447769165 -0.37509763240814209 -0.215792179107666016
0.520434439182281494 -0.344894737005233765 -0.323170065879821777
0.524020671844482422 -0.357158780097961426 -0.327157288789749146
-0.0688370987772941589 -0.254264801740646362 0.0982612669467926025
0.324858516454696655 -0.130156770348548889 0.314431190490722656
0.423898577690124512 -0.259127944707870483 0.327751874923706055
-0.48080676794052124 0.0327519550919532776 0.195766434073448181
0.527109503746032715 -0.298823803663253784 -0.32261502742767334
0.538375675678253174 -0.291674584150314331 -0.325095146894454956
0.377266287803649902 -0.373335778713226318 -0.214547380805015564
0.370841890573501587 -0.356280595064163208 -0.214496612548828125
0.524580717086791992 -0.35074576735496521 -0.325405418872833252
0.525929689407348633 -0.362609326839447021 -0.323604851961135864
0.515981554985046387 -0.326339304447174072 -0.320533305406570435
0.479627281427383423 -0.351514339447021484 -0.312678158283233643
0.478461802005767822 -0.364774763584136963 -0.31339070200920105
-0.362183094024658203 0.31113848090171814 0.238508909940719604
-0.321351051330566406 0.104952707886695862 0.0211290232837200165
-0.447861403226852417 0.204914256930351257 -0.0412235818803310394
-0.378466516733169556 0.280344545841217041 -0.00789790507405996323
-0.0229799523949623108 -0.260313242673873901 0.143132448196411133
-0.592111468315124512 0.362297892570495605 0.064108729362487793
0.366948813199996948 -0.372655242681503296 -0.213234275579452515
-0.124627098441123962 -0.0101360343396663666 0.00726850330829620361
0.396256446838378906 -0.352472275495529175 -0.219077318906784058
0.507447540760040283 -0.158854171633720398 0.124428607523441315
0.195146337151527405 0.125191748142242432 0.00578824384137988091
-0.0268845502287149429 0.167546376585960388 0.382443845272064209
-0.334497570991516113 -0.120251573622226715 0.0997015908360481262
-0.325549006462097168 0.303774714469909668 -0.0373395048081874847
0.534675776958465576 -0.34597209095954895 0.037027895450592041
0.525860369205474854 -0.330935865640640259 0.0338364988565444946
-0.595922887325286865 0.382998287677764893 0.113209858536720276
-0.0115778073668479919 -0.143635421991348267 -0.0274141561239957809
-0.236022517085075378 0.172922655940055847 -0.00266424287110567093
-0.486146777868270874 -0.00987002626061439514 0.176462367177009583
-0.278429716825485229 0.337129980325698853 0.042073909193277359
0.51387476921081543 -0.348226189613342285 0.0964207351207733154
-0.449382394552230835 -0.0351482629776000977 0.11585543304681778
0.4339943528175354 -0.252574682235717773 0.3314475417137146
0.414621293544769287 -0.277624636888504028 0.326839745044708252
-0.469584167003631592 0.0352780111134052277 0.192593634128570557
0.502537548542022705 -0.33872571587562561 0.00741295050829648972
-0.482501089572906494 -0.00200669467449188232 0.176633864641189575
-0.378024190664291382 -0.105873607099056244 0.0920436084270477295
-0.502258539199829102 0.0229537468403577805 0.183190762996673584
0.360256731510162354 -0.286162674427032471 -0.142412334680557251
0.00140039436519145966 -0.230938613414764404 0.089556470513343811
-0.14065764844417572 0.266106218099594116 0.0880422890186309814
-0.129873365163803101 0.25531160831451416 0.0709907859563827515
0.312114685773849487 -0.292572557926177979 -0.131823897361755371
0.427862554788589478 -0.254839152097702026 0.329871475696563721
-0.614795565605163574 0.307339519262313843 0.392199873924255371
0.410530269145965576 -0.357053577899932861 -0.227092236280441284
0.505540430545806885 -0.345691382884979248 -0.320336818695068359
0.508196413516998291 -0.35165637731552124 -0.323015809059143066
0.524042963981628418 -0.297635555267333984 -0.319070100784301758
0.510154306888580322 -0.345953643321990967 -0.320612072944641113
0.26992073655128479 -0.168788254261016846 -0.0801755860447883606
0.133465826511383057 0.120862238109111786 0.328587591648101807
0.251494228839874268 -0.28450736403465271 0.327841728925704956
0.323684126138687134 -0.119498975574970245 0.310122549533843994
0.301426202058792114 -0.204058706760406494 0.250837653875350952
0.249378010630607605 -0.0031319744884967804 0.324794381856918335
0.507421553134918213 -0.342297405004501343 0.0869815647602081299
0.241289228200912476 0.0905654206871986389 0.309410959482192993
0.462632119655609131 -0.283414512872695923 -0.231888562440872192
-0.262635856866836548 0.31507420539855957 0.0456564538180828094
0.343266457319259644 -0.139349937438964844 0.329281210899353027
0.373427599668502808 -0.362982422113418579 -0.209486916661262512
0.336766898632049561 -0.128531455993652344 0.320394277572631836
0.527035653591156006 -0.346307754516601562 -0.324399024248123169
0.524820268154144287 -0.351183205842971802 -0.327038168907165527
0.48001861572265625 -0.371507614850997925 -0.313500404357910156
-0.361151039600372314 -0.0643745362758636475 0.0817658901214599609
-0.408294022083282471 0.0895293503999710083 -0.113857731223106384
0.0138648375868797302 0.0987967103719711304 0.216555505990982056
-0.379028260707855225 -0.0925451666116714478 -0.0292964056134223938
0.265047192573547363 0.0690172240138053894 -0.092566370964050293
-0.108953401446342468 -0.0145252831280231476 0.0453360490500926971
-0.35894167423248291 -0.0912123844027519226 0.0122836725786328316
-0.291138291358947754 0.305969178676605225 0.165993466973304749
-0.356324344873428345 -0.0728183165192604065 0.0398759953677654266
-0.598705887794494629 0.295547217130661011 0.186411559581756592
0.248809665441513062 0.09753447026014328 -0.0350790582597255707
0.378865480422973633 -0.35414394736289978 -0.210147663950920105
0.469738125801086426 -0.324013501405715942 0.137293696403503418
0.464427858591079712 -0.27102014422416687 -0.093682900071144104
-0.440676659345626831 -0.0424254052340984344 0.0831398665904998779
-0.337060689926147461 -0.12379976361989975 0.126973003149032593
0.528842628002166748 -0.341040998697280884 0.0503149181604385376
0.392169773578643799 0.0479251444339752197 0.132869526743888855
-0.186104640364646912 0.314930438995361328 0.107543163001537323
-0.442274510860443115 -0.0423227697610855103 0.116486325860023499
0.537831544876098633 -0.325259625911712646 -0.056307528167963028
-0.353514015674591064 0.307515263557434082 0.113626688718795776
0.49439471960067749 -0.345261693000793457 0.0435482598841190338
-0.575477540493011475 0.305956631898880005 0.37929871678352356
0.430775374174118042 -0.280261099338531494 0.333343237638473511
-0.479213804006576538 0.00489475717768073082 0.162806481122970581
0.525453329086303711 -0.348911911249160767 -0.00318216113373637199
-0.06806926429271698 -0.262397736310958862 0.297938257455825806
-0.512706637382507324 0.00546686816960573196 0.1869068443775177
0.389561742544174194 -0.35944056510925293 -0.216471105813980103
-0.118916288018226624 0.255376368761062622 0.0634899437427520752
-0.501522958278656006 0.00560660520568490028 0.192109644412994385
0.426235198974609375 -0.273760348558425903 0.330255508422851562
-0.334311544895172119 0.104696452617645264 -0.119625464081764221
-0.106176212430000305 0.255166977643966675 0.0933498963713645935
0.511184394359588623 -0.340846806764602661 -0.320179343223571777
-0.61231917142868042 0.303123295307159424 0.396282106637954712
