ply
format ascii 1.0
element vertex 738
property float x
property float y
property float z
end_header
-0.0157377049326896667 0.13837924599647522 0.0911862850189208984
-0.502658188343048096 0.0963239744305610657 -0.128992438316345215
-0.346984535455703735 0.0130330342799425125 0.149442687630653381
0.525637030601501465 -0.0540329739451408386 -0.309567898511886597
-0.500959932804107666 0.136469900608062744 -0.241901129484176636
0.472065269947052002 -0.268431127071380615 0.112939350306987762
0.375684231519699097 -0.132983848452568054 -0.0489307232201099396
0.233739405870437622 0.0938852354884147644 -0.0414571426808834076
0.136695772409439087 0.0135257551446557045 0.284022688865661621
0.51973414421081543 -0.203983202576637268 -0.0887772515416145325
-0.537629425525665283 0.125418573617935181 -0.107049107551574707
-0.580024421215057373 0.293483972549438477 -0.00204495852813124657
0.481835693120956421 -0.324481308460235596 0.0995462536811828613
0.49866911768913269 -0.268817782402038574 0.0353237167000770569
0.49224516749382019 -0.329715549945831299 -0.0639171302318572998
-0.484467148780822754 0.121016226708889008 -0.0466560833156108856
-0.59222865104675293 0.302332401275634766 0.174798518419265747
0.482634186744689941 -0.322381407022476196 0.133908540010452271
0.505228221416473389 -0.302864640951156616 -0.104533076286315918
-0.382631838321685791 0.317951351404190063 0.15728345513343811
-0.54734724760055542 0.335262894630432129 0.1332225501537323
0.459672808647155762 -0.258846908807754517 0.114197388291358948
0.532766819000244141 -0.206751108169555664 -0.0883810222148895264
0.512472927570343018 -0.231520414352416992 -0.305596739053726196
-0.554767847061157227 0.260311722755432129 -0.0219216421246528625
0.460384100675582886 -0.304029464721679688 0.108362056314945221
-0.453146457672119141 0.113412141799926758 -0.225990667939186096
0.485297858715057373 -0.313875466585159302 -0.304243385791778564
-0.560087144374847412 0.318462729454040527 0.353951811790466309
0.178432151675224304 -0.103599540889263153 -0.016916230320930481
0.304894566535949707 0.0189374014735221863 -0.112783387303352356
0.505679428577423096 -0.337444812059402466 0.0244128983467817307
0.403710991144180298 0.0233148578554391861 0.00734661007300019264
0.474184632301330566 -0.28787463903427124 -0.300882339477539062
0.0096819605678319931 0.154800832271575928 0.0564177371561527252
0.522714674472808838 -0.299804806709289551 -0.0984109640121459961
-0.382026076316833496 0.334799855947494507 0.203620031476020813
-0.552072584629058838 0.338435381650924683 0.123677864670753479
0.41791456937789917 -0.251902222633361816 0.097131773829460144
-0.581047713756561279 0.20891958475112915 -0.215839818120002747
0.276561558246612549 -0.0842841789126396179 0.190285444259643555
-0.130323007702827454 0.225280866026878357 0.125627294182777405
-0.383430540561676025 0.104619234800338745 -0.0645675137639045715
0.550472021102905273 -0.219444185495376587 0.114106804132461548
0.383236616849899292 -0.241782873868942261 0.313413441181182861
-0.553534448146820068 0.163928180932998657 0.0787637233734130859
-0.135154798626899719 0.20219886302947998 0.167214110493659973
0.241258040070533752 0.110848605632781982 -0.050123460590839386
0.115800231695175171 0.0403943620622158051 0.327563762664794922
-0.559967219829559326 0.278800457715988159 0.00151761528104543686
0.318681269884109497 -0.131958872079849243 -0.0805433318018913269
-0.575914919376373291 0.200929105281829834 -0.226713865995407104
0.207319468259811401 0.118575215339660645 0.0442972555756568909
0.462774693965911865 -0.307703197002410889 0.13425542414188385
-0.585713684558868408 0.320310592651367188 -0.0255283582955598831
0.529780149459838867 -0.252744048833847046 0.0978998094797134399
-0.310989171266555786 0.0831725150346755981 -0.073273681104183197
-0.451186835765838623 0.00910154543817043304 -0.141178518533706665
-0.302024185657501221 0.291548341512680054 0.14535956084728241
-0.52763444185256958 0.182221770286560059 -0.216182723641395569
-0.392527788877487183 -0.0581384524703025818 0.0994346588850021362
-0.546199619770050049 0.263468444347381592 -0.165650755167007446
0.312965571880340576 -0.333642005920410156 0.196876943111419678
-0.0604930408298969269 0.09466523677110672 0.320389896631240845
-0.102617852389812469 0.144508242607116699 0.0925672575831413269
0.498880565166473389 -0.362646549940109253 0.0753970667719841003
0.348015010356903076 -0.282180607318878174 -0.136075764894485474
-0.413481384515762329 0.198760643601417542 0.0351150482892990112
-0.34600365161895752 0.252508729696273804 -0.0144400987774133682
-0.268069475889205933 0.0795973092317581177 -0.0156697873026132584
-0.181001812219619751 0.0192302316427230835 0.0388096682727336884
-0.55393064022064209 0.213347673416137695 -0.0481798090040683746
0.406611919403076172 -0.399850517511367798 -0.216240540146827698
0.517119228839874268 -0.284387350082397461 -0.100747719407081604
0.394297212362289429 -0.263754606246948242 -0.19433729350566864
0.497149884700775146 -0.273877352476119995 -0.301308423280715942
0.433794945478439331 -0.256480157375335693 -0.00264915218576788902
-0.15529961884021759 -0.24359440803527832 0.147903010249137878
-0.629923224449157715 0.194854289293289185 -0.0480722151696681976
-0.356274724006652832 0.00120857497677206993 -0.15194980800151825
-0.501850724220275879 0.147086471319198608 0.345448553562164307
-0.332575052976608276 0.300719022750854492 0.190098121762275696
-0.335965126752853394 -0.0308115854859352112 -0.133196920156478882
0.112395435571670532 0.0960394591093063354 0.0284990854561328888
0.468947112560272217 -0.134214878082275391 0.099140457808971405
0.398012995719909668 -0.304306566715240479 0.144599169492721558
-0.458510398864746094 0.168513953685760498 0.115625381469726562
-0.537066757678985596 0.288184612989425659 0.0412297062575817108
-0.276964664459228516 -0.126892209053039551 0.0811399742960929871
-0.484000980854034424 0.249834820628166199 -0.103760175406932831
0.170916289091110229 -0.27147337794303894 0.0357847176492214203
-0.345655262470245361 0.104163125157356262 0.00544976908713579178
-0.367132395505905151 0.283803373575210571 0.085790485143661499
0.385530650615692139 -0.229109466075897217 -0.122611619532108307
-0.354069769382476807 0.00326322996988892555 0.0343344956636428833
-0.518683493137359619 0.202649608254432678 0.0481772646307945251
-0.385569214820861816 0.183433294296264648 0.0906780734658241272
-0.572129309177398682 0.328851699829101562 -0.0122892074286937714
-0.340211689472198486 -0.0869718119502067566 -0.0548139214515686035
-0.137774139642715454 -0.268414467573165894 0.129413127899169922
0.274336665868759155 -0.165206179022789001 0.0540784746408462524
0.311758875846862793 -0.301962047815322876 -0.128799885511398315
-0.382047414779663086 0.251230746507644653 0.232466265559196472
0.309002965688705444 -0.216711908578872681 0.200620323419570923
0.495792686939239502 -0.254157423973083496 -0.105925098061561584
-0.119639381766319275 0.073273874819278717 0.172708645462989807
0.511892259120941162 -0.361546069383621216 -0.0315079763531684875
-0.509693264961242676 0.269818097352981567 -0.00576993077993392944
-0.595173895359039307 0.2444944828748703 -0.00315633323043584824
-0.586467146873474121 0.251665353775024414 0.193533003330230713
-0.548769772052764893 0.121880799531936646 -0.135068908333778381
-0.245549604296684265 0.183543786406517029 0.356145918369293213
0.46146431565284729 -0.263750225305557251 -0.290924578905105591
0.455123275518417358 -0.255363583564758301 -0.187507286667823792
0.519065916538238525 -0.302166491746902466 0.0441300012171268463
-0.62570655345916748 0.200671643018722534 0.0444081835448741913
-0.2567024827003479 -0.00398833118379116058 -0.0629847943782806396
0.244382917881011963 0.0998959839344024658 -0.069789201021194458
0.503912627696990967 -0.159202933311462402 0.130591854453086853
0.341796755790710449 -0.0693829134106636047 0.160819604992866516
0.398850053548812866 -0.236375242471694946 0.129700690507888794
-0.361029833555221558 -0.117854021489620209 0.115501329302787781
-0.480024665594100952 0.190380409359931946 0.0628904029726982117
-0.57545095682144165 0.342970788478851318 0.024698963388800621
-0.36025005578994751 -0.0627539902925491333 0.0897485539317131042
-0.343997746706008911 0.0123243732377886772 -0.115158647298812866
0.302045464515686035 -0.294992595911026001 0.16105981171131134
-0.505241215229034424 0.221712782979011536 0.140733510255813599
-0.48648756742477417 0.0291092488914728165 -0.0478620007634162903
0.032297525554895401 0.0885506719350814819 0.0870329514145851135
-0.232256367802619934 0.348134785890579224 0.148098886013031006
0.0312620550394058228 0.0109576713293790817 0.0413719303905963898
-0.366463780403137207 -0.0360284522175788879 -0.0335309654474258423
-0.0486220754683017731 -0.233797729015350342 0.301239609718322754
0.185354262590408325 -0.292195528745651245 0.00302431453019380569
0.233890220522880554 -0.0109033863991498947 0.229550540447235107
-0.527176082134246826 0.141340851783752441 0.0671304464340209961
-0.521343469619750977 0.202342599630355835 -0.068035714328289032
-0.553218364715576172 0.286658674478530884 0.106823191046714783
0.143364995718002319 0.00854498427361249924 0.30714881420135498
0.0675146877765655518 -0.285556703805923462 -0.0820140689611434937
-0.363586694002151489 0.0360064134001731873 -0.161954015493392944
0.306462585926055908 -0.292804211378097534 0.0287693478167057037
-0.340414911508560181 0.214394330978393555 0.158152461051940918
-0.188410788774490356 0.200746685266494751 0.366854995489120483
-0.540523767471313477 0.255590170621871948 -0.084684416651725769
0.521919846534729004 -0.199127733707427979 -0.0929258763790130615
-0.519655704498291016 0.186066597700119019 0.135477706789970398
-0.544199883937835693 0.270817458629608154 -0.00313721178099513054
0.470475345849990845 -0.325790613889694214 0.0440746024250984192
0.287550985813140869 0.0319561250507831573 0.0528864115476608276
0.432487666606903076 -0.305475711822509766 -0.285683810710906982
-0.520002126693725586 0.0907777771353721619 -0.135985314846038818
-0.600883901119232178 0.286225438117980957 0.183571383357048035
0.466524839401245117 -0.320818454027175903 0.126718714833259583
0.466443508863449097 -0.260320723056793213 -0.294414490461349487
-0.405204117298126221 0.301413655281066895 0.14172305166721344
-0.455370068550109863 0.120110593736171722 -0.224730402231216431
0.480490356683731079 -0.311812341213226318 -0.303190290927886963
0.467416465282440186 -0.330249249935150146 -0.00343697750940918922
0.4564228355884552 -0.305029928684234619 -0.293124794960021973
0.523894011974334717 -0.261335849761962891 -0.102469086647033691
-0.410010635852813721 0.319574594497680664 0.161540091037750244
-0.561122238636016846 0.268321335315704346 0.364761471748352051
-0.576844394207000732 0.211168289184570312 -0.201426491141319275
0.446278810501098633 -0.296336978673934937 -0.224142760038375854
0.308853417634963989 -0.0753695592284202576 0.148086294531822205
0.534058630466461182 -0.247692346572875977 0.100950747728347778
-0.563677847385406494 0.120367631316184998 -0.2339753657579422
-0.409618020057678223 0.0773881375789642334 -0.117407903075218201
-0.580460488796234131 0.357266277074813843 0.0821157842874526978
0.0410524606704711914 0.11518358439207077 0.311612159013748169
-0.457902073860168457 0.00974010955542325974 0.180577680468559265
0.40860334038734436 -0.343619883060455322 0.159109011292457581
-0.555651545524597168 0.289245247840881348 -0.0498069152235984802
0.542606234550476074 -0.255379080772399902 0.113349303603172302
0.0233424566686153412 -0.249239802360534668 0.204352200031280518
0.195009127259254456 0.130578234791755676 0.034014187753200531
0.314292103052139282 -0.369885504245758057 -0.157691851258277893
0.11005256325006485 0.060287967324256897 0.318481862545013428
-0.315469950437545776 0.307340741157531738 0.283173471689224243
-0.255415081977844238 -0.13198523223400116 -0.0737201347947120667
-0.38736608624458313 -0.0597686246037483215 0.105191826820373535
0.451926171779632568 -0.0718839541077613831 -0.117239005863666534
0.315107882022857666 -0.332650810480117798 0.194991379976272583
0.296119034290313721 0.0391354970633983612 0.0490365214645862579
0.475097149610519409 -0.330483406782150269 0.135854780673980713
0.438984155654907227 -0.267215371131896973 -0.282701313495635986
0.460478216409683228 -0.272441118955612183 0.137507051229476929
0.503421902656555176 -0.346381962299346924 0.0170069988816976547
0.518406867980957031 -0.268915653228759766 -0.0875625461339950562
0.49766850471496582 -0.0872882455587387085 0.161094248294830322
0.541342020034790039 -0.214586585760116577 0.1103840172290802
-0.578004658222198486 0.327860236167907715 0.0799627900123596191
0.245538726449012756 0.112189196050167084 -0.0553300343453884125
0.0329032763838768005 0.0689530223608016968 0.271873623132705688
-0.562634289264678955 0.275969624519348145 0.0233929604291915894
-0.614328742027282715 0.272906213998794556 0.0382461249828338623
0.534926772117614746 -0.238714426755905151 0.102411016821861267
-0.576496660709381104 0.213336914777755737 -0.11727730929851532
-0.426704943180084229 0.0313742309808731079 -0.189336434006690979
0.303257077932357788 -0.125507503747940063 -0.109006255865097046
-0.385951489210128784 -0.055180966854095459 0.0996835231781005859
-0.603270590305328369 0.260146081447601318 0.0170792862772941589
-0.461721926927566528 0.307213336229324341 0.080058269202709198
0.504306972026824951 -0.263300538063049316 -0.109559372067451477
0.534086465835571289 -0.191814929246902466 0.0283123385161161423
-0.616103410720825195 0.21104101836681366 -0.0564642027020454407
0.451360911130905151 -0.12273329496383667 0.0887903645634651184
0.0330454334616661072 -0.278923571109771729 -0.0365045927464962006
0.401320099830627441 -0.318312734365463257 0.130036711692810059
-0.0948572158813476562 0.074727274477481842 0.292351782321929932
0.242061406373977661 -0.135963484644889832 0.0103764729574322701
0.16083863377571106 -0.270996123552322388 0.0431780852377414703
-0.591200470924377441 0.369901895523071289 0.0895130336284637451
0.0262978486716747284 -0.0110744647681713104 0.027333410456776619
0.194858372211456299 0.0347963124513626099 0.177411764860153198
-0.307066202163696289 -0.0908084362745285034 0.304712623357772827
0.49313199520111084 -0.366593778133392334 0.0192366372793912888
0.521391153335571289 -0.310848772525787354 0.0455719418823719025
0.501802504062652588 -0.152789533138275146 0.11870969831943512
0.0803029239177703857 -0.271451681852340698 -0.0601168982684612274
-0.326661735773086548 -0.10243593156337738 0.0876144468784332275
-0.586951136589050293 0.335749685764312744 0.0182542167603969574
-0.0743385180830955505 -0.235318019986152649 0.301064580678939819
0.193596348166465759 -0.33935999870300293 -0.0630368143320083618
-0.39999738335609436 0.272820830345153809 -0.0554514080286026001
-0.523099124431610107 0.0448623932898044586 -0.0586618334054946899
-0.25855979323387146 0.142797484993934631 0.0902861356735229492
-0.21451374888420105 -0.135037824511528015 -0.0638013184070587158
0.507658481597900391 -0.10406484454870224 0.143959879875183105
0.213521003723144531 -0.278971880674362183 -0.0101389065384864807
0.237642958760261536 -0.0758269354701042175 0.125457450747489929
-0.141193479299545288 0.297244459390640259 0.146998733282089233
-0.655881702899932861 0.171684250235557556 -0.11269601434469223
0.252265095710754395 -0.00864688493311405182 0.249277457594871521
0.249542877078056335 -0.178136914968490601 0.30221402645111084
-0.26388201117515564 -0.136261016130447388 -0.0681890547275543213
-0.201071649789810181 0.315110534429550171 0.098579108715057373
0.257553696632385254 -0.277439028024673462 0.322532027959823608
0.177923351526260376 -0.0533805899322032928 -0.0516364425420761108
-0.444674670696258545 -0.0660814046859741211 0.127569496631622314
-0.504743337631225586 0.0306930635124444962 0.246184259653091431
-0.498147904872894287 0.0371718741953372955 -0.012648366391658783
0.231876030564308167 0.0236375071108341217 0.313423812389373779
-0.372281640768051147 -0.045116424560546875 0.142515316605567932
-0.350149959325790405 0.107209779322147369 0.0646150782704353333
0.30653652548789978 -0.198344781994819641 0.242658928036689758
0.306891918182373047 -0.00474911369383335114 0.218934684991836548
-0.443861246109008789 0.267335176467895508 -0.038120221346616745
0.516722142696380615 -0.326061099767684937 -0.0817370861768722534
-0.539782941341400146 0.139150470495223999 -0.0978958979249000549
0.464858502149581909 -0.123718895018100739 0.0015963271725922823
-0.385733485221862793 0.256016701459884644 0.0317932665348052979
0.493457436561584473 -0.301179826259613037 0.120478861033916473
0.464255839586257935 -0.105368658900260925 0.0592628791928291321
0.202750876545906067 0.0159898027777671814 -0.0428987815976142883
-0.225511759519577026 0.296628475189208984 0.15782696008682251
-0.125939637422561646 -0.048275485634803772 0.0102197360247373581
-0.231993198394775391 0.229186579585075378 0.347362726926803589
-0.382097393274307251 -0.0536673553287982941 0.144408270716667175
0.339854180812835693 -0.0728206932544708252 0.0469578094780445099
-0.437347590923309326 -0.011456664651632309 0.0330882258713245392
0.204517707228660583 0.0173364989459514618 0.0698512420058250427
0.0552893653512001038 -0.0854255929589271545 0.238906189799308777
-0.384933233261108398 -0.0587905384600162506 0.115507081151008606
-0.137567773461341858 -0.264208763837814331 -0.00187473790720105171
-0.244448006153106689 0.0642015784978866577 0.2440318763256073
-0.542986869812011719 0.211847379803657532 0.161956176161766052
-0.591161429882049561 0.287761896848678589 -0.00790408905595541
0.305769681930541992 0.0185086093842983246 0.0420806445181369781
0.477587133646011353 -0.314317047595977783 -0.305539608001708984
0.502927422523498535 -0.345050334930419922 -0.0644005239009857178
0.470681875944137573 -0.304690659046173096 0.114707157015800476
0.526689052581787109 -0.302237480878829956 -0.109590902924537659
-0.404009848833084106 0.312404930591583252 0.133678913116455078
0.517177760601043701 -0.250908762216567993 -0.307912856340408325
0.50638127326965332 -0.328991144895553589 -0.315016448497772217
0.518346190452575684 -0.330812573432922363 0.0912196487188339233
0.476541578769683838 -0.303988337516784668 -0.303528755903244019
0.527182221412658691 -0.284818023443222046 -0.108348138630390167
-0.560222208499908447 0.267927259206771851 0.365156471729278564
-0.640265464782714844 0.290161550045013428 0.0849855244159698486
0.37002447247505188 -0.400353580713272095 -0.218087106943130493
-0.450730770826339722 -0.000107347965240478516 0.174205794930458069
0.175783216953277588 0.0736356675624847412 0.00584052689373493195
-0.454641640186309814 0.135261654853820801 -0.214471578598022461
0.402465999126434326 -0.335255324840545654 0.12816464900970459
-0.598998129367828369 0.207921475172042847 0.00043537188321352005
0.246628358960151672 -0.113759264349937439 -0.0712952017784118652
-0.484362989664077759 0.183312773704528809 -0.210830420255661011
-0.377082347869873047 -0.062493886798620224 0.0905555933713912964
0.522818028926849365 -0.320406407117843628 0.0355169624090194702
0.541607320308685303 -0.216635927557945251 0.108025558292865753
0.525358498096466064 -0.272877007722854614 0.0549493283033370972
0.110576167702674866 0.0849592462182044983 0.316879600286483765
-0.351956307888031006 -0.0472220629453659058 0.0440744049847126007
0.104443356394767761 0.0728989690542221069 0.295024603605270386
-0.166162684559822083 0.133798301219940186 0.150428861379623413
0.502245187759399414 -0.255783438682556152 -0.102672740817070007
0.428325295448303223 -0.30319511890411377 0.135207921266555786
-0.357166022062301636 -0.100571021437644958 0.158106818795204163
0.49787449836730957 -0.200826197862625122 -0.108242027461528778
-0.57940363883972168 0.349018186330795288 0.151555627584457397
0.104169949889183044 -0.010861765593290329 0.0204319506883621216
-0.342111825942993164 -0.122507035732269287 0.103859566152095795
-0.121019810438156128 -0.27507743239402771 0.173364728689193726
-0.161706015467643738 0.167971312999725342 0.324441075325012207
0.514545679092407227 -0.358177244663238525 0.0261706281453371048
0.520821511745452881 -0.286958426237106323 -0.0119993705302476883
0.477813810110092163 -0.139181047677993774 0.107442557811737061
-0.181974917650222778 0.0300395768135786057 0.0253207758069038391
-0.342874914407730103 -0.120714761316776276 0.102965518832206726
-0.600254178047180176 0.3774871826171875 0.18819233775138855
-0.120190441608428955 -0.266175746917724609 0.217642009258270264
0.523119449615478516 -0.30810844898223877 -0.0751662254333496094
0.515677571296691895 -0.251774042844772339 -0.309882938861846924
0.454265832901000977 -0.307785868644714355 -0.294956684112548828
0.238876685500144958 -0.0950128808617591858 0.15781441330909729
-0.620360732078552246 0.273045182228088379 0.0369959175586700439
-0.430870473384857178 -0.00303992815315723419 0.176377683877944946
-0.251202642917633057 -0.136018440127372742 -0.0715353488922119141
0.31645163893699646 -0.318533003330230713 0.121878810226917267
0.538495481014251709 -0.24896666407585144 0.106565490365028381
0.451830267906188965 -0.138952255249023438 0.0149774039164185524
0.428565740585327148 -0.320454180240631104 0.123083651065826416
0.412208735942840576 -0.330403834581375122 -0.210733935236930847
0.472811698913574219 -0.127699404954910278 0.109427429735660553
-0.549744725227355957 0.379564613103866577 0.171987920999526978
0.18997463583946228 -0.339210182428359985 -0.0139341689646244049
-0.202545374631881714 -0.134604528546333313 -0.0689434260129928589
-0.185925886034965515 0.312964797019958496 0.117370150983333588
0.102718636393547058 0.108354091644287109 0.17371802031993866
-0.445247471332550049 -0.0537201389670372009 0.0905895531177520752
-0.490576624870300293 0.0308354869484901428 0.0160056836903095245
0.230786100029945374 0.0118034351617097855 0.31433027982711792
-0.0250079203397035599 0.113976165652275085 0.311868667602539062
0.242080867290496826 -0.0377254262566566467 0.204185351729393005
-0.385075271129608154 0.246043846011161804 0.033375810831785202
-0.653480947017669678 0.217049181461334229 -0.0394922494888305664
0.482192844152450562 -0.115401178598403931 0.0231017395853996277
0.121607378125190735 0.0801090449094772339 0.137761890888214111
-0.382629573345184326 -0.0718363076448440552 0.0946862250566482544
0.318004012107849121 -0.0714876875281333923 0.061671718955039978
-0.441623955965042114 -0.0109230484813451767 0.00599811132997274399
-0.502813100814819336 0.23443169891834259 -0.0717177689075469971
-0.548051178455352783 0.204395562410354614 -0.0689652115106582642
0.0876625478267669678 0.0923092737793922424 0.079318508505821228
-0.52065354585647583 0.205532774329185486 -0.0475810468196868896
-0.168866008520126343 0.0729725658893585205 0.231887131929397583
-0.0580030493438243866 -0.186116114258766174 0.0263543594628572464
-0.213189706206321716 0.291676759719848633 0.108583956956863403
0.248177811503410339 -0.00446916557848453522 0.0214157458394765854
-0.556286633014678955 0.205267876386642456 0.117667384445667267
-0.458054810762405396 0.21714356541633606 0.0234908498823642731
-0.463620275259017944 0.267385363578796387 -0.0035070846788585186
-0.575640738010406494 0.248254925012588501 -0.0767547935247421265
-0.390401184558868408 0.275912702083587646 -0.0850627422332763672
0.342897474765777588 -0.133819401264190674 0.318785935640335083
-0.49883762001991272 0.207670927047729492 -0.0120892226696014404
-0.346994102001190186 0.293699502944946289 -0.0509845651686191559
0.525717437267303467 -0.360416799783706665 0.0413350239396095276
-0.540453135967254639 0.215943410992622375 0.200501009821891785
-0.569900810718536377 0.295129179954528809 -0.00380303896963596344
0.315102547407150269 0.0247578173875808716 0.0479694977402687073
0.481276512145996094 -0.306727200746536255 -0.304418653249740601
0.478887110948562622 -0.325751632452011108 0.124755777418613434
0.522964000701904297 -0.306266605854034424 -0.0989477038383483887
0.489521265029907227 -0.310283511877059937 -0.307590067386627197
0.51590651273727417 -0.324294626712799072 0.11940358579158783
0.443679779767990112 -0.299685001373291016 -0.291464149951934814
0.52280956506729126 -0.303858280181884766 -0.0977065563201904297
0.134180277585983276 0.117006465792655945 0.336409240961074829
-0.642016232013702393 0.243129700422286987 -0.00957751274108886719
-0.293342560529708862 -0.113015033304691315 -0.106037303805351257
0.538778960704803467 -0.254731744527816772 0.0917601212859153748
0.128783553838729858 0.098371461033821106 0.316738277673721313
-0.235880076885223389 -0.142667204141616821 -0.0717084705829620361
0.251155585050582886 0.0307556670159101486 -0.08647967129945755
0.530669927597045898 -0.322517514228820801 0.00648643914610147476
-0.599642097949981689 0.308088451623916626 0.104052141308784485
0.531442165374755859 -0.244002014398574829 0.0863044857978820801
-0.374675363302230835 -0.0602967403829097748 0.0911567956209182739
0.526048481464385986 -0.274631857872009277 -0.123512640595436096
-0.501683831214904785 0.149512782692909241 0.352643519639968872
0.38443872332572937 -0.296963781118392944 0.130988150835037231
0.132133454084396362 -0.33140835165977478 -0.100894242525100708
0.522308588027954102 -0.354161947965621948 -0.0153040364384651184
-0.438034802675247192 0.151427283883094788 -0.0860548466444015503
0.515353143215179443 -0.2994556725025177 0.0643315911293029785
0.391954749822616577 -0.367007046937942505 -0.214404493570327759
0.499739170074462891 -0.17073705792427063 0.129761233925819397
0.532961010932922363 -0.333461135625839233 0.0280712321400642395
-0.58038020133972168 0.349718064069747925 0.0399294793605804443
0.519191265106201172 -0.240618482232093811 -0.309324741363525391
-0.60147780179977417 0.371435195207595825 0.104263961315155029
-0.501135468482971191 0.147874027490615845 0.354882150888442993
0.23359227180480957 -0.277219891548156738 0.316723793745040894
-0.181949645280838013 -0.136301055550575256 -0.0559912137687206268
-0.22913728654384613 -0.137093037366867065 -0.0539555773138999939
-0.205041930079460144 0.299344062805175781 0.12603895366191864
0.262270539999008179 -0.289054155349731445 0.32325977087020874
-0.363503813743591309 -0.029644157737493515 0.118611522018909454
-0.501016855239868164 0.020070001482963562 0.0309888441115617752
0.242049351334571838 0.000949488021433353424 0.321977347135543823
0.141272276639938354 -0.289836525917053223 0.311173409223556519
0.306917518377304077 -0.207021400332450867 0.247948825359344482
-0.386259198188781738 0.255560755729675293 0.0333929955959320068
0.530651986598968506 -0.2616690993309021 0.102741345763206482
0.223320364952087402 0.0234223194420337677 0.30503353476524353
0.529781341552734375 -0.146623283624649048 -0.308314263820648193
-0.644463419914245605 0.231839478015899658 -0.0476540625095367432
0.540862441062927246 -0.310341864824295044 -0.044823620468378067
0.507077336311340332 -0.267319291830062866 -0.312161803245544434
0.513848006725311279 -0.315683811902999878 -0.29548192024230957
0.457842439413070679 -0.290382444858551025 -0.297285199165344238
-0.543718516826629639 0.26877179741859436 -0.189796149730682373
-0.62178647518157959 0.289729893207550049 0.066436275839805603
0.362272560596466064 -0.383142471313476562 -0.206764981150627136
-0.0928697884082794189 0.268124699592590332 0.188851967453956604
-0.44963538646697998 0.132019683718681335 -0.209554657340049744
-0.575963735580444336 0.204367771744728088 -0.127626210451126099
-0.629937827587127686 0.192266181111335754 -0.0401112064719200134
-0.470707207918167114 0.139663040637969971 -0.231781065464019775
0.256779640913009644 -0.0162520371377468109 -0.0727273076772689819
0.229942500591278076 0.054625682532787323 -0.0459715761244297028
0.112661920487880707 0.110428526997566223 0.30104711651802063
-0.584720611572265625 0.21902698278427124 -0.221847280859947205
-0.598155438899993896 0.235789597034454346 -0.0112653635442256927
-0.367907464504241943 -0.0909227281808853149 0.121901914477348328
-0.330933839082717896 -0.124401748180389404 0.136479958891868591
-0.634340107440948486 0.200058490037918091 -0.038467753678560257
-0.426555246114730835 -0.0543551333248615265 0.0979772433638572693
-0.479209333658218384 0.0209570769220590591 -0.0374358929693698883
0.208119213581085205 0.00922937411814928055 0.300195842981338501
-0.63444286584854126 0.248713091015815735 -0.00627975910902023315
-0.128445252776145935 0.270738810300827026 0.131557941436767578
0.270490318536758423 -0.329701125621795654 0.179487794637680054
0.532376885414123535 -0.209386050701141357 -0.0990900918841362
-0.127310693264007568 -0.11184750497341156 -0.055226154625415802
0.453476965427398682 -0.33818325400352478 -0.298594057559967041
-0.213790953159332275 0.036993805319070816 -0.0604065731167793274
-0.553895771503448486 0.176472708582878113 0.0119593935087323189
-0.199398204684257507 0.140513524413108826 0.0202909242361783981
-0.0130914784967899323 -0.101981177926063538 -0.0434668324887752533
0.264124751091003418 -0.274165749549865723 0.201785370707511902
0.347737371921539307 -0.320081263780593872 -0.000896038021892309189
-0.156643390655517578 0.0704664811491966248 0.0266531556844711304
-0.249748393893241882 0.131560370326042175 -0.0352047048509120941
0.198386698961257935 0.00239631906151771545 0.0184252932667732239
0.0756610780954360962 0.0815629735589027405 0.0232286341488361359
-0.284036904573440552 0.28917384147644043 -0.0065436260774731636
0.476091206073760986 -0.289377093315124512 -0.30234980583190918
-0.557363927364349365 0.266564786434173584 -0.01773025281727314
-0.238288253545761108 0.0984691232442855835 -0.0333340317010879517
0.137042805552482605 -0.280083507299423218 0.14937552809715271
0.295672804117202759 -0.296398282051086426 0.0558670274913311005
-0.286389827728271484 0.258067280054092407 -3.20328399538993835e-06
-0.0218638237565755844 -0.0398379750549793243 0.0882919579744338989
0.203405231237411499 0.0435228347778320312 0.0650444477796554565
-0.144537031650543213 -0.0844818875193595886 0.0911029055714607239
0.371469616889953613 -0.0724759846925735474 0.0307196434587240219
0.520796000957489014 -0.198368757963180542 -0.0988537073135375977
0.486401140689849854 -0.297230511903762817 -0.305828303098678589
0.479712694883346558 -0.314274966716766357 0.121524564921855927
0.513241112232208252 -0.306389361619949341 -0.102942943572998047
0.495324194431304932 -0.308800369501113892 -0.30991673469543457
0.505465328693389893 -0.327486753463745117 -0.00433941464871168137
0.511260509490966797 -0.323777645826339722 0.117897607386112213
0.464840322732925415 -0.28833162784576416 -0.297490924596786499
0.437225043773651123 -0.262747406959533691 -0.194925069808959961
0.134977996349334717 0.117612250149250031 0.336394906044006348
0.396232634782791138 -0.243655279278755188 0.318232119083404541
-0.601951718330383301 0.355239540338516235 0.0652742087841033936
-0.5056571364402771 0.358196347951889038 0.177733570337295532
0.542168974876403809 -0.281683027744293213 0.0975381731986999512
0.255100786685943604 0.0379455052316188812 -0.072876662015914917
-0.234255582094192505 0.156870245933532715 -0.006112661212682724
0.505477845668792725 -0.331565588712692261 -0.0027498612180352211
0.443679690361022949 -0.249598264694213867 -0.22868424654006958
-0.639211297035217285 0.255195438861846924 0.0543755590915679932
0.532268941402435303 -0.261960476636886597 0.0928841158747673035
-0.394058406352996826 -0.0585827380418777466 0.0992812290787696838
0.523377656936645508 -0.288813769817352295 -0.0925516784191131592
0.0273169316351413727 -0.273365557193756104 -0.03590431809425354
0.384508043527603149 -0.305175244808197021 0.118116021156311035
-0.583107113838195801 0.367837786674499512 0.131165534257888794
0.239068299531936646 0.00383818009868264198 0.180087253451347351
-0.113681942224502563 0.166357621550559998 0.34689822793006897
0.481446206569671631 -0.367794632911682129 -0.0227762237191200256
0.41123691201210022 -0.320682615041732788 -0.211887463927268982
0.506649613380432129 -0.154652625322341919 0.123635739088058472
0.528494894504547119 -0.334017395973205566 0.0122172664850950241
-0.584622025489807129 0.337291240692138672 0.0337923318147659302
-0.591519534587860107 0.382872462272644043 0.130813941359519958
0.525615811347961426 -0.243992671370506287 -0.311126708984375
0.473363518714904785 -0.290310472249984741 -0.300213485956192017
-0.597819924354553223 0.354516595602035522 0.169264301657676697
-0.588123857975006104 0.372524678707122803 0.100706979632377625
-0.213016122579574585 -0.128732964396476746 -0.0583909861743450165
0.234242260456085205 -0.29237520694732666 0.314186513423919678
0.237618505954742432 0.0681716054677963257 0.319369584321975708
0.541376411914825439 -0.313087403774261475 -0.0585154443979263306
-0.445768237113952637 -0.0477905645966529846 0.125613272190093994
0.358239263296127319 -0.387467920780181885 -0.20981191098690033
-0.557551324367523193 0.212085336446762085 -0.114309266209602356
0.520290911197662354 -0.27877199649810791 -0.17731320858001709
0.241136506199836731 0.0356369912624359131 0.313959270715713501
0.24166165292263031 0.00145529862493276596 0.0228717867285013199
0.379549413919448853 0.0397390797734260559 0.0109212016686797142
0.526183664798736572 -0.230296164751052856 -0.310532063245773315
0.325731843709945679 0.0973814800381660461 -0.0366960056126117706
-0.375673055648803711 -0.0593570172786712646 -0.133698716759681702
0.512171506881713867 -0.166650176048278809 0.135491564869880676
-0.575292706489562988 0.323035955429077148 0.0490630753338336945
-0.559537112712860107 0.284185230731964111 0.363734781742095947
0.223434805870056152 0.0329137146472930908 -0.0587623156607151031
-0.57505875825881958 0.21535821259021759 -0.221584692597389221
-0.0451081246137619019 0.157339319586753845 0.0805099159479141235
0.113238871097564697 0.110924601554870605 0.0247143413871526718
0.341994673013687134 -0.246168509125709534 -0.0975201874971389771
-0.285740137100219727 0.301363646984100342 -0.00356350746005773544
0.152485907077789307 -0.00356236100196838379 -0.0042162211611866951
0.0683567076921463013 0.139594241976737976 0.0749544650316238403
-0.27025604248046875 0.281100571155548096 0.0013894254807382822
0.502379953861236572 -0.292060256004333496 -0.160041287541389465
0.136287182569503784 -0.0251178909093141556 0.0124506345018744469
-0.340188890695571899 -0.031030336394906044 0.0219631828367710114
0.372317075729370117 -0.0909571126103401184 0.0435684546828269958
0.199273824691772461 0.102094486355781555 -0.00244438089430332184
-0.298268169164657593 -0.0240992531180381775 0.0351963900029659271
0.131224110722541809 -0.0171032007783651352 -0.0267632398754358292
0.100545145571231842 0.0170733891427516937 0.090588793158531189
0.175240412354469299 0.120223477482795715 0.037373863160610199
-0.231276795268058777 -0.0629022270441055298 0.103979989886283875
0.48532414436340332 -0.296103566884994507 -0.304239481687545776
-0.603586137294769287 0.290597409009933472 0.184747189283370972
0.466369539499282837 -0.308209329843521118 0.119431227445602417
0.377151310443878174 -0.0134071949869394302 0.00554518541321158409
0.514020383358001709 -0.29452967643737793 -0.104129940271377563
0.518040776252746582 -0.23938363790512085 -0.308337479829788208
0.476754516363143921 -0.309397041797637939 -0.301001965999603271
0.482557773590087891 -0.274084210395812988 -0.300745993852615356
0.116778358817100525 0.119492128491401672 0.296928882598876953
-0.584863841533660889 0.35727354884147644 0.0653679072856903076
0.382946759462356567 -0.336572319269180298 0.12481679767370224
-0.574963033199310303 0.318432033061981201 -0.0270109102129936218
-0.60489964485168457 0.21797354519367218 -0.0872463881969451904
0.26656988263130188 0.0402015596628189087 -0.0871374160051345825
-0.358031153678894043 -0.0212161354720592499 -0.131864070892333984
-0.565209865570068359 0.315252363681793213 -0.00839893519878387451
0.190145239233970642 -0.340169817209243774 -0.0753981322050094604
0.402922838926315308 -0.356576234102249146 -0.224905997514724731
-0.50089496374130249 0.146484076976776123 0.35427325963973999
0.509041965007781982 -0.150649935007095337 0.1146421879529953
0.495904743671417236 -0.26356661319732666 -0.305171698331832886
0.456998080015182495 -0.280287563800811768 -0.290516972541809082
0.440181761980056763 -0.264568030834197998 -0.284424692392349243
-0.588603377342224121 0.358430653810501099 0.061274208128452301
0.504361867904663086 -0.125854641199111938 0.123974375426769257
-0.206833839416503906 0.313286155462265015 0.108162134885787964
0.267642438411712646 -0.28328368067741394 0.318604916334152222
0.231827437877655029 0.00444288365542888641 0.317338138818740845
0.512645244598388672 -0.175009742379188538 -0.282118558883666992
-0.11618371307849884 0.0105969291180372238 0.00533004989847540855
0.402845710515975952 -0.35861361026763916 -0.225533232092857361
0.416884630918502808 -0.312663614749908447 0.142999708652496338
-0.556059956550598145 0.377447664737701416 0.186145052313804626
-0.176294982433319092 0.310122638940811157 0.117920279502868652
-0.39103090763092041 0.276917010545730591 -0.0860348418354988098
0.364358901977539062 0.0527889132499694824 0.0237544644623994827
0.12916138768196106 0.116508953273296356 0.318081557750701904
-0.28783002495765686 -0.099573478102684021 -0.0926643237471580505
0.257100969552993774 0.101939365267753601 -0.0629311650991439819
-0.362510204315185547 -0.0588209554553031921 -0.144856303930282593
0.133863404393196106 0.114419996738433838 0.337102115154266357
-0.564200639724731445 0.200075551867485046 -0.229668021202087402
-0.27683335542678833 0.288876920938491821 -0.00150674115866422653
0.453934669494628906 -0.245946347713470459 -0.288897126913070679
0.459430396556854248 -0.274821013212203979 -0.291489899158477783
-0.635208427906036377 0.308980405330657959 0.170062333345413208
0.511999368667602539 -0.31675875186920166 -0.0391269512474536896
0.467993319034576416 -0.265388160943984985 -0.298718571662902832
0.476954907178878784 -0.294587492942810059 -0.300879359245300293
0.457107245922088623 -0.245841249823570251 -0.290360748767852783
0.379911810159683228 -0.360314309597015381 -0.214915081858634949
-0.480208843946456909 -0.0115311816334724426 0.185186177492141724
-0.517103910446166992 0.366701662540435791 0.173353925347328186
-0.618647456169128418 0.20257490873336792 -0.0876169353723526001
-0.238377839326858521 0.0197136029601097107 -0.0732080191373825073
-0.38359534740447998 -0.0581405460834503174 0.0226050317287445068
0.474308162927627563 -0.367798089981079102 0.0212534442543983459
-0.649048089981079102 0.237330883741378784 0.0320358239114284515
0.411673694849014282 -0.345846801996231079 -0.22277754545211792
0.525508224964141846 -0.336532503366470337 0.0795155912637710571
0.505116045475006104 -0.23875252902507782 -0.308821320533752441
0.24928496778011322 -0.281503975391387939 0.317658007144927979
0.238894358277320862 0.0675015226006507874 0.31376984715461731
0.539070844650268555 -0.30121949315071106 -0.0939456447958946228
-0.448704540729522705 -0.0407208651304244995 0.125249683856964111
-0.0445796586573123932 0.105372056365013123 0.317255139350891113
0.247032672166824341 0.0218251608312129974 0.321764737367630005
-0.286038130521774292 -0.0986897125840187073 -0.0996189340949058533
-0.138759002089500427 -0.014350617304444313 -0.0496785491704940796
-0.278296172618865967 0.338637292385101318 0.0466237477958202362
-0.255411773920059204 0.290734589099884033 -0.00384853407740592957
-0.219603970646858215 0.322870373725891113 0.0692816227674484253
-0.574013769626617432 0.15308418869972229 -0.0751752704381942749
-0.290972322225570679 0.293699979782104492 0.0153663111850619316
0.525245785713195801 -0.319836080074310303 0.0268428567796945572
0.345025479793548584 -0.0295433811843395233 -0.0352322682738304138
0.521899163722991943 -0.36220550537109375 0.0890346169471740723
-0.0842892080545425415 -0.11109481006860733 0.0779049545526504517
-0.404860466718673706 0.327036589384078979 0.120053559541702271
0.50410228967666626 -0.367002815008163452 -0.00515721738338470459
-0.119281813502311707 0.267159879207611084 0.120488613843917847
0.518351316452026367 -0.342291384935379028 0.0353510454297065735
0.129949659109115601 -0.334000378847122192 0.30080336332321167
0.466019570827484131 -0.310400128364562988 0.0719535201787948608
0.482266753911972046 -0.37352260947227478 0.0518166683614253998
0.420133501291275024 -0.0249926112592220306 0.0639782175421714783
0.493498533964157104 -0.363105505704879761 -0.0162573549896478653
-0.233720302581787109 0.288077056407928467 0.0835766196250915527
0.53092503547668457 -0.331137359142303467 -0.00780393090099096298
-0.272630244493484497 0.316431343555450439 0.113385953009128571
0.307071268558502197 0.00363569660112261772 0.0454367771744728088
0.466415524482727051 -0.262948900461196899 -0.296814411878585815
0.472943544387817383 -0.303716838359832764 0.113755226135253906
0.510815680027008057 -0.312837451696395874 -0.104874782264232635
0.508517920970916748 -0.245077475905418396 -0.30891340970993042
0.446990728378295898 -0.292031288146972656 -0.293592691421508789
0.465359508991241455 -0.28296324610710144 -0.298329174518585205
0.138176888227462769 0.113454274833202362 0.336036264896392822
-0.652003943920135498 0.286482930183410645 0.0980409383773803711
-0.638259828090667725 0.245545059442520142 -0.0382713675498962402
0.135955467820167542 0.0699473917484283447 0.337267816066741943
-0.577715754508972168 0.304553717374801636 -0.0560485012829303741
0.261316776275634766 0.03130369633436203 -0.0743447989225387573
0.541142582893371582 -0.215898558497428894 0.111269757151603699
-0.361620843410491943 -0.0348626300692558289 -0.135174617171287537
-0.575219869613647461 0.328229278326034546 -0.0299981497228145599
-0.36307111382484436 -0.0700370818376541138 -0.0347482413053512573
-0.131261855363845825 -0.266923069953918457 0.118241950869560242
0.494393974542617798 -0.365641593933105469 -0.00093702320009469986
0.372539430856704712 -0.35860779881477356 -0.211121827363967896
-0.379346191883087158 -0.106085106730461121 0.100392431020736694
-0.0673638582229614258 -0.263523489236831665 0.295856833457946777
0.519216597080230713 -0.242928549647331238 -0.310003727674484253
0.509019970893859863 -0.33014407753944397 0.0148590626195073128
-0.594132483005523682 0.370090186595916748 0.120193898677825928
-0.655112564563751221 0.176063954830169678 -0.103184953331947327
-0.223688185214996338 -0.143330678343772888 -0.0542836114764213562
-0.191713631153106689 0.317519545555114746 0.100282907485961914
0.256476700305938721 -0.282779514789581299 0.319185733795166016
0.238411590456962585 0.033225134015083313 0.318747550249099731
-0.121012002229690552 -0.0453315079212188721 0.00649978872388601303
-0.641422688961029053 0.309351861476898193 0.101714998483657837
0.363430529832839966 -0.372874051332473755 -0.207748562097549438
0.536931395530700684 -0.21692262589931488 0.161342412233352661
-0.553887546062469482 0.383743733167648315 0.15737539529800415
-0.123014867305755615 0.260273009538650513 0.114751279354095459
0.118521600961685181 0.103443168103694916 0.0887802466750144958
-0.3765125572681427 0.266716420650482178 -0.0903315544128417969
0.516623318195343018 -0.348542511463165283 0.0981107503175735474
-0.29442751407623291 -0.106238916516304016 -0.109685033559799194
0.273838281631469727 0.103819027543067932 -0.0586431995034217834
-0.575951933860778809 0.22031104564666748 -0.213181436061859131
-0.115913629531860352 0.269530326128005981 0.179357856512069702
0.235993683338165283 -0.287368834018707275 0.313452482223510742
0.309079527854919434 -0.186668619513511658 0.240682750940322876
0.541309595108032227 -0.325227141380310059 -0.0213101431727409363
0.0783545598387718201 -0.337197482585906982 0.281707137823104858
-0.00702993664890527725 -0.171070650219917297 0.00374608184210956097
-0.28287157416343689 0.262710750102996826 0.00626361370086669922
0.512516617774963379 -0.236821249127388 -0.309944987297058105
-0.647061765193939209 0.278988629579544067 0.0795551538467407227
-0.646203517913818359 0.183603942394256592 -0.0911053866147994995
0.513735830783843994 -0.321846425533294678 0.0238242000341415405
-0.407723486423492432 -0.0629735589027404785 0.112521275877952576
0.516322016716003418 -0.355066359043121338 -0.0213176924735307693
-0.567748427391052246 0.375453859567642212 0.151741623878479004
0.235238999128341675 0.0440058484673500061 0.312948733568191528
-0.664555549621582031 0.227620735764503479 0.0229182858020067215
-0.449163109064102173 -0.0378064289689064026 0.125730812549591064
0.502171695232391357 -0.301520198583602905 -0.17930912971496582
-0.58979034423828125 0.362089484930038452 0.0856069102883338928
-0.194643929600715637 0.315820991992950439 0.104319244623184204
0.246138736605644226 0.0247985795140266418 0.323395282030105591
0.530484676361083984 -0.323128104209899902 -0.0586689524352550507
-0.183456689119338989 0.307946443557739258 0.127827674150466919
0.246314451098442078 0.0078485831618309021 0.323434799909591675
0.0581802390515804291 0.140471279621124268 0.345097869634628296
-0.506545364856719971 0.150274708867073059 0.356225073337554932
0.269782066345214844 -0.310587793588638306 0.325890511274337769
-0.254777789115905762 0.024326348677277565 -0.0714299976825714111
0.240726470947265625 -0.2946663498878479 0.321989953517913818
0.248085111379623413 0.0448555313050746918 0.313594311475753784
0.467470407485961914 -0.10095476359128952 0.0338974669575691223
-0.125451520085334778 0.195970624685287476 0.114609181880950928
0.239453718066215515 -0.326018214225769043 0.317347228527069092
0.499524772167205811 -0.366233617067337036 0.0741093158721923828
0.523103594779968262 -0.323956966400146484 0.0257825236767530441
0.444249242544174194 -0.25246766209602356 0.331937849521636963
0.320195406675338745 -0.130529507994651794 -0.107320137321949005
0.0628405585885047913 -0.0100311171263456345 0.321186989545822144
0.510860562324523926 -0.360484898090362549 0.0466973818838596344
0.135075762867927551 -0.0998917073011398315 0.0398703999817371368
0.0486671477556228638 0.0123155433684587479 0.0290801245719194412
0.0199316777288913727 0.048984624445438385 0.0419182069599628448
0.0869536995887756348 -0.0654009059071540833 0.289469510316848755
-0.162868112325668335 -0.26502111554145813 0.147033765912055969
0.263907670974731445 -0.0193610358983278275 0.0604912377893924713
-0.029651004821062088 -0.0283796321600675583 0.294926941394805908
0.501495599746704102 -0.240063831210136414 -0.302483320236206055
0.475063711404800415 -0.314499467611312866 -0.302319318056106567
-0.631251811981201172 0.307093888521194458 0.166989296674728394
0.474715560674667358 -0.320255398750305176 0.120377033948898315
0.508768260478973389 -0.300048619508743286 -0.106037229299545288
0.52773970365524292 -0.274388790130615234 -0.317701756954193115
0.492790848016738892 -0.332207232713699341 -0.311401009559631348
0.502657532691955566 -0.319554805755615234 0.0973038971424102783
0.473174929618835449 -0.305395156145095825 -0.298925161361694336
-0.559634983539581299 0.268921375274658203 0.363969385623931885
0.125059261918067932 0.117630571126937866 0.313338637351989746
-0.634016335010528564 0.283182442188262939 0.054190758615732193
-0.587972342967987061 0.363781094551086426 0.101941660046577454
0.370089799165725708 -0.373314499855041504 -0.213546082377433777
0.437638342380523682 -0.347564935684204102 0.153733193874359131
0.0576347373425960541 0.122103855013847351 0.32047879695892334
-0.575122058391571045 0.369695842266082764 0.214985266327857971
0.263634741306304932 0.025471145287156105 -0.0593985319137573242
0.367744743824005127 -0.336372971534729004 0.159870386123657227
0.510114312171936035 -0.30084565281867981 -0.112479493021965027
0.133026063442230225 -0.320049077272415161 -0.0983544588088989258
0.516164541244506836 -0.348231583833694458 -0.0210142359137535095
0.388196021318435669 -0.345729678869247437 -0.214993983507156372
-0.577679157257080078 0.320139527320861816 0.0403567664325237274
0.535522937774658203 -0.277323275804519653 -0.320986330509185791
