ply
format ascii 1.0
element vertex 739
property float x
property float y
property float z
end_header
-0.278415501117706299 0.338644713163375854 0.0465746074914932251
-0.255085021257400513 0.290502309799194336 -0.00379236042499542236
-0.21939454972743988 0.322603195905685425 0.0691193491220474243
-0.573698997497558594 0.152875930070877075 -0.0750834569334983826
-0.290555089712142944 0.293425559997558594 0.015425986610352993
0.525203347206115723 -0.319883435964584351 0.0267130229622125626
0.344957679510116577 -0.0296645965427160263 -0.035341016948223114
0.521838545799255371 -0.362233430147171021 0.0889412164688110352
-0.0843293294310569763 -0.111277021467685699 0.0778114199638366699
-0.404393017292022705 0.326879203319549561 0.120368108153343201
0.504246354103088379 -0.366689205169677734 -0.0051767006516456604
-0.119179375469684601 0.266975760459899902 0.120464637875556946
0.518250048160552979 -0.342270851135253906 0.0352122597396373749
0.130180105566978455 -0.334069013595581055 0.300599664449691772
0.465985506772994995 -0.310359477996826172 0.0719269290566444397
0.482208073139190674 -0.373426556587219238 0.051785103976726532
0.420166641473770142 -0.0252344105392694473 0.0639664903283119202
0.493581503629684448 -0.363002747297286987 -0.0162759367376565933
-0.233429491519927979 0.287825256586074829 0.0835295915603637695
0.530897617340087891 -0.331038475036621094 -0.00788798462599515915
-0.272581040859222412 0.316245019435882568 0.113330371677875519
0.307096928358078003 0.00342579139396548271 0.045349758118391037
0.46633303165435791 -0.262817323207855225 -0.296935200691223145
0.472911030054092407 -0.303583234548568726 0.113782167434692383
0.510786294937133789 -0.31275060772895813 -0.104889996349811554
0.508880496025085449 -0.244759172201156616 -0.309046447277069092
0.447163969278335571 -0.291739851236343384 -0.293509989976882935
0.46539875864982605 -0.282665729522705078 -0.298202067613601685
0.138312727212905884 0.113609150052070618 0.336146235466003418
-0.651488125324249268 0.286271482706069946 0.0981725528836250305
-0.637795209884643555 0.245319679379463196 -0.0382554754614830017
0.135930180549621582 0.0700456202030181885 0.337158560752868652
-0.576774001121520996 0.304103732109069824 -0.0560419522225856781
0.261502087116241455 0.0311674550175666809 -0.0743498802185058594
0.541393041610717773 -0.21587681770324707 0.111112743616104126
-0.361751377582550049 -0.0349079407751560211 -0.135372638702392578
-0.574452102184295654 0.327739715576171875 -0.0298745296895503998
-0.363347083330154419 -0.0700545161962509155 -0.0349093489348888397
-0.131492763757705688 -0.266891181468963623 0.11807568371295929
0.494509488344192505 -0.365524470806121826 -0.00100635457783937454
0.372823715209960938 -0.358531028032302856 -0.211107552051544189
-0.379444360733032227 -0.106150120496749878 0.100426554679870605
-0.0673967152833938599 -0.263523310422897339 0.29585757851600647
0.519460439682006836 -0.24263627827167511 -0.310077518224716187
0.509119629859924316 -0.329956114292144775 0.0146320508792996407
-0.593275666236877441 0.369812905788421631 0.120531320571899414
-0.655081093311309814 0.176060512661933899 -0.103142678737640381
-0.223800405859947205 -0.143361389636993408 -0.0544672273099422455
-0.191531360149383545 0.317364960908889771 0.100259885191917419
0.256595700979232788 -0.282716721296310425 0.319153428077697754
0.238702774047851562 0.0332570523023605347 0.318338960409164429
-0.121156416833400726 -0.0453528054058551788 0.00660559069365262985
-0.640788137912750244 0.30903509259223938 0.101731821894645691
0.363618642091751099 -0.372896432876586914 -0.207886368036270142
0.536982238292694092 -0.216878741979598999 0.161307036876678467
-0.553303956985473633 0.383340805768966675 0.157478392124176025
-0.1229887455701828 0.260143578052520752 0.114569753408432007
0.119152575731277466 0.103097856044769287 0.0887253880500793457
-0.37630164623260498 0.26658707857131958 -0.0903895348310470581
0.516491174697875977 -0.3485146164894104 0.0981294289231300354
-0.29456937313079834 -0.106264069676399231 -0.109969824552536011
0.274406313896179199 0.103619679808616638 -0.0585537068545818329
-0.575507104396820068 0.220061555504798889 -0.213056355714797974
-0.116035208106040955 0.269437849521636963 0.179411455988883972
0.236184239387512207 -0.287241131067276001 0.313473910093307495
0.308860540390014648 -0.186615645885467529 0.240623503923416138
0.54151684045791626 -0.325129240751266479 -0.021479535847902298
0.0785668045282363892 -0.337194204330444336 0.281572312116622925
-0.00649779010564088821 -0.171340078115463257 0.00382145191542804241
-0.282603800296783447 0.262350350618362427 0.00622585415840148926
0.512687146663665771 -0.23656153678894043 -0.31006544828414917
-0.646750926971435547 0.278787404298782349 0.0795480906963348389
-0.646057069301605225 0.183530807495117188 -0.0910095423460006714
0.51369929313659668 -0.321763008832931519 0.0237075053155422211
-0.407901227474212646 -0.0628504827618598938 0.112597033381462097
0.516286611557006836 -0.355009227991104126 -0.0213104691356420517
-0.566969156265258789 0.375027120113372803 0.151998028159141541
0.235357850790023804 0.0439316630363464355 0.312845230102539062
-0.664524614810943604 0.227551251649856567 0.022937210276722908
-0.449043393135070801 -0.0377605557441711426 0.125933170318603516
0.502449512481689453 -0.301337897777557373 -0.179364219307899475
-0.589090824127197266 0.361791163682937622 0.0857013165950775146
-0.194530636072158813 0.315770626068115234 0.10429149866104126
0.246398076415061951 0.0248005427420139313 0.323195934295654297
0.530501306056976318 -0.323016524314880371 -0.058663979172706604
-0.183202743530273438 0.307797491550445557 0.127886638045310974
0.246691375970840454 0.00787873566150665283 0.323315232992172241
0.0582057647407054901 0.140417382121086121 0.345083713531494141
-0.506707668304443359 0.150155574083328247 0.356061577796936035
0.270114690065383911 -0.310509800910949707 0.325724899768829346
-0.254947543144226074 0.024262797087430954 -0.071604609489440918
0.24086683988571167 -0.294472455978393555 0.321879327297210693
0.248193219304084778 0.0447762124240398407 0.313643872737884521
0.467146694660186768 -0.10113602876663208 0.0338364988565444946
-0.125471591949462891 0.195928528904914856 0.114654764533042908
0.239751636981964111 -0.325894862413406372 0.317222028970718384
0.499577075242996216 -0.366170912981033325 0.0740965753793716431
0.523070812225341797 -0.32395094633102417 0.0256656985729932785
0.443876922130584717 -0.25237545371055603 0.331966578960418701
0.320136666297912598 -0.130550175905227661 -0.107356376945972443
0.0629016011953353882 -0.00999510288238525391 0.321155130863189697
0.510825037956237793 -0.360351890325546265 0.0466453284025192261
0.134967818856239319 -0.100020289421081543 0.0398247204720973969
0.0487823747098445892 0.0121995266526937485 0.0289712231606245041
0.0198747478425502777 0.048909209668636322 0.0417704768478870392
0.0870495438575744629 -0.0654471814632415771 0.289257079362869263
-0.162811949849128723 -0.26509547233581543 0.146982699632644653
0.264206200838088989 -0.019456036388874054 0.060706455260515213
-0.0296258144080638885 -0.028361927717924118 0.294881165027618408
0.501611769199371338 -0.239803045988082886 -0.302627265453338623
0.475225329399108887 -0.314187079668045044 -0.302648931741714478
-0.630718529224395752 0.306880563497543335 0.167118832468986511
0.474630594253540039 -0.320189118385314941 0.12046535313129425
0.508769989013671875 -0.299968987703323364 -0.106080979108810425
0.527961790561676025 -0.27410590648651123 -0.317700684070587158
0.493000209331512451 -0.331792891025543213 -0.311474263668060303
0.502720236778259277 -0.319386541843414307 0.0973815470933914185
0.473345398902893066 -0.305074065923690796 -0.298961848020553589
-0.559627652168273926 0.268795043230056763 0.363988131284713745
0.125095963478088379 0.117659881711006165 0.313240230083465576
-0.633531153202056885 0.283027946949005127 0.0542788989841938019
-0.587364017963409424 0.363440603017807007 0.102065637707710266
0.37047576904296875 -0.37319338321685791 -0.213593795895576477
0.437676042318344116 -0.34757503867149353 0.153571784496307373
0.057841181755065918 0.122002802789211273 0.32055509090423584
-0.574546158313751221 0.369390577077865601 0.215188875794410706
0.26383635401725769 0.0253949835896492004 -0.0594794824719429016
0.36772194504737854 -0.336348235607147217 0.159786373376846313
0.51014477014541626 -0.300708740949630737 -0.112524397671222687
0.133248880505561829 -0.319821387529373169 -0.0984283089637756348
0.516082465648651123 -0.34814491868019104 -0.0210054703056812286
0.388484716415405273 -0.345724105834960938 -0.215024232864379883
-0.576875567436218262 0.319842755794525146 0.0405788905918598175
0.535906672477722168 -0.277092337608337402 -0.321083873510360718
0.466922104358673096 -0.310256093740463257 -0.300046652555465698
0.506618380546569824 -0.346551597118377686 0.0173123013228178024
-0.55609285831451416 0.310551166534423828 0.101797983050346375
0.193232640624046326 -0.33874666690826416 -0.0599441267549991608
0.0698102712631225586 -0.281533271074295044 -0.0784338563680648804
0.252078533172607422 -0.249575585126876831 0.319625586271286011
0.239435210824012756 0.0318766087293624878 0.316043704748153687
-0.122119933366775513 -0.0470959395170211792 0.00739901140332221985
0.177888393402099609 -0.0995355695486068726 -0.0155076049268245697
0.532169878482818604 -0.331694632768630981 -0.0137036163359880447
0.369461357593536377 -0.348640233278274536 -0.209915995597839355
0.534314334392547607 -0.245063349604606628 0.176523372530937195
0.561198413372039795 -0.314944177865982056 -0.331486970186233521
0.554205596446990967 -0.210980027914047241 0.1334267258644104
-0.543786764144897461 0.38165283203125 0.164156392216682434
0.122862100601196289 0.117616631090641022 0.132388651371002197
-0.582153022289276123 0.352631896734237671 0.097422182559967041
-0.482743889093399048 0.186721071600914001 -0.0923541411757469177
0.515239536762237549 -0.338439434766769409 0.0383163392543792725
0.25346037745475769 -0.278494894504547119 0.321400612592697144
0.27752220630645752 -0.355125069618225098 -0.126755818724632263
0.507538974285125732 -0.285804331302642822 -0.314232766628265381
-0.432998239994049072 -0.0565370842814445496 0.115713551640510559
0.20109228789806366 0.0911634042859077454 0.222593903541564941
0.243850082159042358 0.105243012309074402 -0.0581851713359355927
-0.1964111328125 0.202194556593894958 0.348360002040863037
0.249964281916618347 0.0256848204880952835 0.322698205709457397
0.239464834332466125 0.019839797168970108 0.320436716079711914
-0.0315742641687393188 0.163535848259925842 0.382342278957366943
-0.483350872993469238 -0.0151365287601947784 0.179044708609580994
0.483310669660568237 -0.368606925010681152 0.0454564131796360016
-0.643165707588195801 0.287598550319671631 0.086104467511177063
0.275883078575134277 -0.165559008717536926 -0.0713601410388946533
-0.413214683532714844 -0.056288108229637146 0.0777400359511375427
-0.642726361751556396 0.175962135195732117 -0.0820267051458358765
-0.226725012063980103 -0.133294597268104553 -0.0530041083693504333
0.254650264978408813 -0.264940708875656128 0.320613265037536621
-0.346582502126693726 0.0180276334285736084 -0.117791801691055298
-0.288198947906494141 -0.0908529981970787048 -0.107223168015480042
-0.585277676582336426 0.210212484002113342 -0.218377619981765747
0.267345190048217773 -0.296331673860549927 0.314638137817382812
-0.0262865014374256134 -0.186713725328445435 -0.044205494225025177
-0.617829680442810059 0.277520239353179932 0.0313587971031665802
-0.608506441116333008 0.298781007528305054 0.0922501608729362488
-0.398519039154052734 -0.0620661750435829163 0.117861486971378326
-0.452604770660400391 -0.0375765487551689148 0.118376463651657104
0.43068346381187439 -0.271082907915115356 0.328756988048553467
-0.0530864782631397247 0.141373381018638611 0.0910112634301185608
-0.50408858060836792 0.151845782995223999 0.354712516069412231
0.240639418363571167 -0.318688511848449707 0.322263002395629883
0.496736198663711548 -0.370424896478652954 0.0567905008792877197
0.398680120706558228 -0.256136924028396606 0.322086751461029053
-0.158965989947319031 -0.263085722923278809 0.180613383650779724
-0.500169098377227783 0.0145778022706508636 0.156872034072875977
0.417134076356887817 -0.296630203723907471 0.328180372714996338
0.535059928894042969 -0.339643508195877075 -0.0188578609377145767
0.343105047941207886 -0.266711890697479248 -0.128904476761817932
-0.497299641370773315 0.0725972652435302734 0.203037917613983154
0.443001389503479004 -0.271515846252441406 0.333199411630630493
0.521882116794586182 -0.33490443229675293 0.0322113484144210815
0.452797144651412964 -0.319233894348144531 -0.293664664030075073
0.473489463329315186 -0.311222046613693237 0.116284117102622986
0.517018318176269531 -0.277769386768341064 -0.313389420509338379
0.502212405204772949 -0.325437188148498535 -0.315101295709609985
0.517735183238983154 -0.326494008302688599 0.101445391774177551
0.478699147701263428 -0.310947626829147339 -0.302989184856414795
0.114011175930500031 0.119124248623847961 0.288442552089691162
-0.122216783463954926 0.269248008728027344 0.158277913928031921
-0.614517390727996826 0.265832573175430298 0.0517261996865272522
-0.480400353670120239 0.00358625361695885658 0.180119588971138
0.425889372825622559 -0.35462421178817749 0.158119112253189087
-0.293276220560073853 -0.10985073447227478 -0.106401488184928894
0.13042856752872467 0.0663182660937309265 0.320497006177902222
0.252546936273574829 0.0394276902079582214 -0.0786657929420471191
0.234873279929161072 0.0945539474487304688 -0.0540146678686141968
0.416891634464263916 -0.26095503568649292 -0.203028962016105652
0.521132826805114746 -0.354073762893676758 -0.0199719779193401337
-0.608954906463623047 0.381664633750915527 0.18118681013584137
0.517441987991333008 -0.278662115335464478 -0.315312087535858154
0.498578727245330811 -0.349771082401275635 0.0236998070031404495
-0.587598621845245361 0.369898289442062378 0.112853750586509705
0.505140006542205811 -0.104073390364646912 0.146781399846076965
-0.198343217372894287 0.312118589878082275 0.112495571374893188
0.264025211334228516 -0.285947591066360474 0.319188952445983887
0.23679564893245697 0.0629584789276123047 0.309444546699523926
-0.145481795072555542 -0.043006308376789093 0.00342073198407888412
-0.657239735126495361 0.214939430356025696 -0.0463115870952606201
-0.290043175220489502 -0.0754925087094306946 -0.0693715810775756836
0.226520717144012451 0.0427226722240447998 -0.0489578619599342346
0.551041960716247559 -0.143795490264892578 0.131619870662689209
0.519395887851715088 -0.294800072908401489 0.0743518918752670288
0.51730501651763916 -0.283427447080612183 -0.181569233536720276
-0.359481900930404663 -0.0164161361753940582 -0.0289194919168949127
0.0904213190078735352 0.0887980684638023376 0.0849467068910598755
0.466049820184707642 -0.361471652984619141 -0.011374189518392086
-0.433813482522964478 0.158259734511375427 -0.0672413185238838196
0.523481130599975586 -0.335239052772521973 0.0682579725980758667
0.262874633073806763 -0.285316675901412964 0.31789863109588623
0.00898399576544761658 -0.0907168686389923096 -0.0264788847416639328
0.0319993570446968079 -0.130065098404884338 0.0212556570768356323
-0.630491673946380615 0.265284925699234009 0.0288572907447814941
0.241719692945480347 0.0752609223127365112 0.317873448133468628
0.239710718393325806 0.0304220356047153473 0.318176507949829102
-0.175158709287643433 0.301453292369842529 0.115803077816963196
0.303647130727767944 -0.150861233472824097 0.307413041591644287
0.261910855770111084 -0.290113747119903564 0.3203715980052948
-0.477301806211471558 -0.00760487094521522522 0.165224790573120117
0.242410421371459961 0.0824876353144645691 0.311373114585876465
0.51991504430770874 -0.350925981998443604 0.0812747403979301453
-0.0355693325400352478 -0.237129628658294678 0.12336963415145874
-0.637719511985778809 0.290452808141708374 0.0988321676850318909
-0.23529873788356781 -0.132177978754043579 -0.0587455406785011292
-0.380198657512664795 -0.108138687908649445 0.104677200317382812
-0.237165004014968872 -0.147269353270530701 -0.0585250891745090485
-0.657508730888366699 0.214728370308876038 -0.033848445862531662
0.528464019298553467 -0.352330714464187622 0.0772217661142349243
-0.620848536491394043 0.270681619644165039 0.0522376075387001038
-0.404923021793365479 -0.0638104900717735291 0.111254654824733734
-0.447156548500061035 -0.0409567169845104218 0.120901018381118774
0.267722070217132568 -0.284966200590133667 0.322995305061340332
0.127656057476997375 -0.32617264986038208 0.311963289976119995
0.152215182781219482 -0.342677682638168335 0.317186444997787476
0.446805059909820557 -0.335153728723526001 -0.293833017349243164
0.515516042709350586 -0.302296102046966553 -0.108411654829978943
0.515040159225463867 -0.27961355447769165 -0.313417226076126099
0.484389930963516235 -0.327136188745498657 -0.310427159070968628
0.463539928197860718 -0.345419377088546753 -0.303215563297271729
0.549367427825927734 -0.209569841623306274 -0.316274017095565796
0.524042785167694092 -0.299380689859390259 -0.322942405939102173
0.517919421195983887 -0.300204843282699585 -0.318939030170440674
0.246339082717895508 0.057797800749540329 0.315715044736862183
0.240999817848205566 0.0883349105715751648 0.31176874041557312
-0.292871952056884766 -0.0998359620571136475 -0.102592319250106812
-0.454466879367828369 -0.0513986870646476746 0.115969724953174591
0.404297292232513428 -0.271522402763366699 0.322133362293243408
-0.503356039524078369 0.00418466050177812576 0.187885135412216187
0.400682270526885986 -0.286537349224090576 0.324508130550384521
0.398626953363418579 -0.272784650325775146 0.323024511337280273
0.341161668300628662 -0.25838005542755127 0.0891712158918380737
-0.0195622052997350693 -0.243941113352775574 0.127891242504119873
-0.46565932035446167 0.036622464656829834 0.188541635870933533
-0.195309430360794067 0.222194463014602661 0.17114536464214325
0.365936100482940674 -0.328685790300369263 -0.0242069493979215622
0.322590738534927368 -0.389351189136505127 -0.159683823585510254
0.535194516181945801 -0.323083698749542236 -0.0587445981800556183
-0.442818313837051392 -0.00408955290913581848 0.151638209819793701
-0.0197730623185634613 -0.0591350272297859192 0.140996232628822327
-0.000906465575098991394 -0.235807597637176514 0.105680957436561584
0.525483250617980957 -0.201203525066375732 -0.0804115086793899536
0.448982149362564087 -0.307792127132415771 -0.293578088283538818
0.526657164096832275 -0.274823307991027832 -0.316206842660903931
0.499374032020568848 -0.324281156063079834 -0.313485711812973022
0.47439149022102356 -0.304501771926879883 -0.298238754272460938
-0.127676725387573242 0.247188970446586609 0.138489052653312683
-0.648515164852142334 0.282623171806335449 0.0943901389837265015
-0.199775919318199158 0.287390083074569702 0.335198670625686646
0.497081220149993896 -0.0861518159508705139 0.136023998260498047
0.200178816914558411 -0.358582198619842529 -0.0915562063455581665
0.50495833158493042 -0.367147624492645264 -0.023156018927693367
0.526654243469238281 -0.242031902074813843 0.172318756580352783
-0.586125016212463379 0.379873454570770264 0.170182466506958008
0.444299131631851196 -0.314393550157546997 -0.288602203130722046
0.497755110263824463 -0.11047828197479248 0.111798003315925598
-0.655346572399139404 0.175648555159568787 -0.103860728442668915
-0.202663123607635498 0.309553265571594238 0.0887251496315002441
0.20056423544883728 -0.0130440462380647659 0.294667989015579224
0.159340530633926392 -0.061534438282251358 -0.0447813421487808228
-0.57973635196685791 0.30282244086265564 0.368382722139358521
0.274508237838745117 0.0989131182432174683 -0.0300425291061401367
-0.436427593231201172 0.156051844358444214 -0.0868281424045562744
0.534298956394195557 -0.332484334707260132 0.0122437244281172752
-0.56893765926361084 0.197653338313102722 -0.229415774345397949
-0.49892851710319519 0.0455855205655097961 -0.0877615064382553101
0.0310734882950782776 -0.103763028979301453 0.0321632251143455505
0.533686041831970215 -0.263789534568786621 -0.316689372062683105
0.00918585248291492462 0.198274776339530945 0.0268682166934013367
0.300917685031890869 0.0396200940012931824 -0.0854243338108062744
-0.333580136299133301 -0.0152622554451227188 -0.108581215143203735
0.236283987760543823 0.0151807880029082298 0.321134328842163086
0.124760732054710388 0.0136207742616534233 0.29818388819694519
0.527180612087249756 -0.354730874300003052 0.0658101662993431091
0.466413587331771851 -0.309436887502670288 -0.233894258737564087
-0.651631355285644531 0.28588065505027771 0.104578658938407898
0.546004533767700195 -0.219271183013916016 0.163134768605232239
0.527711629867553711 -0.322789818048477173 -0.0165843982249498367
-0.384166896343231201 -0.0556779950857162476 0.0751096159219741821
0.4562339186668396 -0.310362011194229126 -0.293065458536148071
0.504710972309112549 -0.339426696300506592 -0.318585604429244995
0.478203684091567993 -0.313845068216323853 -0.30028650164604187
0.520334899425506592 -0.300605565309524536 -0.317896783351898193
-0.00298393517732620239 -0.139377981424331665 -0.0253919847309589386
0.397013366222381592 -0.272374898195266724 0.323187440633773804
0.400654107332229614 -0.270780861377716064 0.323464393615722656
0.505532443523406982 -0.331500977277755737 0.105261169373989105
-0.468643873929977417 0.0429966077208518982 0.169286608695983887
0.409361183643341064 -0.345595359802246094 0.155764162540435791
-0.362506896257400513 -0.0344629958271980286 -0.14901752769947052
-0.128877505660057068 -0.267195284366607666 0.111627474427223206
0.512377262115478516 -0.368602603673934937 -0.0153610929846763611
-0.214017301797866821 0.313213348388671875 0.0971360430121421814
0.250494927167892456 -0.286442428827285767 0.322434484958648682
0.208086371421813965 0.0101831899955868721 -0.047033160924911499
0.0696496814489364624 -0.15110151469707489 -0.0176917891949415207
-0.169993460178375244 0.305447161197662354 0.118549317121505737
0.470633774995803833 -0.363938808441162109 0.00643812399357557297
-0.291981667280197144 -0.0986557900905609131 -0.103833884000778198
0.0363737680017948151 -0.149482116103172302 -0.0223490539938211441
0.231642305850982666 0.0571346692740917206 0.308511048555374146
0.253402888774871826 -0.288007050752639771 0.320114165544509888
-0.472678124904632568 0.00179683743044734001 0.167541131377220154
0.240803226828575134 0.0635323897004127502 0.312325119972229004
0.508667171001434326 -0.351533263921737671 0.0633842945098876953
0.227281749248504639 -0.314178586006164551 0.31406208872795105
-0.37629997730255127 -0.0925805792212486267 0.0852195918560028076
-0.0629906207323074341 -0.241302028298377991 0.301963269710540771
-0.223366349935531616 -0.127016142010688782 -0.0537730380892753601
-0.410794764757156372 -0.0650261864066123962 0.0973943918943405151
-0.446014881134033203 -0.0441429466009140015 0.13149145245552063
0.238991409540176392 -0.293417006731033325 0.313797146081924438
0.15388210117816925 -0.323876708745956421 0.319579511880874634
0.424753308296203613 -0.255383133888244629 0.328235507011413574
0.437269151210784912 -0.342173516750335693 -0.293263852596282959
0.506190121173858643 -0.333975821733474731 -0.318749934434890747
0.444359332323074341 -0.351689010858535767 -0.287421226501464844
0.23822571337223053 0.0666025504469871521 0.311502516269683838
0.403025984764099121 -0.286765754222869873 0.325597941875457764
-0.495843559503555298 0.00726195191964507103 0.187118634581565857
0.484900563955307007 -0.0625186637043952942 0.131052061915397644
0.012455228716135025 -0.170519515872001648 0.00940486229956150055
0.531344771385192871 -0.30689200758934021 -0.0627357810735702515
0.313967704772949219 -0.301595807075500488 -0.12752927839756012
0.445289194583892822 -0.290638387203216553 -0.286188304424285889
-0.337459653615951538 0.22553175687789917 0.124807819724082947
-0.401465862989425659 -0.0275393910706043243 -0.00270854588598012924
0.402695745229721069 -0.270968019962310791 0.323842942714691162
-0.133787631988525391 0.196443289518356323 0.166824102401733398
0.39869806170463562 -0.270880013704299927 0.323671936988830566
-0.44712221622467041 -0.024327985942363739 0.0205831509083509445
-0.138028830289840698 0.245523542165756226 0.191327303647994995
-0.612496256828308105 0.294839799404144287 0.183611556887626648
0.124841690063476562 0.11695687472820282 0.315916717052459717
-0.121053010225296021 0.251292049884796143 0.161396309733390808
-0.582862913608551025 0.348569661378860474 0.0579573661088943481
0.426223248243331909 -0.347718089818954468 0.152251482009887695
-0.566645383834838867 0.295596927404403687 -0.0692918896675109863
0.251025170087814331 0.0274724960327148438 -0.0803886651992797852
0.247290670871734619 0.101158827543258667 -0.0492251664400100708
-0.359183907508850098 -0.054774262011051178 -0.142806351184844971
0.19828072190284729 0.120791174471378326 0.0350830517709255219
0.545107424259185791 -0.130858942866325378 0.11164846271276474
-0.58108985424041748 0.322018146514892578 -0.0230847988277673721
0.205328479409217834 0.0254865158349275589 0.17606276273727417
-0.595140933990478516 0.375662267208099365 0.171892344951629639
0.444295585155487061 -0.318737059831619263 0.126691430807113647
0.25540626049041748 -0.278024017810821533 0.315930366516113281
0.235420554876327515 0.0246568396687507629 0.315847039222717285
-0.364166259765625 -0.0489151850342750549 -0.0246996916830539703
-0.183113396167755127 0.11879623681306839 0.0414742156863212585
0.254982739686965942 -0.28739088773727417 0.318783074617385864
0.241719186305999756 0.0340312793850898743 0.321258544921875
0.39902988076210022 0.0240929592400789261 0.114375397562980652
-0.341941714286804199 -0.0651287734508514404 -0.148152217268943787
0.0757137537002563477 -0.332436859607696533 0.298419743776321411
-0.387313932180404663 -0.0599217414855957031 0.0926224440336227417
-0.448760032653808594 -0.0406478121876716614 0.126698702573776245
0.438953638076782227 -0.278398722410202026 0.333309382200241089
0.0341164171695709229 -0.122347436845302582 -0.0261392220854759216
0.414164960384368896 -0.279847413301467896 0.326595336198806763
0.432758063077926636 -0.295225322246551514 0.33274996280670166
0.366933882236480713 -0.277713298797607422 -0.131192892789840698
-0.478231102228164673 0.00221648812294006348 0.187100529670715332
-0.292312204837799072 -0.0954027175903320312 -0.105090968310832977
0.241404309868812561 -0.312213301658630371 0.309208959341049194
0.4728984534740448 -0.353800982236862183 0.00640768185257911682
-0.297122955322265625 -0.0955554693937301636 -0.107504576444625854
0.244805410504341125 -0.287766605615615845 0.319589525461196899
0.0622842311859130859 -0.329107671976089478 0.296455264091491699
0.15773811936378479 -0.267101436853408813 -0.106168031692504883
0.250067234039306641 0.0643851906061172485 0.314794152975082397
-0.483370304107666016 -0.00723147019743919373 0.176971077919006348
0.23649461567401886 0.0675796940922737122 0.313794255256652832
0.238698378205299377 -0.331047356128692627 0.320953726768493652
-0.382430136203765869 -0.0912936478853225708 0.0359817221760749817
-0.216667070984840393 -0.139261484146118164 -0.054925575852394104
-0.383373290300369263 -0.0627600699663162231 0.0823092237114906311
0.149949684739112854 -0.330973148345947266 0.331457734107971191
0.445481956005096436 -0.278928130865097046 0.333216369152069092
0.407255619764328003 -0.279608011245727539 0.32471957802772522
-0.502834439277648926 0.00726288184523582458 0.1875620037317276
-0.322372198104858398 0.0980350971221923828 -0.0710204243659973145
0.532126188278198242 -0.20661531388759613 -0.0530091635882854462
0.450401425361633301 -0.293136745691299438 -0.291240155696868896
0.487199455499649048 -0.324452131986618042 -0.311514437198638916
0.445837736129760742 -0.30894935131072998 -0.2916584312915802
-0.57751166820526123 0.269793093204498291 0.365543067455291748
-0.461925685405731201 0.106594055891036987 -0.231503993272781372
0.373986721038818359 -0.317900180816650391 0.198281019926071167
-0.589336097240447998 0.367516040802001953 0.131020903587341309
0.392032384872436523 -0.352269083261489868 -0.218313455581665039
0.440531462430953979 -0.309476912021636963 -0.289794385433197021
-0.200733929872512817 0.306287020444869995 0.0947286635637283325
-0.155774205923080444 0.268682330846786499 0.151077106595039368
0.529655814170837402 -0.337906777858734131 0.0713121294975280762
0.463136136531829834 -0.265573978424072266 -0.218351274728775024
-0.633111298084259033 0.27640378475189209 0.106956601142883301
0.437774986028671265 -0.307716548442840576 -0.287889808416366577
0.51553797721862793 -0.276400148868560791 -0.317380607128143311
0.516677916049957275 -0.339583307504653931 -0.321455806493759155
0.454014897346496582 -0.306345283985137939 -0.293941497802734375
0.490523427724838257 -0.321218252182006836 0.0937846451997756958
0.0205180719494819641 -0.275064438581466675 -0.0189257487654685974
-0.653372883796691895 0.172182872891426086 -0.108063772320747375
-0.224708482623100281 0.319181352853775024 0.120770707726478577
0.4648398756980896 -0.363630533218383789 0.00508203823119401932
0.480664193630218506 -0.33604729175567627 0.0497604943811893463
0.511619806289672852 -0.338718712329864502 -0.320302128791809082
0.439461767673492432 -0.355746269226074219 -0.298498868942260742
-0.270181834697723389 0.322831034660339355 0.0415357686579227448
0.423617452383041382 -0.312639623880386353 -0.282514780759811401
0.415377974510192871 -0.294381380081176758 0.327968627214431763
-0.326858848333358765 -0.0746853053569793701 0.122524261474609375
-0.368403077125549316 -0.0658049508929252625 0.153465926647186279
-0.338841527700424194 0.215667203068733215 0.131918981671333313
0.0100400354713201523 0.119905911386013031 0.104615151882171631
0.542100012302398682 -0.308447420597076416 -0.0467770881950855255
0.0136706940829753876 -0.261374294757843018 0.038985278457403183
-0.00382232479751110077 -0.236070111393928528 0.0935010537505149841
0.000133480876684188843 -0.219165250658988953 0.0809304714202880859
0.46441999077796936 -0.36034238338470459 0.0295758731663227081
-0.270365923643112183 -0.137279465794563293 0.176734179258346558
-0.345789730548858643 -0.0651740953326225281 0.140257745981216431
0.123090341687202454 -0.276112675666809082 0.128269940614700317
-0.13460114598274231 0.079587101936340332 0.0896236896514892578
0.462690293788909912 -0.0536411330103874207 0.0169902276247739792
-0.0145917553454637527 -0.216302022337913513 0.0796479880809783936
-0.554812729358673096 0.392420560121536255 0.147272109985351562
0.496368467807769775 -0.36619916558265686 0.00476279947906732559
-0.61041790246963501 0.294811248779296875 0.186394497752189636
0.529979944229125977 -0.274422198534011841 -0.318200439214706421
0.369623422622680664 -0.264000177383422852 0.180659636855125427
0.419724225997924805 -0.344013810157775879 0.150029972195625305
0.250954359769821167 0.0401463396847248077 -0.067608371376991272
0.549098312854766846 -0.149037361145019531 0.123650312423706055
-0.570547819137573242 0.284519791603088379 -0.00690420158207416534
0.500469803810119629 -0.362496525049209595 -0.00170623371377587318
0.20816195011138916 0.116153940558433533 -0.0113414078950881958
-0.290249496698379517 -0.0848453640937805176 -0.0672256499528884888
0.158771336078643799 -0.0825773924589157104 -0.0368245728313922882
-0.340513259172439575 -0.104736395180225372 0.140458956360816956
0.510950326919555664 -0.280622690916061401 -0.313877850770950317
-0.339641541242599487 -0.0789637863636016846 0.0379660576581954956
-0.369754314422607422 0.281473517417907715 -0.063137248158454895
0.509563088417053223 -0.340384960174560547 0.0645317286252975464
0.301209360361099243 -0.205368608236312866 0.247461661696434021
0.54276806116104126 -0.311251223087310791 -0.0612239949405193329
0.141442656517028809 0.0701472386717796326 0.335793763399124146
-0.593885958194732666 0.267841458320617676 0.0118108447641134262
0.221477925777435303 -0.00639604963362216949 0.295136034488677979
0.2304953932762146 0.0350990518927574158 0.312103152275085449
0.533407211303710938 -0.318906396627426147 -0.0133401136845350266
-0.390098541975021362 -0.063094697892665863 0.104816824197769165
-0.448060661554336548 -0.0394500941038131714 0.125588491559028625
0.494880110025405884 -0.0906100422143936157 0.153753772377967834
0.250726014375686646 0.064055025577545166 0.315903961658477783
-0.292064964771270752 -0.0921993851661682129 0.306956112384796143
-0.367594748735427856 -0.113855063915252686 0.103168085217475891
-0.563485145568847656 0.127788826823234558 -0.0789133310317993164
-0.502207159996032715 0.0241019520908594131 0.185704901814460754
0.518132865428924561 -0.296581894159317017 -0.314688414335250854
0.47197335958480835 -0.327573418617248535 -0.30066797137260437
-0.57405245304107666 0.269439667463302612 0.362464934587478638
-0.571066617965698242 0.355524986982345581 0.166790515184402466
-0.191766470670700073 0.305311352014541626 0.100976563990116119
-0.661452353000640869 0.240280970931053162 0.0417952015995979309
-0.505587100982666016 0.145155966281890869 0.352667480707168579
0.506808698177337646 -0.346552997827529907 -0.319085389375686646
-0.200711175799369812 0.305773019790649414 0.101701483130455017
0.474779725074768066 -0.357251822948455811 0.00404462125152349472
0.509435534477233887 -0.330215960741043091 0.0656140297651290894
-0.610278487205505371 0.367905497550964355 0.0874982252717018127
-0.562069058418273926 0.288656473159790039 -0.0563307255506515503
0.21976819634437561 0.0110868699848651886 0.308407038450241089
0.240341871976852417 0.0060480097308754921 0.321062952280044556
-0.361125528812408447 -0.0558708533644676208 -0.138738468289375305
0.398776888847351074 -0.251963675022125244 0.321529150009155273
0.398918718099594116 -0.262365549802780151 0.324415326118469238
0.22391858696937561 -0.323487222194671631 0.320205450057983398
0.410519331693649292 -0.267167359590530396 0.324700206518173218
-0.509910643100738525 0.0502416715025901794 0.194445550441741943
-0.630514740943908691 0.156787127256393433 -0.0526235140860080719
-0.502629101276397705 0.147755846381187439 0.344653844833374023
0.520791053771972656 -0.350069254636764526 -0.323893755674362183
0.494981825351715088 -0.348241358995437622 -0.000618214718997478485
-0.198785990476608276 0.0169130619615316391 -0.0506429113447666168
-0.557448863983154297 0.342404782772064209 -0.00590525753796100616
0.488238632678985596 -0.360053926706314087 0.0403396487236022949
0.448146700859069824 -0.0735018253326416016 0.0011150590144097805
-0.556432962417602539 0.385959863662719727 0.157391980290412903
0.37333214282989502 -0.0801978185772895813 -0.120795220136642456
-0.390029966831207275 0.320334434509277344 0.167901143431663513
-0.385043859481811523 0.329024702310562134 0.196628063917160034
-0.36482703685760498 0.238807693123817444 -0.0842372700572013855
-0.407650262117385864 0.200035616755485535 0.0399979911744594574
-0.643603801727294922 0.287381500005722046 0.0939384549856185913
0.408192992210388184 -0.346759617328643799 0.135586336255073547
0.221636325120925903 0.0835203677415847778 -0.0343954935669898987
0.497880041599273682 -0.16060243546962738 0.123407512903213501
0.499487578868865967 -0.0921113193035125732 0.134044051170349121
0.214927449822425842 0.00254121003672480583 0.298905849456787109
-0.354264020919799805 -0.0674029290676116943 -0.00991271529346704483
-0.386085987091064453 0.2668418288230896 -0.0723767727613449097
0.506274580955505371 -0.346714168787002563 0.0542968511581420898
-0.358413159847259521 -0.0555345341563224792 -0.146434426307678223
0.13222937285900116 0.0733676180243492126 0.321308165788650513
-0.100000143051147461 -0.26493227481842041 0.00552576174959540367
0.242114633321762085 0.0241219997406005859 0.321266025304794312
-0.480991482734680176 -0.0111212674528360367 0.184350818395614624
0.242145493626594543 0.0491246506571769714 0.316431641578674316
-0.278277397155761719 0.333522051572799683 0.0403822250664234161
0.368682712316513062 -0.0300594624131917953 -0.0408226214349269867
0.52001488208770752 -0.347423940896987915 -0.0369890406727790833
0.292779922485351562 -0.0114984363317489624 0.036203090101480484
-0.643454372882843018 0.28537452220916748 0.0927838757634162903
0.0354616828262805939 0.137202844023704529 0.0842251777648925781
-0.398324161767959595 -0.0568903088569641113 0.124549463391304016
-0.442257225513458252 -0.0376207232475280762 0.130263417959213257
0.523628294467926025 -0.316929668188095093 -0.0660067722201347351
0.422147423028945923 -0.279230386018753052 0.330721914768218994
0.509379148483276367 -0.344656586647033691 0.0563118420541286469
0.403364211320877075 -0.258149504661560059 0.323134034872055054
-0.48093801736831665 0.018557574599981308 0.175701647996902466
0.235586032271385193 0.0693846642971038818 0.313426047563552856
-0.480158865451812744 -0.00762654468417167664 0.16642722487449646
0.239251583814620972 0.0683700293302536011 0.313834041357040405
0.387101113796234131 0.0267729498445987701 0.104930609464645386
0.219429671764373779 -0.315549790859222412 0.30977591872215271
0.381982684135437012 0.0435280837118625641 0.0680009573698043823
0.46169695258140564 0.0115675013512372971 0.174120187759399414
0.399017065763473511 -0.257994383573532104 0.326645553112030029
-0.500553429126739502 0.0216737836599349976 0.179790779948234558
-0.573205888271331787 0.266790658235549927 0.359635710716247559
-0.663750231266021729 0.230264559388160706 0.0219678450375795364
-0.149370089173316956 0.275982558727264404 0.0786453783512115479
0.522134125232696533 -0.334367454051971436 -0.323268324136734009
-0.220669329166412354 0.316275835037231445 0.0962010473012924194
0.4994221031665802 -0.346340447664260864 0.0662212371826171875
-0.189893484115600586 0.303441762924194336 0.114366933703422546
0.312376141548156738 -0.12947508692741394 0.300017386674880981
0.224478259682655334 -0.0346837639808654785 0.304574280977249146
0.0572131648659706116 -0.330358803272247314 0.290770977735519409
0.434870928525924683 -0.279248803853988647 0.332215070724487305
0.408778935670852661 -0.28513646125793457 0.330348789691925049
0.385155737400054932 -0.265232443809509277 0.318291187286376953
0.396747857332229614 -0.383955895900726318 -0.226428210735321045
-0.162031516432762146 0.278828650712966919 0.12799227237701416
0.379548966884613037 0.0445742271840572357 0.0756938159465789795
0.390382498502731323 -0.255220174789428711 0.31825864315032959
-0.501027405261993408 0.0249742027372121811 0.184709757566452026
0.499238640069961548 -0.325342625379562378 -0.314107716083526611
0.379656821489334106 -0.375305712223052979 -0.217291861772537231
0.521053612232208252 -0.348682999610900879 -0.325690507888793945
0.52042996883392334 -0.347857177257537842 -0.322812050580978394
0.513279557228088379 -0.319075822830200195 -0.319357901811599731
0.254425108432769775 -0.221803009510040283 0.0565922968089580536
0.185587093234062195 -0.141840904951095581 -0.106354400515556335
0.507319390773773193 -0.319629669189453125 0.0285703763365745544
-0.470224142074584961 -0.0114353764802217484 0.179714933037757874
0.495775938034057617 -0.348632693290710449 -0.310911864042282104
0.521575331687927246 -0.326863884925842285 -0.322761595249176025
0.475562363862991333 -0.319768220186233521 -0.303928792476654053
-0.341598063707351685 0.230583369731903076 -0.0450732819736003876
0.201360270380973816 0.133404254913330078 0.111444823443889618
-0.17324066162109375 0.0226149708032608032 0.0247845444828271866
0.265772461891174316 -0.165621548891067505 0.00536128552630543709
0.544648408889770508 -0.32772788405418396 -0.0485869757831096649
-0.457121789455413818 -0.0526591353118419647 0.160872131586074829
0.469034105539321899 -0.355747759342193604 -0.308142662048339844
0.477758437395095825 -0.26932990550994873 -0.302583694458007812
0.466617822647094727 -0.361587941646575928 -0.309257566928863525
-0.320290327072143555 0.267376929521560669 0.0107894930988550186
0.033120080828666687 0.0988379418849945068 0.12781059741973877
-0.285609245300292969 -0.0992754250764846802 -0.0881279408931732178
-0.616415858268737793 0.217332139611244202 -0.105063334107398987
0.243898481130599976 0.105024233460426331 -0.030723080039024353
0.465118110179901123 -0.23457789421081543 -0.228997230529785156
-0.29487156867980957 -0.0877640247344970703 -0.096664726734161377
0.249036788940429688 -0.275287449359893799 0.322055578231811523
0.221459761261940002 0.0673705264925956726 -0.0287574753165245056
-0.251418530941009521 -0.129567250609397888 -0.0562951341271400452
-0.2116507887840271 0.302527099847793579 0.148042574524879456
0.338964670896530151 -0.139932364225387573 0.317982226610183716
0.529401898384094238 -0.356152713298797607 0.069055601954460144
-0.599388301372528076 0.357046008110046387 0.0602387525141239166
-0.347432166337966919 -0.0549966245889663696 -0.144546777009963989
-0.433745384216308594 0.158226296305656433 -0.0854969099164009094
0.526407957077026367 -0.331219911575317383 0.019637158140540123
0.527917265892028809 -0.287311941385269165 -0.0708339661359786987
-0.499910235404968262 0.143303230404853821 -0.254630088806152344
0.146124362945556641 0.157335743308067322 0.057835649698972702
0.252739816904067993 -0.0070448797196149826 0.327166080474853516
0.349238485097885132 -0.14649529755115509 0.320080965757369995
0.441504538059234619 -0.322284102439880371 -0.230673223733901978
-0.224652573466300964 -0.139397919178009033 -0.0545123405754566193
0.522292852401733398 -0.349824249744415283 0.0961273908615112305
-0.645367622375488281 0.2538871169090271 0.0240647643804550171
0.392929911613464355 -0.279427051544189453 0.321759194135665894
-0.47541692852973938 -0.00916298665106296539 0.163861900568008423
0.22423127293586731 -0.324483990669250488 0.318404614925384521
-0.364601284265518188 -0.120492801070213318 0.12927362322807312
-0.239058881998062134 -0.140068098902702332 -0.0546544119715690613
-0.114851489663124084 -0.00866825506091117859 -0.0174570009112358093
0.389102280139923096 -0.277657479047775269 0.320092260837554932
-0.507709264755249023 0.0118959918618202209 0.200894266366958618
0.461686640977859497 -0.296319186687469482 -0.295381546020507812
0.350638389587402344 -0.147378996014595032 0.320957869291305542
0.456914961338043213 -0.303148478269577026 -0.22990843653678894
0.0246112644672393799 -0.143549323081970215 -0.020537741482257843
0.368368953466415405 -0.327073723077774048 0.318118125200271606
0.391497671604156494 -0.280840903520584106 0.31616249680519104
0.128277257084846497 -0.318538784980773926 -0.097825273871421814
-0.134805440902709961 0.279084235429763794 0.116963453590869904
-0.334213674068450928 0.0951750576496124268 -0.103369191288948059
0.373099952936172485 -0.3751181960105896 -0.215866923332214355
0.519598186016082764 -0.345079749822616577 -0.323419868946075439
0.523422956466674805 -0.357412159442901611 -0.327131807804107666
-0.0690472796559333801 -0.254307746887207031 0.0983044952154159546
0.324942111968994141 -0.130127757787704468 0.314370781183242798
0.423742234706878662 -0.259140700101852417 0.327763974666595459
-0.48074108362197876 0.0326818600296974182 0.19586414098739624
0.526629447937011719 -0.298839598894119263 -0.322662562131881714
0.538107931613922119 -0.291727542877197266 -0.325073421001434326
0.377015590667724609 -0.373422414064407349 -0.214687302708625793
0.370242148637771606 -0.356224089860916138 -0.214644327759742737
0.524117469787597656 -0.351025819778442383 -0.325572013854980469
0.525352895259857178 -0.362634599208831787 -0.323620617389678955
0.515549063682556152 -0.326443284749984741 -0.320747345685958862
0.478880792856216431 -0.351468175649642944 -0.312791436910629272
0.478089630603790283 -0.364963680505752563 -0.313483625650405884
-0.362477630376815796 0.311220258474349976 0.238784059882164001
-0.321629822254180908 0.104947715997695923 0.0212989076972007751
-0.447524487972259521 0.204594999551773071 -0.0412373468279838562
-0.378142893314361572 0.280096501111984253 -0.00811441522091627121
-0.0231445319950580597 -0.260304152965545654 0.142944991588592529
-0.591240227222442627 0.361833512783050537 0.0640560537576675415
0.366714954376220703 -0.372731417417526245 -0.21326175332069397
-0.124965056777000427 -0.0100556630641222 0.0072032734751701355
0.396030128002166748 -0.35239332914352417 -0.219131141901016235
0.50665515661239624 -0.15886940062046051 0.124641776084899902
0.195166051387786865 0.125087231397628784 0.00563628552481532097
-0.0268470142036676407 0.167627274990081787 0.382493793964385986
-0.334894239902496338 -0.120350927114486694 0.0994885712862014771
-0.325477659702301025 0.303627252578735352 -0.037407945841550827
0.533887803554534912 -0.346251815557479858 0.0374036170542240143
0.5253867506980896 -0.331454157829284668 0.0339597612619400024
-0.595184385776519775 0.382631897926330566 0.113223850727081299
-0.011783793568611145 -0.143535345792770386 -0.0274393316358327866
-0.23611748218536377 0.172884374856948853 -0.00263585243374109268
-0.486117750406265259 -0.010008104145526886 0.176285639405250549
-0.27819293737411499 0.336933434009552002 0.042023777961730957
0.513197958469390869 -0.348575443029403687 0.0964468494057655334
-0.449517548084259033 -0.0349367409944534302 0.116390600800514221
0.433718293905258179 -0.252560049295425415 0.331364691257476807
0.414527922868728638 -0.277574867010116577 0.326808184385299683
-0.469779878854751587 0.0352039188146591187 0.192517533898353577
0.50177001953125 -0.339079141616821289 0.00722848158329725266
-0.482386201620101929 -0.00216048955917358398 0.176490351557731628
-0.378104537725448608 -0.105932220816612244 0.091952785849571228
-0.501916050910949707 0.0227697957307100296 0.183212980628013611
0.359649747610092163 -0.28605082631111145 -0.142496153712272644
0.00122301094233989716 -0.230954557657241821 0.0894362330436706543
-0.140759795904159546 0.265885472297668457 0.0879150629043579102
-0.129840418696403503 0.255151987075805664 0.0709467083215713501
0.311903089284896851 -0.292523622512817383 -0.132061615586280823
0.427656471729278564 -0.254858285188674927 0.329813569784164429
-0.614581704139709473 0.307288199663162231 0.392286509275436401
0.409937858581542969 -0.357085168361663818 -0.227282732725143433
0.504781007766723633 -0.345945537090301514 -0.320576101541519165
0.507663905620574951 -0.351927906274795532 -0.323293775320053101
0.523600101470947266 -0.297739475965499878 -0.31916460394859314
0.509359836578369141 -0.346145212650299072 -0.320972084999084473
0.269829690456390381 -0.168884545564651489 -0.0803175866603851318
0.133789122104644775 0.121016442775726318 0.328386515378952026
0.251770704984664917 -0.284339487552642822 0.327720165252685547
0.323543667793273926 -0.119474738836288452 0.310114502906799316
0.30126073956489563 -0.20399494469165802 0.25069272518157959
0.249653249979019165 -0.00307636149227619171 0.324608832597732544
0.506668746471405029 -0.342733561992645264 0.0867357552051544189
0.24153389036655426 0.0906944796442985535 0.309169352054595947
0.462219417095184326 -0.283469021320343018 -0.231934696435928345
-0.26222190260887146 0.314703017473220825 0.045591309666633606
0.343239754438400269 -0.139278978109359741 0.329167485237121582
0.372922360897064209 -0.363058805465698242 -0.209642261266708374
0.336716562509536743 -0.12847021222114563 0.320327609777450562
0.526602864265441895 -0.346493512392044067 -0.32443922758102417
0.524310171604156494 -0.351431906223297119 -0.327131211757659912
0.479706168174743652 -0.371541112661361694 -0.313587099313735962
-0.361472398042678833 -0.064252220094203949 0.0818090140819549561
-0.408631801605224609 0.0895003154873847961 -0.114039212465286255
0.013955291360616684 0.0987644791603088379 0.216698259115219116
-0.37918582558631897 -0.0926011800765991211 -0.0292024612426757812
0.264886796474456787 0.0691157057881355286 -0.092607058584690094
-0.109146818518638611 -0.0145043134689331055 0.045185822993516922
-0.359064936637878418 -0.0912325084209442139 0.0122794480994343758
-0.290508747100830078 0.305610835552215576 0.1659812331199646
-0.356445908546447754 -0.0729305893182754517 0.0398046188056468964
