ply
format ascii 1.0
element vertex 737
property float x
property float y
property float z
end_header
0.315623223781585693 -0.332450389862060547 0.195120394229888916
0.297108113765716553 0.0387718230485916138 0.0492337495088577271
0.475853323936462402 -0.330272853374481201 0.13568878173828125
0.439687937498092651 -0.266760110855102539 -0.282873392105102539
0.461287915706634521 -0.27234300971031189 0.137262582778930664
0.504097342491149902 -0.345704257488250732 0.0167648214846849442
0.518981814384460449 -0.268830448389053345 -0.087743416428565979
0.498413383960723877 -0.0873445421457290649 0.161179140210151672
0.542315363883972168 -0.21455693244934082 0.110280647873878479
-0.578069865703582764 0.327532202005386353 0.0796821638941764832
0.246025204658508301 0.111833199858665466 -0.0552573688328266144
0.0328978709876537323 0.0689342468976974487 0.27190852165222168
-0.563162505626678467 0.275892019271850586 0.0231455713510513306
-0.614820599555969238 0.272588163614273071 0.0379046164453029633
0.535688936710357666 -0.238536477088928223 0.102289095520973206
-0.577086746692657471 0.213247761130332947 -0.117423512041568756
-0.426360398530960083 0.031280025839805603 -0.189371377229690552
0.303926050662994385 -0.125761091709136963 -0.109002605080604553
-0.386390268802642822 -0.055067799985408783 0.0996950268745422363
-0.604187905788421631 0.260128200054168701 0.0167693980038166046
-0.461957693099975586 0.307065635919570923 0.080262795090675354
0.504884004592895508 -0.263187259435653687 -0.109877645969390869
0.534586071968078613 -0.191660985350608826 0.0281162653118371964
-0.617058277130126953 0.210973858833312988 -0.0567397177219390869
0.4521980881690979 -0.122870340943336487 0.0886498391628265381
0.0330307632684707642 -0.278963536024093628 -0.0364153608679771423
0.401798337697982788 -0.318090856075286865 0.130160212516784668
-0.0946824625134468079 0.0745749622583389282 0.292595982551574707
0.242616951465606689 -0.136156350374221802 0.0104444297030568123
0.160909116268157959 -0.270977616310119629 0.0432358346879482269
-0.591544449329376221 0.369805753231048584 0.0895032584667205811
0.0261777564883232117 -0.0111757665872573853 0.0272543113678693771
0.19513934850692749 0.0346367061138153076 0.177411735057830811
-0.307157993316650391 -0.0908265858888626099 0.304712861776351929
0.493754565715789795 -0.366127699613571167 0.0191090386360883713
0.521702051162719727 -0.310688972473144531 0.0454065799713134766
0.502458751201629639 -0.152752593159675598 0.118352949619293213
0.0803044438362121582 -0.271487325429916382 -0.0601214617490768433
-0.326604932546615601 -0.102586090564727783 0.0875083208084106445
-0.587169468402862549 0.335416406393051147 0.0179040059447288513
-0.0743867158889770508 -0.235259026288986206 0.301186233758926392
0.1939973384141922 -0.339286208152770996 -0.0629965066909790039
-0.400155991315841675 0.272746682167053223 -0.0555021576583385468
-0.522984445095062256 0.0446793884038925171 -0.0585695318877696991
-0.258939772844314575 0.142891377210617065 0.0903736799955368042
-0.214598581194877625 -0.135101690888404846 -0.0639470815658569336
0.508304595947265625 -0.103925921022891998 0.143683671951293945
0.213717296719551086 -0.27905195951461792 -0.00994065031409263611
0.237507134675979614 -0.0754024311900138855 0.126183390617370605
-0.141303464770317078 0.297251403331756592 0.14710235595703125
-0.656610012054443359 0.171850219368934631 -0.112916730344295502
0.252744227647781372 -0.00874912366271018982 0.249312072992324829
0.249858647584915161 -0.178140074014663696 0.302242815494537354
-0.264163970947265625 -0.136335015296936035 -0.06841316819190979
-0.201787084341049194 0.315082788467407227 0.0981808602809906006
0.257557690143585205 -0.277381837368011475 0.322552144527435303
0.178124606609344482 -0.0534889176487922668 -0.051639653742313385
-0.444546550512313843 -0.0660397186875343323 0.128135651350021362
-0.504969000816345215 0.0306511074304580688 0.246269956231117249
-0.498331129550933838 0.0370786152780056 -0.0125742815434932709
0.232113629579544067 0.0235172491520643234 0.313497990369796753
-0.372619926929473877 -0.0451125465333461761 0.142415523529052734
-0.350179463624954224 0.107218459248542786 0.0649841129779815674
0.307193011045455933 -0.198049679398536682 0.242331802845001221
0.307790458202362061 -0.00476198829710483551 0.218852877616882324
-0.444062769412994385 0.267257004976272583 -0.0381480269134044647
0.5172119140625 -0.325770318508148193 -0.0819220617413520813
-0.539927423000335693 0.138991400599479675 -0.0979783311486244202
0.465380430221557617 -0.123678214848041534 0.00131607730872929096
-0.386600613594055176 0.256048798561096191 0.0318210981786251068
0.493904054164886475 -0.301146358251571655 0.120433956384658813
0.464919328689575195 -0.105418220162391663 0.0588921010494232178
0.20301663875579834 0.0157581083476543427 -0.0429380983114242554
-0.225560218095779419 0.296504199504852295 0.157884120941162109
-0.126145094633102417 -0.0483874976634979248 0.0102475825697183609
-0.232613503932952881 0.229097813367843628 0.347517281770706177
-0.382009923458099365 -0.0536750182509422302 0.144529342651367188
0.340596228837966919 -0.0730444341897964478 0.0469473637640476227
-0.437251001596450806 -0.0116141531616449356 0.0331272929906845093
0.204682260751724243 0.0172261744737625122 0.0696550086140632629
0.0555593781173229218 -0.0853710770606994629 0.238790735602378845
-0.385114431381225586 -0.0588641464710235596 0.115634948015213013
-0.137505829334259033 -0.264227449893951416 -0.00182658480480313301
-0.244780838489532471 0.0642035454511642456 0.244031697511672974
-0.543179333209991455 0.211514174938201904 0.161868944764137268
-0.591706573963165283 0.287737727165222168 -0.00794894900172948837
0.306294769048690796 0.0182872787117958069 0.0420758500695228577
0.478574514389038086 -0.313951998949050903 -0.305928349494934082
0.503831863403320312 -0.344731926918029785 -0.064367637038230896
0.471575140953063965 -0.304358482360839844 0.114405304193496704
0.527243971824645996 -0.302084356546401978 -0.109883658587932587
-0.404046535491943359 0.312259465456008911 0.133771270513534546
0.51806330680847168 -0.250490397214889526 -0.307805150747299194
0.507812261581420898 -0.32824590802192688 -0.315231412649154663
0.518944203853607178 -0.330591797828674316 0.0910260528326034546
0.477432906627655029 -0.303416073322296143 -0.303576946258544922
0.527677714824676514 -0.284826666116714478 -0.10849086195230484
-0.560857772827148438 0.267855256795883179 0.364962011575698853
-0.640765011310577393 0.29007953405380249 0.0846752449870109558
0.37135392427444458 -0.400332033634185791 -0.218200027942657471
-0.451002240180969238 -0.000385558232665061951 0.17414391040802002
0.175741881132125854 0.0734863132238388062 0.00590295158326625824
-0.454746663570404053 0.135246261954307556 -0.214443981647491455
0.402972191572189331 -0.335102170705795288 0.128291785717010498
-0.599791586399078369 0.20788942277431488 0.000136149115860462189
0.246953725814819336 -0.113859944045543671 -0.0713906586170196533
-0.484331309795379639 0.183286875486373901 -0.210851371288299561
-0.377296477556228638 -0.0624094158411026001 0.0907722339034080505
0.523040592670440674 -0.320188015699386597 0.0353398360311985016
0.542460799217224121 -0.216623753309249878 0.107806369662284851
0.52579963207244873 -0.272755563259124756 0.05480174720287323
0.110640130937099457 0.0846644788980484009 0.316782683134078979
-0.35206305980682373 -0.047223016619682312 0.0441171079874038696
0.104522928595542908 0.0728006288409233093 0.294988840818405151
-0.166212648153305054 0.133676856756210327 0.150582700967788696
0.502765119075775146 -0.255664706230163574 -0.10299430787563324
0.428805679082870483 -0.303072690963745117 0.135300323367118835
-0.356780558824539185 -0.100738443434238434 0.158150047063827515
0.498519003391265869 -0.200810655951499939 -0.108441323041915894
-0.579308748245239258 0.348721623420715332 0.151453167200088501
0.104280591011047363 -0.0109740030020475388 0.0205469280481338501
-0.342257380485534668 -0.122678786516189575 0.103710457682609558
-0.121232926845550537 -0.275065720081329346 0.173443436622619629
-0.161911606788635254 0.167929261922836304 0.324608802795410156
0.515164852142333984 -0.357820332050323486 0.0262357275933027267
0.521131813526153564 -0.286792397499084473 -0.0121893417090177536
0.478619992733001709 -0.139178156852722168 0.107080794870853424
-0.181885018944740295 0.0299122650176286697 0.0251865945756435394
-0.342977344989776611 -0.120899543166160583 0.102852575480937958
-0.600909590721130371 0.37741658091545105 0.1877879798412323
-0.120203010737895966 -0.266191303730010986 0.217735603451728821
0.523601293563842773 -0.308013111352920532 -0.0752897113561630249
0.51650625467300415 -0.251304566860198975 -0.309929490089416504
0.455035954713821411 -0.307368189096450806 -0.295012891292572021
0.240049988031387329 -0.0952693000435829163 0.158077806234359741
-0.620878159999847412 0.272764414548873901 0.0366175286471843719
-0.431059658527374268 -0.00312528572976589203 0.17638927698135376
-0.251356124877929688 -0.136112123727798462 -0.0717760026454925537
0.317094862461090088 -0.318248212337493896 0.121897667646408081
0.539432525634765625 -0.248941004276275635 0.106169149279594421
0.452385842800140381 -0.139005511999130249 0.0148589210584759712
0.429261654615402222 -0.320229262113571167 0.123072974383831024
0.413258969783782959 -0.329944133758544922 -0.210417360067367554
0.473524123430252075 -0.127754390239715576 0.108953222632408142
-0.549868345260620117 0.379287391901016235 0.171852573752403259
0.190244987607002258 -0.339166164398193359 -0.0138954184949398041
-0.202601924538612366 -0.134662508964538574 -0.0690500438213348389
-0.186396241188049316 0.312802255153656006 0.117190219461917877
0.10271231085062027 0.108352936804294586 0.173786178231239319
-0.445424407720565796 -0.0536091998219490051 0.0909481197595596313
-0.490499496459960938 0.0307211093604564667 0.0159841030836105347
0.230885550379753113 0.0117209721356630325 0.314587950706481934
-0.0253349523991346359 0.113801524043083191 0.31199762225151062
0.242679640650749207 -0.037898629903793335 0.204101741313934326
-0.385946661233901978 0.246061608195304871 0.0334061719477176666
-0.654550552368164062 0.217179417610168457 -0.0396637283265590668
0.482698142528533936 -0.115460902452468872 0.0229029729962348938
0.121544450521469116 0.0801360607147216797 0.137906640768051147
-0.383005887269973755 -0.0718379095196723938 0.0947091728448867798
0.319117277860641479 -0.0716120153665542603 0.0617790669202804565
-0.441815435886383057 -0.0109451562166213989 0.00598758365958929062
-0.503227472305297852 0.234335735440254211 -0.0718701332807540894
-0.548195540904998779 0.204045996069908142 -0.0692320317029953003
0.0878967195749282837 0.0922696292400360107 0.0793449282646179199
-0.520890116691589355 0.205178022384643555 -0.0479350276291370392
-0.169069036841392517 0.0730689540505409241 0.231843054294586182
-0.058008149266242981 -0.186166912317276001 0.0263158995658159256
-0.21339300274848938 0.291517883539199829 0.108391761779785156
0.248985588550567627 -0.00475286878645420074 0.0217139218002557755
-0.556700706481933594 0.205012679100036621 0.117530666291713715
-0.458429992198944092 0.217128455638885498 0.0236499272286891937
-0.463762879371643066 0.267187178134918213 -0.0035651172511279583
-0.576285600662231445 0.24817262589931488 -0.0770565271377563477
-0.390486359596252441 0.275864362716674805 -0.0849300473928451538
0.343437910079956055 -0.133849680423736572 0.318461298942565918
-0.499671906232833862 0.207485929131507874 -0.0124429874122142792
-0.347043275833129883 0.293543457984924316 -0.0509126968681812286
0.526212573051452637 -0.360252559185028076 0.0411568209528923035
-0.540876507759094238 0.215817183256149292 0.200244173407554626
-0.570343971252441406 0.295040011405944824 -0.003876538947224617
0.315980076789855957 0.0244163759052753448 0.0480498597025871277
0.482188373804092407 -0.306094050407409668 -0.304236143827438354
0.479747682809829712 -0.32548600435256958 0.124702729284763336
0.523377060890197754 -0.306138396263122559 -0.0992816686630249023
0.49057963490486145 -0.309868961572647095 -0.307975351810455322
0.516382217407226562 -0.324218571186065674 0.119225665926933289
0.444606602191925049 -0.299291044473648071 -0.291253715753555298
0.523389577865600586 -0.303689837455749512 -0.0979434847831726074
0.133776023983955383 0.116991236805915833 0.336647629737854004
-0.642942607402801514 0.243068709969520569 -0.00988860055804252625
-0.293628066778182983 -0.113056808710098267 -0.106385305523872375
0.539373099803924561 -0.254680216312408447 0.0916584432125091553
0.1286039799451828 0.0981988310813903809 0.316895276308059692
-0.236133337020874023 -0.142758414149284363 -0.071986958384513855
0.251819849014282227 0.0306718554347753525 -0.0865802094340324402
0.531155645847320557 -0.322328895330429077 0.00624708179384469986
-0.600099563598632812 0.30795016884803772 0.103873006999492645
0.532184958457946777 -0.243853002786636353 0.08600626140832901
-0.375180721282958984 -0.0601067766547203064 0.0914335250854492188
0.526727080345153809 -0.274453222751617432 -0.123794764280319214
-0.502098977565765381 0.149333268404006958 0.35229647159576416
0.384981721639633179 -0.296830236911773682 0.131125941872596741
0.132421717047691345 -0.331307679414749146 -0.10098683089017868
0.522968530654907227 -0.354043543338775635 -0.0155490301549434662
-0.437620222568511963 0.151170164346694946 -0.0858451426029205322
0.515874028205871582 -0.29929688572883606 0.0640953034162521362
0.393096029758453369 -0.366980195045471191 -0.214408755302429199
0.500400245189666748 -0.170645028352737427 0.129484593868255615
0.533451497554779053 -0.333204537630081177 0.0278011709451675415
-0.580735206604003906 0.349440485239028931 0.0396807268261909485
0.520184516906738281 -0.240070641040802002 -0.309158444404602051
-0.601731240749359131 0.371215224266052246 0.104079701006412506
-0.501599371433258057 0.147703185677528381 0.354503214359283447
0.23382200300693512 -0.277192652225494385 0.316950798034667969
-0.182226687669754028 -0.136303842067718506 -0.0561922602355480194
-0.229299053549766541 -0.137234479188919067 -0.0541537180542945862
-0.205172985792160034 0.299118727445602417 0.125993520021438599
0.262408971786499023 -0.288972407579421997 0.3232288658618927
-0.363400906324386597 -0.0298143737018108368 0.118643656373023987
-0.50124812126159668 0.0200578793883323669 0.0310293529182672501
0.24237881600856781 0.000811793841421604156 0.321843117475509644
0.141173169016838074 -0.289859175682067871 0.311310499906539917
0.307788282632827759 -0.206766620278358459 0.247673451900482178
-0.387258261442184448 0.255589216947555542 0.033464532345533371
0.531226217746734619 -0.261464029550552368 0.102365955710411072
0.223571941256523132 0.0234328079968690872 0.304965615272521973
0.530707001686096191 -0.146608933806419373 -0.308631449937820435
-0.645444810390472412 0.23184165358543396 -0.0479119680821895599
0.54150015115737915 -0.310113340616226196 -0.0449921227991580963
0.508016347885131836 -0.266872167587280273 -0.311980485916137695
0.514579653739929199 -0.315200746059417725 -0.295613080263137817
0.458909571170806885 -0.289957761764526367 -0.297189861536026001
-0.54407268762588501 0.268755942583084106 -0.189951926469802856
-0.622098743915557861 0.289527267217636108 0.066134229302406311
0.363438397645950317 -0.383318006992340088 -0.206841945648193359
-0.0932241529226303101 0.267992913722991943 0.188728213310241699
-0.449568748474121094 0.131966426968574524 -0.20955696702003479
-0.576331496238708496 0.204355686902999878 -0.127707332372665405
-0.630722761154174805 0.192206963896751404 -0.0404107570648193359
-0.470839768648147583 0.139591038227081299 -0.23182426393032074
0.257040023803710938 -0.0163751989603042603 -0.0727464780211448669
0.229893580079078674 0.0545017346739768982 -0.0458634272217750549
0.11253754049539566 0.110393114387989044 0.301128685474395752
-0.584897220134735107 0.218929395079612732 -0.221961110830307007
-0.599023580551147461 0.235806897282600403 -0.0113888122141361237
-0.368101328611373901 -0.0909714251756668091 0.121904999017715454
-0.330993711948394775 -0.124608442187309265 0.136395081877708435
-0.635228872299194336 0.200120031833648682 -0.0388086773455142975
-0.426830559968948364 -0.0541704297065734863 0.0983048230409622192
-0.479266583919525146 0.0208390746265649796 -0.037402227520942688
0.208138942718505859 0.00929035712033510208 0.300356030464172363
-0.634809970855712891 0.248612537980079651 -0.0064852498471736908
-0.128856271505355835 0.270620465278625488 0.131557673215866089
0.270882695913314819 -0.329530060291290283 0.179427236318588257
0.533100664615631104 -0.209244444966316223 -0.0993729680776596069
-0.127352148294448853 -0.111906774342060089 -0.0553563088178634644
0.454287052154541016 -0.337936460971832275 -0.298712551593780518
-0.213667362928390503 0.0369597300887107849 -0.060399811714887619
-0.554221153259277344 0.176412597298622131 0.0119800353422760963
-0.199529752135276794 0.140340954065322876 0.0203634817153215408
-0.0133482888340950012 -0.101811893284320831 -0.0434707850217819214
0.26449313759803772 -0.274126321077346802 0.20182502269744873
0.348463326692581177 -0.32024681568145752 -0.000765947159379720688
-0.156927496194839478 0.0704885721206665039 0.0268073230981826782
-0.250275552272796631 0.131522059440612793 -0.0352456532418727875
0.198435992002487183 0.00233414210379123688 0.0184095799922943115
0.0756209120154380798 0.0814943015575408936 0.0232626236975193024
-0.284584730863571167 0.289111584424972534 -0.00677757803350687027
0.477027475833892822 -0.288839042186737061 -0.302341699600219727
-0.557889223098754883 0.266434937715530396 -0.0179743785411119461
-0.238465309143066406 0.0983635559678077698 -0.0332451164722442627
0.137517422437667847 -0.28017890453338623 0.149464443325996399
0.296096533536911011 -0.296572268009185791 0.0562119297683238983
-0.287123918533325195 0.258044391870498657 -0.000282495748251676559
-0.0218831803649663925 -0.0396590828895568848 0.0883835181593894958
0.203855276107788086 0.0434479191899299622 0.0649768784642219543
-0.144626379013061523 -0.0844556242227554321 0.0910618007183074951
0.371970146894454956 -0.0725486055016517639 0.0308421831578016281
0.521342337131500244 -0.198182776570320129 -0.0990837067365646362
0.487228751182556152 -0.296855151653289795 -0.305960237979888916
0.480452448129653931 -0.313943386077880859 0.121601082384586334
0.513721168041229248 -0.306244790554046631 -0.103048413991928101
0.496206611394882202 -0.308495461940765381 -0.310302644968032837
0.506252169609069824 -0.326926440000534058 -0.00480136554688215256
0.511865973472595215 -0.323653221130371094 0.117680370807647705
0.465915530920028687 -0.287731677293777466 -0.297222793102264404
0.437889367341995239 -0.262457758188247681 -0.194970980286598206
0.134584248065948486 0.117639072239398956 0.336562871932983398
0.396408736705780029 -0.243442386388778687 0.318275958299636841
-0.602401077747344971 0.354956001043319702 0.06497916579246521
-0.506283700466156006 0.358015000820159912 0.177502930164337158
0.542794406414031982 -0.28162682056427002 0.0973011255264282227
0.255763709545135498 0.0376320183277130127 -0.0727941244840621948
-0.2342529296875 0.156718701124191284 -0.00609607994556427002
0.506248176097869873 -0.331094712018966675 -0.00322686601430177689
0.444713056087493896 -0.249052643775939941 -0.228658527135848999
-0.639792382717132568 0.255112290382385254 0.0540631525218486786
0.532707571983337402 -0.261800110340118408 0.0926256179809570312
-0.39436572790145874 -0.0584848001599311829 0.0994859784841537476
0.52402728796005249 -0.288717925548553467 -0.0927180200815200806
0.0274503827095031738 -0.273445963859558105 -0.0358750000596046448
0.384950816631317139 -0.305168122053146362 0.118034511804580688
-0.583158969879150391 0.367562592029571533 0.13108275830745697
0.239567935466766357 0.00374759035184979439 0.180436432361602783
-0.113794252276420593 0.166220426559448242 0.347032099962234497
0.482226550579071045 -0.36745491623878479 -0.0228160768747329712
0.412169694900512695 -0.320187360048294067 -0.211746886372566223
0.507124245166778564 -0.15461672842502594 0.123410940170288086
0.528985202312469482 -0.333832293748855591 0.0121666397899389267
-0.585125267505645752 0.337115824222564697 0.033512849360704422
-0.591676175594329834 0.382637441158294678 0.130683809518814087
0.526506900787353516 -0.243430450558662415 -0.311122208833694458
0.474483788013458252 -0.289752990007400513 -0.300109803676605225
-0.598136007785797119 0.354437261819839478 0.169081926345825195
-0.588369905948638916 0.372205495834350586 0.100464008748531342
-0.213112920522689819 -0.12875385582447052 -0.0583525076508522034
0.234172239899635315 -0.292292475700378418 0.314504563808441162
0.237500220537185669 0.0679371654987335205 0.319539427757263184
0.542066812515258789 -0.312944889068603516 -0.0587122738361358643
-0.445963412523269653 -0.0476381294429302216 0.126141518354415894
0.359484255313873291 -0.387402564287185669 -0.209776192903518677
-0.557687103748321533 0.211848527193069458 -0.114331901073455811
0.520963847637176514 -0.278598159551620483 -0.177723810076713562
0.241345971822738647 0.035587359219789505 0.314029902219772339
0.242042914032936096 0.0012258114293217659 0.0229440722614526749
0.380054891109466553 0.0396986678242683411 0.0110790049657225609
0.52695918083190918 -0.229735434055328369 -0.31061968207359314
0.326352894306182861 0.0970013290643692017 -0.0367321334779262543
-0.375503271818161011 -0.0594229884445667267 -0.133698791265487671
0.512790560722351074 -0.166614174842834473 0.135319247841835022
-0.575542628765106201 0.322741031646728516 0.0488343909382820129
-0.56007540225982666 0.284187376499176025 0.36348918080329895
0.223720774054527283 0.0327157452702522278 -0.0588905028998851776
-0.575326144695281982 0.215259164571762085 -0.221628889441490173
-0.0451920740306377411 0.157337933778762817 0.0805024802684783936
0.113309599459171295 0.110768787562847137 0.0247372929006814957
0.342396855354309082 -0.246061757206916809 -0.0975651741027832031
-0.28630906343460083 0.301280796527862549 -0.00363365095108747482
0.152516946196556091 -0.00364067219197750092 -0.00421334896236658096
0.0682705342769622803 0.139580413699150085 0.0749435722827911377
-0.271298825740814209 0.281033873558044434 0.000885889166966080666
0.503448307514190674 -0.291643232107162476 -0.160003349184989929
0.136181861162185669 -0.0250622574239969254 0.0124886324629187584
-0.340327233076095581 -0.0311952847987413406 0.0219176262617111206
0.372804760932922363 -0.0909328311681747437 0.0435629598796367645
0.199191749095916748 0.101945489645004272 -0.00257499702274799347
-0.298529088497161865 -0.0242308788001537323 0.035077899694442749
0.130977585911750793 -0.0170631576329469681 -0.0267070475965738297
0.100570648908615112 0.0168015509843826294 0.0905420631170272827
0.17495293915271759 0.120109662413597107 0.0372833162546157837
-0.231632038950920105 -0.0628822594881057739 0.103875219821929932
0.486204206943511963 -0.295714735984802246 -0.304196149110794067
-0.604114949703216553 0.29025191068649292 0.184507906436920166
0.467126190662384033 -0.30781930685043335 0.119342103600502014
0.377541482448577881 -0.0135910175740718842 0.00557298725470900536
0.514454841613769531 -0.294378280639648438 -0.104133337736129761
0.519010722637176514 -0.238818511366844177 -0.308142632246017456
0.478035569190979004 -0.308781415224075317 -0.30096358060836792
0.483462154865264893 -0.273565620183944702 -0.300579249858856201
0.116589963436126709 0.119525328278541565 0.297066003084182739
-0.585190474987030029 0.357053011655807495 0.0651392638683319092
0.383549749851226807 -0.336468964815139771 0.124719366431236267
-0.575534045696258545 0.318380355834960938 -0.0272162333130836487
-0.605375349521636963 0.217749714851379395 -0.0875020772218704224
0.267045170068740845 0.0400350093841552734 -0.0869965031743049622
-0.357699036598205566 -0.0213531255722045898 -0.131995171308517456
-0.565402090549468994 0.315035521984100342 -0.00862214714288711548
0.190323904156684875 -0.340058773756027222 -0.0754261091351509094
0.404137879610061646 -0.35667690634727478 -0.224821493029594421
-0.501349210739135742 0.146286845207214355 0.353845715522766113
0.509425163269042969 -0.150581628084182739 0.11438298225402832
0.496970504522323608 -0.262997955083847046 -0.305003076791763306
0.45797380805015564 -0.279916286468505859 -0.290461361408233643
0.44089055061340332 -0.264024645090103149 -0.28438258171081543
-0.588985979557037354 0.358146697282791138 0.0610706955194473267
0.504981637001037598 -0.125899866223335266 0.123796172440052032
-0.207275733351707458 0.313272923231124878 0.107984855771064758
0.267985433340072632 -0.28327631950378418 0.318680286407470703
0.231969475746154785 0.00434140302240848541 0.317364037036895752
0.513282597064971924 -0.174782231450080872 -0.282315373420715332
-0.116309389472007751 0.010610971599817276 0.00523312529549002647
0.403872072696685791 -0.358705639839172363 -0.225446209311485291
0.417459994554519653 -0.312380820512771606 0.143011018633842468
-0.55668032169342041 0.377348661422729492 0.185956135392189026
-0.176649555563926697 0.309934437274932861 0.117699481546878815
-0.391085773706436157 0.276838034391403198 -0.0859317705035209656
0.364609628915786743 0.0526295937597751617 0.0237757842987775803
0.128588110208511353 0.116426572203636169 0.318330109119415283
-0.287791550159454346 -0.0996644347906112671 -0.0928302258253097534
0.25744202733039856 0.101631149649620056 -0.0628083199262619019
-0.362501025199890137 -0.0589764155447483063 -0.144949853420257568
0.133560985326766968 0.114389091730117798 0.337308824062347412
-0.564133107662200928 0.199922487139701843 -0.229637876152992249
-0.277678549289703369 0.28883245587348938 -0.00176705699414014816
0.45485454797744751 -0.245524346828460693 -0.288943201303482056
0.460237622261047363 -0.274451345205307007 -0.291519224643707275
-0.635585904121398926 0.30880698561668396 0.169851183891296387
0.512579560279846191 -0.316577255725860596 -0.0392457880079746246
0.468965768814086914 -0.264865279197692871 -0.298610687255859375
0.478235810995101929 -0.294061541557312012 -0.300919502973556519
0.458120048046112061 -0.245307952165603638 -0.290511548519134521
0.381061583757400513 -0.360043466091156006 -0.214650675654411316
-0.480762898921966553 -0.0117879286408424377 0.184846222400665283
-0.517622292041778564 0.366572290658950806 0.173231214284896851
-0.619381308555603027 0.202611565589904785 -0.0877208113670349121
-0.238486826419830322 0.0195756666362285614 -0.0733148157596588135
-0.383856922388076782 -0.0582579001784324646 0.0227879993617534637
0.474876314401626587 -0.367465496063232422 0.0210323072969913483
-0.64997023344039917 0.23732447624206543 0.0317234136164188385
0.412564247846603394 -0.345774292945861816 -0.222408682107925415
0.526234447956085205 -0.336282521486282349 0.0793967843055725098
0.506158828735351562 -0.238116323947906494 -0.308623850345611572
0.249331548810005188 -0.281481236219406128 0.317748337984085083
0.238649576902389526 0.0673683732748031616 0.314074277877807617
0.539767146110534668 -0.30091702938079834 -0.0942737758159637451
-0.449124246835708618 -0.0406420379877090454 0.125572130084037781
-0.0446054302155971527 0.105174288153648376 0.317288905382156372
0.247407764196395874 0.0218384638428688049 0.321678489446640015
-0.286103755235671997 -0.0988014563918113708 -0.0998426824808120728
-0.138829365372657776 -0.014365512877702713 -0.0494635365903377533
-0.279000073671340942 0.338653355836868286 0.046182580292224884
-0.255867093801498413 0.290682852268218994 -0.00402937829494476318
-0.219959542155265808 0.322672128677368164 0.0690851956605911255
-0.574313640594482422 0.152898102998733521 -0.075214289128780365
-0.291160613298416138 0.293513774871826172 0.0151875494047999382
0.525771975517272949 -0.319787800312042236 0.0265280995517969131
0.345477759838104248 -0.029683820903301239 -0.0352226570248603821
0.522438526153564453 -0.362047135829925537 0.0887031033635139465
-0.0842123106122016907 -0.111114926636219025 0.077870391309261322
-0.405213236808776855 0.326885849237442017 0.120290517807006836
0.504876852035522461 -0.366189152002334595 -0.00520420074462890625
-0.11963064968585968 0.266865193843841553 0.120248004794120789
0.518874168395996094 -0.342083215713500977 0.0351703241467475891
0.130064696073532104 -0.334052622318267822 0.300733625888824463
0.466564387083053589 -0.310167580842971802 0.0717136412858963013
0.482932090759277344 -0.373132437467575073 0.0515678934752941132
0.420557379722595215 -0.0252018533647060394 0.0640933215618133545
0.494230836629867554 -0.362642765045166016 -0.0162674766033887863
-0.234047770500183105 0.287961959838867188 0.0833212286233901978
0.531404435634613037 -0.330878347158432007 -0.00786336790770292282
-0.27306288480758667 0.316235721111297607 0.113104775547981262
0.307560235261917114 0.00338542042300105095 0.0455228015780448914
0.467440485954284668 -0.262475818395614624 -0.296680688858032227
0.47377312183380127 -0.303437411785125732 0.113490834832191467
0.511294960975646973 -0.312707215547561646 -0.105044245719909668
0.509328246116638184 -0.244461849331855774 -0.308941781520843506
0.447961717844009399 -0.291562080383300781 -0.293403476476669312
0.466413110494613647 -0.282305151224136353 -0.297939479351043701
0.137794956564903259 0.113509491086006165 0.336245954036712646
-0.65266042947769165 0.286306142807006836 0.0976022332906723022
-0.63904958963394165 0.245405510067939758 -0.038684796541929245
0.135756313800811768 0.069989524781703949 0.33739057183265686
-0.578123092651367188 0.304496198892593384 -0.0561953112483024597
0.261811822652816772 0.0312168262898921967 -0.0741983503103256226
0.542014241218566895 -0.215855330228805542 0.111004658043384552
-0.361319482326507568 -0.0349845848977565765 -0.135168135166168213
-0.575763404369354248 0.328181147575378418 -0.0302127376198768616
-0.363019645214080811 -0.0701694861054420471 -0.0348739214241504669
-0.131232619285583496 -0.266944020986557007 0.118362940847873688
0.495196133852005005 -0.364943832159042358 -0.00111463014036417007
0.373737126588821411 -0.358444154262542725 -0.210816994309425354
-0.379624098539352417 -0.106141477823257446 0.100289270281791687
-0.0675649493932723999 -0.263469487428665161 0.29596748948097229
0.52004539966583252 -0.242420405149459839 -0.3099403977394104
0.509552359580993652 -0.32968476414680481 0.0145881222561001778
-0.594262301921844482 0.369713187217712402 0.119934067130088806
-0.655933737754821777 0.17616581916809082 -0.103398896753787994
-0.224043130874633789 -0.143384665250778198 -0.0544525124132633209
-0.192252278327941895 0.317444205284118652 0.0999621003866195679
0.256440579891204834 -0.28276371955871582 0.319179356098175049
0.238614350557327271 0.0330155603587627411 0.318577826023101807
-0.121146708726882935 -0.0453953705728054047 0.00664975401014089584
-0.642239153385162354 0.309281915426254272 0.101376906037330627
0.364623904228210449 -0.372988224029541016 -0.207749113440513611
0.537805616855621338 -0.216864228248596191 0.161307156085968018
-0.553777873516082764 0.383260399103164673 0.157225877046585083
-0.123423866927623749 0.26007959246635437 0.114373534917831421
0.118703633546829224 0.103144414722919464 0.0886753946542739868
-0.376736342906951904 0.266674429178237915 -0.0904656723141670227
0.517037391662597656 -0.348194330930709839 0.0980709344148635864
-0.294673621654510498 -0.106333978474140167 -0.110096581280231476
0.274363130331039429 0.103694334626197815 -0.0584651976823806763
-0.576064407825469971 0.220172524452209473 -0.213228002190589905
-0.116420403122901917 0.269394189119338989 0.179088085889816284
0.235789045691490173 -0.287272810935974121 0.31386604905128479
0.309741884469985962 -0.186490431427955627 0.240431308746337891
0.541972219944000244 -0.324962317943572998 -0.0215317606925964355
0.0786937028169631958 -0.337173253297805786 0.281659960746765137
-0.00720509607344865799 -0.171175315976142883 0.0036969080101698637
-0.283444732427597046 0.262553632259368896 0.00615618377923965454
0.513264179229736328 -0.236192002892494202 -0.309943675994873047
-0.647570669651031494 0.278880178928375244 0.0790663212537765503
-0.646916210651397705 0.18369707465171814 -0.0912837609648704529
0.51419442892074585 -0.321646988391876221 0.0236106850206851959
-0.408170819282531738 -0.0628886520862579346 0.112530812621116638
0.516973912715911865 -0.354823410511016846 -0.0213057156652212143
-0.567558109760284424 0.375119954347610474 0.151758447289466858
0.235366106033325195 0.0438243970274925232 0.313110053539276123
-0.665423929691314697 0.227691531181335449 0.0226542260497808456
-0.44933474063873291 -0.0377437025308609009 0.126079678535461426
0.503111362457275391 -0.301314860582351685 -0.179540961980819702
-0.590063333511352539 0.361778199672698975 0.0854102522134780884
-0.19509713351726532 0.315722137689590454 0.104074254631996155
0.246393650770187378 0.0247408878058195114 0.323273688554763794
0.531090736389160156 -0.322904467582702637 -0.058709707111120224
-0.183822989463806152 0.307826995849609375 0.127696871757507324
0.246639430522918701 0.00781768560409545898 0.323418170213699341
0.0580541789531707764 0.140376895666122437 0.345228314399719238
-0.506761670112609863 0.150085598230361938 0.35605815052986145
0.270551502704620361 -0.310507684946060181 0.325706899166107178
-0.254935622215270996 0.0243181344121694565 -0.0715530887246131897
0.240859627723693848 -0.294582754373550415 0.3219737708568573
0.248422130942344666 0.0446217022836208344 0.313830584287643433
0.467989623546600342 -0.10109034925699234 0.0339192673563957214
-0.125700712203979492 0.195865228772163391 0.114608332514762878
0.239790678024291992 -0.325919598340988159 0.317396461963653564
0.500344395637512207 -0.365735620260238647 0.0738964378833770752
0.52356266975402832 -0.323854595422744751 0.0255452562123537064
0.444542199373245239 -0.252383559942245483 0.331861376762390137
0.3209686279296875 -0.130593419075012207 -0.107345283031463623
0.0626925230026245117 -0.0100631732493638992 0.321217268705368042
0.51143115758895874 -0.360035359859466553 0.0467977523803710938
0.1349659264087677 -0.0999886244535446167 0.0398905165493488312
0.0486787669360637665 0.0122272539883852005 0.0290218126028776169
0.0199207179248332977 0.0489171743392944336 0.0418584384024143219
0.0874734371900558472 -0.0653794407844543457 0.289145380258560181
-0.162784412503242493 -0.265033066272735596 0.147214695811271667
0.264261007308959961 -0.0193887632340192795 0.0607687607407569885
-0.0296898446977138519 -0.0283512696623802185 0.295035302639007568
0.502294301986694336 -0.239427626132965088 -0.302557438611984253
0.476079493761062622 -0.314018011093139648 -0.302595227956771851
-0.631589412689208984 0.306963592767715454 0.166817978024482727
0.475456058979034424 -0.319961220026016235 0.12026698887348175
0.509177684783935547 -0.299930542707443237 -0.106204986572265625
0.528495550155639648 -0.274004459381103516 -0.317699551582336426
0.493780344724655151 -0.331495672464370728 -0.311316758394241333
0.503579139709472656 -0.319285809993743896 0.0972971022129058838
0.474297463893890381 -0.304841935634613037 -0.29876410961151123
-0.560277760028839111 0.268821299076080322 0.363824605941772461
0.124445095658302307 0.117556087672710419 0.313623726367950439
-0.634261786937713623 0.282868385314941406 0.0537484772503376007
-0.58826756477355957 0.363548338413238525 0.101729169487953186
0.371476203203201294 -0.373138248920440674 -0.213523104786872864
0.438414245843887329 -0.347147226333618164 0.15356522798538208
0.0575059019029140472 0.121999084949493408 0.320564746856689453
-0.575499057769775391 0.369615018367767334 0.214827254414558411
0.264064580202102661 0.0253298226743936539 -0.0594038628041744232
0.368634641170501709 -0.335986703634262085 0.159836187958717346
0.510632753372192383 -0.300649523735046387 -0.112649306654930115
0.13329613208770752 -0.319929152727127075 -0.0984014794230461121
0.516743302345275879 -0.3479481041431427 -0.0209582634270191193
0.389266341924667358 -0.345866650342941284 -0.214848980307579041
-0.577961981296539307 0.319796442985534668 0.0401006266474723816
0.536348819732666016 -0.276978284120559692 -0.321087151765823364
0.468005478382110596 -0.309984415769577026 -0.299897313117980957
0.50732111930847168 -0.346298694610595703 0.0172358360141515732
-0.556944549083709717 0.310508698225021362 0.10145394504070282
0.193628087639808655 -0.338682591915130615 -0.0598416179418563843
0.0696670711040496826 -0.281585067510604858 -0.0784886404871940613
0.252258658409118652 -0.249607443809509277 0.319671958684921265
0.239406228065490723 0.0316587723791599274 0.31635245680809021
-0.122006930410861969 -0.0471935681998729706 0.00750404968857765198
0.178113818168640137 -0.0995386317372322083 -0.0153974145650863647
0.532673478126525879 -0.331483244895935059 -0.0137984100729227066
0.37031245231628418 -0.348599076271057129 -0.209632962942123413
0.535103142261505127 -0.245026752352714539 0.176708459854125977
0.561643302440643311 -0.314943701028823853 -0.331372767686843872
0.554684460163116455 -0.21092619001865387 0.133398130536079407
-0.544268190860748291 0.381573796272277832 0.163743570446968079
0.122236490249633789 0.117831483483314514 0.132363036274909973
-0.58316272497177124 0.352670162916183472 0.0971106737852096558
-0.482902944087982178 0.186684668064117432 -0.0924857109785079956
0.515799582004547119 -0.338379651308059692 0.0381591841578483582
0.253316432237625122 -0.278541088104248047 0.321472734212875366
0.278367578983306885 -0.355186402797698975 -0.126778826117515564
0.508158683776855469 -0.285772144794464111 -0.314223140478134155
-0.433312118053436279 -0.0565778613090515137 0.115760922431945801
0.201413899660110474 0.0911792665719985962 0.222646832466125488
0.243693903088569641 0.105174317955970764 -0.0580074526369571686
-0.196518689393997192 0.20222906768321991 0.348669588565826416
0.249975740909576416 0.0256314016878604889 0.322794198989868164
0.239329069852828979 0.0197140704840421677 0.320493191480636597
-0.0320104435086250305 0.163352757692337036 0.382228374481201172
-0.483706772327423096 -0.015020027756690979 0.17923206090927124
0.483927071094512939 -0.368298888206481934 0.0453294068574905396
-0.644098937511444092 0.287702441215515137 0.085777968168258667
0.275502055883407593 -0.165092140436172485 -0.0711206644773483276
-0.412991434335708618 -0.0562387034296989441 0.0779809951782226562
-0.643632769584655762 0.176181092858314514 -0.0824127718806266785
-0.226900875568389893 -0.133280202746391296 -0.0529155544936656952
0.254797220230102539 -0.264944583177566528 0.320642679929733276
-0.346529543399810791 0.0179812721908092499 -0.117743313312530518
-0.288230150938034058 -0.0908365026116371155 -0.107257597148418427
-0.585919082164764404 0.210364446043968201 -0.218506947159767151
0.267500430345535278 -0.296401739120483398 0.31467890739440918
-0.0262841470539569855 -0.186696887016296387 -0.0440039001405239105
-0.618829071521759033 0.277525365352630615 0.0308793671429157257
-0.609640896320343018 0.298894405364990234 0.0918975919485092163
-0.398709535598754883 -0.0622381791472434998 0.117949247360229492
-0.452876061201095581 -0.0375740677118301392 0.118564605712890625
0.431122362613677979 -0.271021544933319092 0.328709006309509277
-0.053249213844537735 0.141407757997512817 0.0909949243068695068
-0.50403439998626709 0.15171322226524353 0.354667693376541138
0.240747600793838501 -0.318739533424377441 0.322306931018829346
0.497352898120880127 -0.370123445987701416 0.0566626675426959991
0.39923703670501709 -0.256144702434539795 0.321974575519561768
-0.158910363912582397 -0.263034135103225708 0.18086676299571991
-0.500318706035614014 0.014608403667807579 0.157188773155212402
0.417619168758392334 -0.296663045883178711 0.32823103666305542
0.535621523857116699 -0.33947300910949707 -0.0190257597714662552
0.344106584787368774 -0.266652226448059082 -0.128525882959365845
-0.497615158557891846 0.0725773870944976807 0.20306020975112915
0.443692147731781006 -0.271464288234710693 0.332948744297027588
0.522297143936157227 -0.334694057703018188 0.0321776121854782104
0.453546851873397827 -0.319122880697250366 -0.293651700019836426
0.474314302206039429 -0.310969799757003784 0.116001471877098083
0.517560780048370361 -0.277667194604873657 -0.313312411308288574
0.503015697002410889 -0.325185298919677734 -0.314859479665756226
0.518367528915405273 -0.326417714357376099 0.101286068558692932
0.479560673236846924 -0.310652762651443481 -0.302762269973754883
0.114011481404304504 0.119153819978237152 0.288441181182861328
-0.122749745845794678 0.269324839115142822 0.158090278506278992
-0.615594267845153809 0.266009867191314697 0.0515482276678085327
-0.480682283639907837 0.00368227483704686165 0.180347919464111328
0.426738083362579346 -0.354344159364700317 0.157836958765983582
-0.293366968631744385 -0.109917402267456055 -0.106521390378475189
0.129982024431228638 0.0660650879144668579 0.320730447769165039
0.253138422966003418 0.0392373055219650269 -0.0785118639469146729
0.234906941652297974 0.0943971797823905945 -0.053821023553609848
0.417657017707824707 -0.260785520076751709 -0.203001439571380615
0.521980941295623779 -0.353949189186096191 -0.0200784280896186829
-0.609605789184570312 0.38170430064201355 0.180728495121002197
0.517916083335876465 -0.278568774461746216 -0.315232247114181519
0.499320060014724731 -0.349309772253036499 0.0234107282012701035
-0.588732123374938965 0.369918555021286011 0.112424194812774658
0.505855798721313477 -0.104018479585647583 0.146704733371734619
-0.198960363864898682 0.312262028455734253 0.112184509634971619
0.263937503099441528 -0.285988360643386841 0.319285303354263306
0.236441105604171753 0.0627634376287460327 0.309982478618621826
-0.145474731922149658 -0.042926594614982605 0.00354716461151838303
-0.658357083797454834 0.215092286467552185 -0.046552073210477829
-0.289689123630523682 -0.0753354430198669434 -0.0693819150328636169
0.22663511335849762 0.0426957421004772186 -0.0488583780825138092
0.551652371883392334 -0.143811032176017761 0.131551891565322876
0.519965767860412598 -0.294678866863250732 0.0742760896682739258
0.517850399017333984 -0.283299952745437622 -0.181764021515846252
-0.359280437231063843 -0.0164982005953788757 -0.0288111567497253418
0.0907780826091766357 0.0886987373232841492 0.0850131809711456299
0.466742277145385742 -0.36119493842124939 -0.0113982586190104485
-0.434150040149688721 0.158339783549308777 -0.0673564225435256958
0.524072051048278809 -0.334969222545623779 0.0682719796895980835
0.262794584035873413 -0.285358309745788574 0.318007469177246094
0.00856068730354309082 -0.0904534757137298584 -0.0266504306346178055
0.0318339057266712189 -0.129865258932113647 0.0213160030543804169
-0.631427109241485596 0.265484869480133057 0.0285826101899147034
0.241658389568328857 0.0749375820159912109 0.318252712488174438
0.239715814590454102 0.0301839765161275864 0.318370014429092407
-0.175728395581245422 0.301533788442611694 0.115579679608345032
0.30429762601852417 -0.150631576776504517 0.307335317134857178
0.261838704347610474 -0.2901630699634552 0.320494353771209717
-0.477408885955810547 -0.00761937350034713745 0.16528657078742981
0.242289751768112183 0.0823756977915763855 0.311594307422637939
0.520501971244812012 -0.350624561309814453 0.0812858790159225464
-0.035480886697769165 -0.237120479345321655 0.123487427830696106
-0.63894730806350708 0.290499657392501831 0.0983773618936538696
-0.235224366188049316 -0.132247045636177063 -0.0587097927927970886
-0.380444496870040894 -0.108233168721199036 0.104574248194694519
-0.237413302063941956 -0.147267326712608337 -0.0585620924830436707
-0.658566296100616455 0.214785277843475342 -0.0342622064054012299
0.529174923896789551 -0.351959943771362305 0.0772448480129241943
-0.621918380260467529 0.270776212215423584 0.0519709028303623199
-0.405333936214447021 -0.0637836456298828125 0.111124575138092041
-0.44753149151802063 -0.0409597158432006836 0.121068701148033142
0.267904162406921387 -0.285044848918914795 0.322973847389221191
0.127483278512954712 -0.32620924711227417 0.312088906764984131
0.152188047766685486 -0.342689067125320435 0.317354708909988403
0.447885692119598389 -0.334884107112884521 -0.293635189533233643
0.515955626964569092 -0.302231580018997192 -0.108561240136623383
0.515528202056884766 -0.279537439346313477 -0.313335895538330078
0.4851226806640625 -0.326944708824157715 -0.310375720262527466
0.46455809473991394 -0.345146685838699341 -0.303297042846679688
0.549919545650482178 -0.209550067782402039 -0.316373586654663086
0.524462759494781494 -0.299328505992889404 -0.322969585657119751
0.518303275108337402 -0.300134718418121338 -0.31888282299041748
0.246371358633041382 0.0576615631580352783 0.31585162878036499
0.240861073136329651 0.0881281867623329163 0.312160223722457886
-0.292858719825744629 -0.0999068319797515869 -0.102652966976165771
-0.454782664775848389 -0.0514463856816291809 0.116171330213546753
0.404738366603851318 -0.271569252014160156 0.322007149457931519
-0.503582656383514404 0.00430509727448225021 0.188234120607376099
0.40104973316192627 -0.286554962396621704 0.324313193559646606
0.399173170328140259 -0.272866964340209961 0.322800785303115845
0.341969162225723267 -0.25830155611038208 0.0893843173980712891
-0.0193550344556570053 -0.243917077779769897 0.128060922026634216
-0.46571698784828186 0.0365433096885681152 0.188606277108192444
-0.195356547832489014 0.222263634204864502 0.171262547373771667
0.366693258285522461 -0.328588336706161499 -0.0242538172751665115
0.323365330696105957 -0.389391601085662842 -0.159610539674758911
0.535702168941497803 -0.322914212942123413 -0.0588017143309116364
-0.442983418703079224 -0.00417058542370796204 0.151757776737213135
-0.0199420712888240814 -0.0589771568775177002 0.141134083271026611
-0.000811448320746421814 -0.235644400119781494 0.105788484215736389
0.526265978813171387 -0.20108264684677124 -0.0805656835436820984
0.44990694522857666 -0.307565659284591675 -0.293508768081665039
0.527162253856658936 -0.274705201387405396 -0.316159427165985107
0.500198721885681152 -0.324133425951004028 -0.313235461711883545
0.475377529859542847 -0.304269909858703613 -0.298018366098403931
-0.128338351845741272 0.247274294495582581 0.138252347707748413
-0.649551630020141602 0.282493054866790771 0.0938294082880020142
-0.19982476532459259 0.287330776453018188 0.335313290357589722
0.497785747051239014 -0.0860360264778137207 0.136044740676879883
0.200528472661972046 -0.358587116003036499 -0.0914672240614891052
0.50560837984085083 -0.366967886686325073 -0.023375997319817543
0.52738577127456665 -0.241969048976898193 0.17239755392074585
-0.586876928806304932 0.37998509407043457 0.170007631182670593
0.445121616125106812 -0.314159750938415527 -0.288390606641769409
0.498371988534927368 -0.11039811372756958 0.111551821231842041
-0.65631335973739624 0.175850182771682739 -0.104096196591854095
-0.202953457832336426 0.309453457593917847 0.0883965790271759033
0.200749501585960388 -0.013015255331993103 0.29475364089012146
0.159356206655502319 -0.0616176798939704895 -0.0446457415819168091
-0.580437660217285156 0.30285954475402832 0.368107378482818604
0.274443328380584717 0.0989305451512336731 -0.0299043804407119751
-0.436517924070358276 0.156040310859680176 -0.0868685394525527954
0.534705281257629395 -0.332349270582199097 0.0121414950117468834
-0.569693267345428467 0.197830319404602051 -0.229635477066040039
-0.498856782913208008 0.0455775819718837738 -0.0876382887363433838
0.03066297248005867 -0.103467695415019989 0.0324577838182449341
0.53442835807800293 -0.263752490282058716 -0.316782206296920776
0.00901922769844532013 0.198209807276725769 0.026903841644525528
0.301567435264587402 0.0394741743803024292 -0.0852176398038864136
-0.333347052335739136 -0.015322783961892128 -0.108488753437995911
0.235989972949028015 0.01506826002150774 0.321305185556411743
0.124476224184036255 0.0135428765788674355 0.298461318016052246
0.527790367603302002 -0.354477167129516602 0.0656915158033370972
0.467220723628997803 -0.309046268463134766 -0.23377564549446106
-0.652511298656463623 0.285832196474075317 0.103947550058364868
