ply
format ascii 1.0
element vertex 738
property float x
property float y
property float z
end_header
0.278021931648254395 -0.355120629072189331 -0.126704633235931396
0.507687509059906006 -0.285785108804702759 -0.314218640327453613
-0.431972086429595947 -0.0566783100366592407 0.116198517382144928
0.201969504356384277 0.0908587425947189331 0.222702175378799438
0.244307070970535278 0.104917943477630615 -0.0580761171877384186
-0.19613221287727356 0.202182650566101074 0.348424732685089111
0.250364869832992554 0.0256783943623304367 0.32255476713180542
0.239748105406761169 0.0198006369173526764 0.320405930280685425
-0.0311308931559324265 0.163619190454483032 0.382412165403366089
-0.48304671049118042 -0.0150099173188209534 0.179535940289497375
0.483728349208831787 -0.368342190980911255 0.045423850417137146
-0.643597722053527832 0.287780553102493286 0.0860506296157836914
0.276391029357910156 -0.165598422288894653 -0.0710900500416755676
-0.412295490503311157 -0.0562874674797058105 0.0782051831483840942
-0.642991244792938232 0.176081985235214233 -0.0821207910776138306
-0.226147890090942383 -0.133306428790092468 -0.0528238266706466675
0.254719972610473633 -0.264916360378265381 0.32073405385017395
-0.345881193876266479 0.0177942737936973572 -0.117652595043182373
-0.287633419036865234 -0.0906497836112976074 -0.106712713837623596
-0.585426509380340576 0.210261926054954529 -0.218416914343833923
0.26712876558303833 -0.296350717544555664 0.314867138862609863
-0.0258959606289863586 -0.186703935265541077 -0.0439186021685600281
-0.61819082498550415 0.277620792388916016 0.0311923474073410034
-0.608683764934539795 0.298864156007766724 0.0921123325824737549
-0.397565513849258423 -0.0623753294348716736 0.118622578680515289
-0.451491594314575195 -0.0374974384903907776 0.11889667809009552
0.430641621351242065 -0.271012067794799805 0.328846603631973267
-0.0526049211621284485 0.141281053423881531 0.0912523120641708374
-0.503700733184814453 0.151809200644493103 0.354916632175445557
0.2407989501953125 -0.318688809871673584 0.322290509939193726
0.497228652238845825 -0.37016633152961731 0.0567505583167076111
0.39887043833732605 -0.25608864426612854 0.322145432233810425
-0.158501684665679932 -0.263019770383834839 0.180794715881347656
-0.499522000551223755 0.0146697945892810822 0.157411456108093262
0.417117118835449219 -0.296569734811782837 0.328329086303710938
0.535537660121917725 -0.339373737573623657 -0.0189515370875597
0.343518942594528198 -0.266476213932037354 -0.128160446882247925
-0.4965171217918396 0.072461351752281189 0.203263595700263977
0.443239003419876099 -0.271466821432113647 0.333183258771896362
0.522356808185577393 -0.334578633308410645 0.0322207137942314148
0.453086704015731812 -0.319146126508712769 -0.293618381023406982
0.473985373973846436 -0.310913652181625366 0.116352826356887817
0.517282843589782715 -0.277716785669326782 -0.313338756561279297
0.50258934497833252 -0.325206011533737183 -0.314828544855117798
0.518209636211395264 -0.326236695051193237 0.101371884346008301
0.479061126708984375 -0.310804128646850586 -0.30280640721321106
0.114498957991600037 0.119089134037494659 0.28834223747253418
-0.122176676988601685 0.269343197345733643 0.15834200382232666
-0.614815473556518555 0.265963256359100342 0.051668509840965271
-0.479998856782913208 0.00359504343941807747 0.180488079786300659
0.426531672477722168 -0.354440838098526001 0.157893434166908264
-0.292707651853561401 -0.109808102250099182 -0.106003224849700928
0.130691096186637878 0.0661948025226593018 0.320601165294647217
0.253475964069366455 0.0392129980027675629 -0.0785170197486877441
0.235342293977737427 0.0944176912307739258 -0.0538523532450199127
0.417117148637771606 -0.260811150074005127 -0.202957421541213989
0.521870613098144531 -0.353801459074020386 -0.0200305171310901642
-0.60918813943862915 0.381747126579284668 0.181078329682350159
0.517636001110076904 -0.278626799583435059 -0.315258055925369263
0.49920693039894104 -0.34923851490020752 0.02364317886531353
-0.588078856468200684 0.37016218900680542 0.11286628246307373
0.505745172500610352 -0.104127191007137299 0.146805331110954285
-0.198193192481994629 0.312190085649490356 0.11258215457201004
0.263715773820877075 -0.285935699939727783 0.319534957408905029
0.237050265073776245 0.0626685917377471924 0.309937745332717896
-0.145057246088981628 -0.0429438948631286621 0.00357641186565160751
-0.657395303249359131 0.21499083936214447 -0.0463473610579967499
-0.289071142673492432 -0.075582846999168396 -0.0692800581455230713
0.227127745747566223 0.0425579436123371124 -0.0488350726664066315
0.551437258720397949 -0.1437949538230896 0.131542354822158813
0.519645750522613525 -0.294636756181716919 0.0743397027254104614
0.517587482929229736 -0.283337712287902832 -0.181593075394630432
-0.358357608318328857 -0.0166645143181085587 -0.028448157012462616
0.0913084745407104492 0.0885419175028800964 0.0854115784168243408
0.466499060392379761 -0.361232757568359375 -0.0112785911187529564
-0.433479517698287964 0.158226519823074341 -0.067105025053024292
0.523870944976806641 -0.334867388010025024 0.0683981478214263916
0.262635320425033569 -0.285299777984619141 0.318183600902557373
0.009267415851354599 -0.0908217057585716248 -0.0265036728233098984
0.0324769578874111176 -0.130171015858650208 0.021458107978105545
-0.630969524383544922 0.265503376722335815 0.0288581103086471558
0.242136359214782715 0.0750153511762619019 0.317952871322631836
0.239922940731048584 0.03027384914457798 0.318231701850891113
-0.174991339445114136 0.301485240459442139 0.11585940420627594
0.304247230291366577 -0.15053403377532959 0.307702600955963135
0.261598914861679077 -0.29012531042098999 0.320745140314102173
-0.476821333169937134 -0.00754760392010211945 0.165585249662399292
0.242814779281616211 0.0824548900127410889 0.311755776405334473
0.520408809185028076 -0.350532799959182739 0.081310763955116272
-0.035002589225769043 -0.237313240766525269 0.123331576585769653
-0.638004302978515625 0.290637403726577759 0.0987608879804611206
-0.234814852476119995 -0.13218669593334198 -0.0585491657257080078
-0.379230380058288574 -0.108027830719947815 0.10503656417131424
-0.236660271883010864 -0.14725823700428009 -0.0583176165819168091
-0.657654404640197754 0.214766621589660645 -0.0339228324592113495
0.528922855854034424 -0.351970881223678589 0.0772430449724197388
-0.621236085891723633 0.270836353302001953 0.0522004887461662292
-0.404196113348007202 -0.0637751370668411255 0.111749112606048584
-0.446290314197540283 -0.0408805049955844879 0.121364191174507141
0.267634391784667969 -0.285055935382843018 0.323240220546722412
0.127790123224258423 -0.326102495193481445 0.311946332454681396
0.152563750743865967 -0.342704415321350098 0.317129135131835938
0.44746360182762146 -0.33499571681022644 -0.293599367141723633
0.51592022180557251 -0.302147597074508667 -0.108521819114685059
0.515250980854034424 -0.279554665088653564 -0.313380300998687744
0.484699755907058716 -0.327003449201583862 -0.3103676438331604
0.464035093784332275 -0.345231622457504272 -0.303202956914901733
0.549263656139373779 -0.209629207849502563 -0.31616288423538208
0.524097740650177002 -0.29927411675453186 -0.322949856519699097
0.518004834651947021 -0.300121903419494629 -0.318905353546142578
0.246905505657196045 0.0576882213354110718 0.315823018550872803
0.241367354989051819 0.088192179799079895 0.312147617340087891
-0.29234844446182251 -0.0997825562953948975 -0.102215006947517395
-0.453232824802398682 -0.0511723384261131287 0.116836518049240112
0.404402732849121094 -0.271466583013534546 0.322230279445648193
-0.50284111499786377 0.00428897608071565628 0.188422858715057373
0.40066826343536377 -0.286571115255355835 0.324590742588043213
0.398887187242507935 -0.272751927375793457 0.323102474212646484
0.341655999422073364 -0.258284330368041992 0.089445061981678009
-0.0190874803811311722 -0.243932336568832397 0.128092274069786072
-0.464982450008392334 0.0363789275288581848 0.188614308834075928
-0.194862931966781616 0.222183004021644592 0.171250596642494202
0.366496741771697998 -0.328575700521469116 -0.024057069793343544
0.32307860255241394 -0.389347970485687256 -0.159648537635803223
0.535482048988342285 -0.322791725397109985 -0.0587934926152229309
-0.442394822835922241 -0.00402516685426235199 0.152040764689445496
-0.0190189406275749207 -0.0592167526483535767 0.141242504119873047
-0.000541677698493003845 -0.235832467675209045 0.105825707316398621
0.526035070419311523 -0.201012462377548218 -0.0804175883531570435
0.449363380670547485 -0.307688325643539429 -0.293450623750686646
0.526856064796447754 -0.27472233772277832 -0.316185861825942993
0.4998188316822052 -0.324129998683929443 -0.313262909650802612
0.474704355001449585 -0.30437353253364563 -0.298022001981735229
-0.127502322196960449 0.247145652770996094 0.138564720749855042
-0.648948550224304199 0.282723575830459595 0.0942737683653831482
-0.19958341121673584 0.287286758422851562 0.33524787425994873
0.497672885656356812 -0.0860065966844558716 0.136076882481575012
0.200576379895210266 -0.358565688133239746 -0.0914420932531356812
0.505502939224243164 -0.366932392120361328 -0.0233262237161397934
0.527203202247619629 -0.241964638233184814 0.172513961791992188
-0.586468279361724854 0.380016952753067017 0.170176014304161072
0.444695204496383667 -0.314265727996826172 -0.288343191146850586
0.498369276523590088 -0.110481776297092438 0.111622989177703857
-0.655438363552093506 0.175674483180046082 -0.103890314698219299
-0.202420607209205627 0.309580475091934204 0.0888514965772628784
0.200988233089447021 -0.013100774958729744 0.29493829607963562
0.160073265433311462 -0.0617424696683883667 -0.0447518602013587952
-0.579735934734344482 0.302895545959472656 0.368491441011428833
0.274816572666168213 0.0987836495041847229 -0.0299266986548900604
-0.436320722103118896 0.156257376074790955 -0.0868073254823684692
0.534595489501953125 -0.332211613655090332 0.0121984435245394707
-0.569142818450927734 0.197782903909683228 -0.229495957493782043
-0.498320549726486206 0.0456016436219215393 -0.0875055268406867981
0.0317983813583850861 -0.103963509202003479 0.0323914438486099243
0.533929407596588135 -0.26371726393699646 -0.31673961877822876
0.00930320285260677338 0.198237061500549316 0.026971917599439621
0.301740109920501709 0.0393512658774852753 -0.0852253884077072144
-0.33256801962852478 -0.0153889860957860947 -0.108220696449279785
0.236635148525238037 0.0151293454691767693 0.321083664894104004
0.125100165605545044 0.0134079521521925926 0.298051267862319946
0.527665317058563232 -0.354498356580734253 0.0656795352697372437
0.466610491275787354 -0.309245109558105469 -0.233655393123626709
-0.652065098285675049 0.286018192768096924 0.104377828538417816
0.546355009078979492 -0.219316393136978149 0.163152247667312622
0.528026878833770752 -0.322493940591812134 -0.0166169870644807816
-0.383018702268600464 -0.0555736720561981201 0.0758396834135055542
0.45662921667098999 -0.310266494750976562 -0.292861670255661011
0.505077600479125977 -0.339051216840744019 -0.318379253149032593
0.478599667549133301 -0.313696891069412231 -0.300108432769775391
0.520454585552215576 -0.300537794828414917 -0.317859768867492676
-0.0027407035231590271 -0.139293089509010315 -0.0250565297901630402
0.3971443772315979 -0.272317022085189819 0.323329180479049683
0.400733113288879395 -0.270713210105895996 0.323534667491912842
0.50613248348236084 -0.331134319305419922 0.105412557721138
-0.467881560325622559 0.0429564863443374634 0.169952929019927979
0.409905165433883667 -0.345233649015426636 0.15580284595489502
-0.36166912317276001 -0.034584779292345047 -0.148928090929985046
-0.128343090415000916 -0.267185360193252563 0.111907482147216797
0.512699246406555176 -0.368226379156112671 -0.0152887962758541107
-0.213863104581832886 0.313298076391220093 0.0972306281328201294
0.250501811504364014 -0.286487758159637451 0.322552382946014404
0.208626598119735718 0.010081087239086628 -0.0465698689222335815
0.0700878798961639404 -0.151504918932914734 -0.0176734644919633865
-0.169810578227043152 0.305452406406402588 0.118546470999717712
0.47096174955368042 -0.363660633563995361 0.00639150943607091904
-0.291451930999755859 -0.0985828638076782227 -0.103468835353851318
0.037035670131444931 -0.149783924221992493 -0.0221834611147642136
0.232223302125930786 0.056832578033208847 0.30868038535118103
0.253328442573547363 -0.288047671318054199 0.320332884788513184
-0.471886545419692993 0.0015764324925839901 0.167949631810188293
0.241290777921676636 0.063228316605091095 0.312331289052963257
0.509072601795196533 -0.351297676563262939 0.0633779987692832947
0.227472603321075439 -0.314221352338790894 0.314122527837753296
-0.375487178564071655 -0.0924502760171890259 0.0857136547565460205
-0.0627747401595115662 -0.241091504693031311 0.302144706249237061
-0.222816184163093567 -0.12706775963306427 -0.05355086550116539
-0.409970730543136597 -0.0648320168256759644 0.0978912189602851868
-0.445055067539215088 -0.0441726371645927429 0.131877303123474121
0.239066854119300842 -0.293507784605026245 0.313903898000717163
0.153874918818473816 -0.32382434606552124 0.319686025381088257
0.424872696399688721 -0.255270302295684814 0.328375488519668579
0.437985002994537354 -0.342053472995758057 -0.29328879714012146
0.506512880325317383 -0.333717226982116699 -0.318524777889251709
0.444873720407485962 -0.351519346237182617 -0.28731614351272583
0.238335102796554565 0.0663199424743652344 0.311435401439666748
0.402935594320297241 -0.286773920059204102 0.325697898864746094
-0.494956731796264648 0.00727492524310946465 0.187774136662483215
0.485676944255828857 -0.0625504180788993835 0.13124200701713562
0.0126490890979766846 -0.170529842376708984 0.00949188880622386932
0.531585812568664551 -0.306739509105682373 -0.0626318603754043579
0.314254462718963623 -0.30149427056312561 -0.127158239483833313
0.445477753877639771 -0.290653914213180542 -0.286062508821487427
-0.33701479434967041 0.225337386131286621 0.124974474310874939
-0.400644630193710327 -0.0275417957454919815 -0.00241985823959112167
0.402755558490753174 -0.270895272493362427 0.32391965389251709
-0.133673518896102905 0.196477711200714111 0.166888415813446045
0.398827999830245972 -0.270816445350646973 0.323778450489044189
-0.446453303098678589 -0.0243821814656257629 0.0209895316511392593
-0.137821689248085022 0.245521858334541321 0.191408440470695496
-0.612670958042144775 0.294821351766586304 0.183400005102157593
0.125023797154426575 0.1169109046459198 0.315871745347976685
-0.120902270078659058 0.251355469226837158 0.161518648266792297
-0.583393096923828125 0.348818719387054443 0.0578272715210914612
0.426734179258346558 -0.347424238920211792 0.152398616075515747
-0.566807746887207031 0.295693665742874146 -0.0693796426057815552
0.251638621091842651 0.0273849647492170334 -0.0801871418952941895
0.247521623969078064 0.101041577756404877 -0.0490068793296813965
-0.358179539442062378 -0.054936923086643219 -0.142576009035110474
0.198821917176246643 0.120646022260189056 0.0352162458002567291
0.54552847146987915 -0.130884349346160889 0.111591890454292297
-0.581413865089416504 0.322226136922836304 -0.0232133436948060989
0.206338196992874146 0.0252664405852556229 0.176255688071250916
-0.595550715923309326 0.375969588756561279 0.171825528144836426
0.444673627614974976 -0.31847536563873291 0.1267576664686203
0.255301177501678467 -0.277993053197860718 0.31602400541305542
0.235841080546379089 0.0245671365410089493 0.315925180912017822
-0.363315612077713013 -0.048887450248003006 -0.0242347270250320435
-0.182632714509963989 0.11868547648191452 0.0416114591062068939
0.254810333251953125 -0.28738364577293396 0.31900942325592041
0.242007344961166382 0.033900044858455658 0.321225076913833618
0.399714350700378418 0.0241214800626039505 0.114465795457363129
-0.341065406799316406 -0.0652952715754508972 -0.14796997606754303
0.0759642720222473145 -0.332370460033416748 0.298534780740737915
-0.386509567499160767 -0.0599808096885681152 0.0933424234390258789
-0.447725653648376465 -0.0406165271997451782 0.127189651131629944
0.43905031681060791 -0.278358042240142822 0.333501964807510376
0.0345473997294902802 -0.122390344738960266 -0.0260413922369480133
0.414188086986541748 -0.279826104640960693 0.326574921607971191
0.432668566703796387 -0.295190542936325073 0.332971006631851196
0.367549091577529907 -0.277800023555755615 -0.130763053894042969
-0.478057324886322021 0.00215383619070053101 0.187520474195480347
-0.291885912418365479 -0.0952221900224685669 -0.104766607284545898
0.24172230064868927 -0.312189489603042603 0.309189021587371826
0.473264068365097046 -0.353374570608139038 0.00640991702675819397
-0.296758919954299927 -0.0953500494360923767 -0.107067510485649109
0.244733855128288269 -0.287773609161376953 0.319765746593475342
0.0625922828912734985 -0.329032808542251587 0.296465784311294556
0.158078208565711975 -0.267075777053833008 -0.105959072709083557
0.25048336386680603 0.0641532689332962036 0.314602136611938477
-0.482772201299667358 -0.00698760151863098145 0.177435204386711121
0.236588850617408752 0.0672881230711936951 0.313887119293212891
0.238982990384101868 -0.330980032682418823 0.320980846881866455
-0.381669998168945312 -0.0911847427487373352 0.0364145562052726746
-0.216358214616775513 -0.139209166169166565 -0.054724469780921936
-0.382488608360290527 -0.0626865774393081665 0.0830321758985519409
0.150234639644622803 -0.331018745899200439 0.331334829330444336
0.445609062910079956 -0.278909653425216675 0.333399653434753418
0.407253414392471313 -0.279552966356277466 0.324783086776733398
-0.502279758453369141 0.00727899745106697083 0.187960654497146606
-0.32193756103515625 0.0980029329657554626 -0.0708794444799423218
0.532439529895782471 -0.206565842032432556 -0.0529595725238323212
0.450736582279205322 -0.293081730604171753 -0.291040182113647461
0.487528860569000244 -0.324312150478363037 -0.31146085262298584
0.446208566427230835 -0.308868259191513062 -0.2914467453956604
-0.577409088611602783 0.269865840673446655 0.365658700466156006
-0.461908906698226929 0.106536529958248138 -0.231439739465713501
0.374654501676559448 -0.317862570285797119 0.198434948921203613
-0.589787065982818604 0.367771744728088379 0.130944013595581055
0.392570644617080688 -0.35245746374130249 -0.21825052797794342
0.440984666347503662 -0.309401154518127441 -0.289592891931533813
-0.200661569833755493 0.306351006031036377 0.094742119312286377
-0.155652076005935669 0.268675714731216431 0.15116196870803833
0.53016364574432373 -0.337588191032409668 0.0711988136172294617
0.463364064693450928 -0.265391349792480469 -0.21811327338218689
-0.633560895919799805 0.276609271764755249 0.106903038918972015
0.43822944164276123 -0.307666599750518799 -0.28778114914894104
0.515726268291473389 -0.276318967342376709 -0.317339658737182617
0.517023682594299316 -0.339447885751724243 -0.3213329017162323
0.454323649406433105 -0.306247085332870483 -0.293775677680969238
0.490960091352462769 -0.320976614952087402 0.0937526822090148926
0.020829811692237854 -0.275086879730224609 -0.0188167765736579895
-0.65338444709777832 0.172222703695297241 -0.108138427138328552
-0.224320650100708008 0.319219261407852173 0.120831653475761414
0.465311020612716675 -0.363267630338668823 0.00525696668773889542
0.481225490570068359 -0.336023300886154175 0.0496468842029571533
0.511908054351806641 -0.338483184576034546 -0.319986552000045776
0.440065652132034302 -0.35561215877532959 -0.298353135585784912
-0.270116806030273438 0.322844147682189941 0.041586756706237793
0.423932164907455444 -0.312579840421676636 -0.282348513603210449
0.415377914905548096 -0.294318675994873047 0.328088611364364624
-0.326212018728256226 -0.074706733226776123 0.122865334153175354
-0.367169052362442017 -0.0658927038311958313 0.154186099767684937
-0.338542044162750244 0.215644687414169312 0.131813719868659973
0.0103190522640943527 0.119782663881778717 0.104677885770797729
0.542279839515686035 -0.308275967836380005 -0.0467509180307388306
0.0137273259460926056 -0.261371701955795288 0.0391379296779632568
-0.00349554605782032013 -0.236065924167633057 0.0937198549509048462
0.000446327030658721924 -0.219286292791366577 0.0809850841760635376
0.464806705713272095 -0.360104799270629883 0.029744904488325119
-0.269662350416183472 -0.137350082397460938 0.176651328802108765
-0.34480711817741394 -0.0650940015912055969 0.140733629465103149
0.123754054307937622 -0.276373684406280518 0.128237977623939514
-0.13408958911895752 0.0794873237609863281 0.0897645652294158936
0.463232487440109253 -0.0538220927119255066 0.0171959977596998215
-0.0140837486833333969 -0.216335654258728027 0.0798350423574447632
-0.554971873760223389 0.392532855272293091 0.147289589047431946
0.496763706207275391 -0.365896165370941162 0.00468155089765787125
-0.610583066940307617 0.294857144355773926 0.186187207698822021
0.530204057693481445 -0.274348050355911255 -0.318160712718963623
0.370084255933761597 -0.26385343074798584 0.180937334895133972
0.420267075300216675 -0.343706250190734863 0.15012030303478241
0.251930534839630127 0.0397591963410377502 -0.0674616917967796326
0.549492597579956055 -0.149159088730812073 0.123677261173725128
-0.570855498313903809 0.284663200378417969 -0.00696041248738765717
0.501040279865264893 -0.361705034971237183 -0.00163593748584389687
0.20857691764831543 0.116210334002971649 -0.0111335329711437225
-0.289383143186569214 -0.0849812477827072144 -0.0670095980167388916
0.158983469009399414 -0.082643657922744751 -0.0365874171257019043
-0.339616149663925171 -0.104910865426063538 0.140845894813537598
0.511205554008483887 -0.280553936958312988 -0.313807964324951172
-0.339227080345153809 -0.0788294151425361633 0.0383526161313056946
-0.369774758815765381 0.28153151273727417 -0.0631504431366920471
0.510013937950134277 -0.340119808912277222 0.064546242356300354
0.30168578028678894 -0.205085903406143188 0.247523799538612366
0.543042838573455811 -0.311126619577407837 -0.0611745081841945648
0.141854166984558105 0.0701226145029067993 0.335867911577224731
-0.594363212585449219 0.267957448959350586 0.011666150763630867
0.221798539161682129 -0.00651558674871921539 0.295013666152954102
0.230975285172462463 0.0350518599152565002 0.312303841114044189
0.533656299114227295 -0.318666696548461914 -0.0133165698498487473
-0.389403253793716431 -0.0631924420595169067 0.105479046702384949
-0.44720458984375 -0.0393812060356140137 0.126070514321327209
0.495663881301879883 -0.0906555280089378357 0.153919145464897156
0.251109510660171509 0.0638558641076087952 0.315686881542205811
-0.29132080078125 -0.0918721407651901245 0.306615144014358521
-0.366343647241592407 -0.114027693867683411 0.103527799248695374
-0.563380181789398193 0.127882689237594604 -0.0788524448871612549
-0.501460790634155273 0.0241485629230737686 0.186144784092903137
0.518268227577209473 -0.296541988849639893 -0.314639478921890259
0.472331911325454712 -0.327434748411178589 -0.300515264272689819
-0.573936998844146729 0.269521176815032959 0.362576156854629517
-0.571321964263916016 0.355700165033340454 0.166691645979881287
-0.191511243581771851 0.305353701114654541 0.101033106446266174
-0.661721467971801758 0.240352720022201538 0.0416569486260414124
-0.505217909812927246 0.145123034715652466 0.352846771478652954
0.507330060005187988 -0.346314400434494019 -0.318913817405700684
-0.200468569993972778 0.305804699659347534 0.101772934198379517
0.475138336420059204 -0.356905847787857056 0.00399253424257040024
0.509779095649719238 -0.329908996820449829 0.0658169090747833252
-0.610609233379364014 0.368177175521850586 0.0875023156404495239
-0.562429487705230713 0.28882986307144165 -0.0563703030347824097
0.219986259937286377 0.0109600238502025604 0.308593243360519409
0.240524917840957642 0.00592206884175539017 0.320918619632720947
-0.360254108905792236 -0.0559775345027446747 -0.138502210378646851
0.398883074522018433 -0.251944541931152344 0.321610331535339355
0.399138301610946655 -0.262300312519073486 0.32456892728805542
0.224076569080352783 -0.323447972536087036 0.32023957371711731
0.410631805658340454 -0.267059355974197388 0.324820637702941895
-0.508961021900177002 0.0501743108034133911 0.194631367921829224
-0.6308135986328125 0.156865358352661133 -0.0526923425495624542
-0.502168774604797363 0.147746369242668152 0.344935327768325806
0.521238327026367188 -0.349924832582473755 -0.323667019605636597
0.495461404323577881 -0.347520202398300171 -0.000248095951974391937
-0.198344826698303223 0.0168891064822673798 -0.0505735240876674652
-0.557804882526397705 0.342542171478271484 -0.00600860454142093658
0.488540977239608765 -0.359765797853469849 0.0403431765735149384
0.448868989944458008 -0.0737653225660324097 0.00136080896481871605
-0.556561827659606934 0.38603624701499939 0.157380595803260803
0.374184280633926392 -0.0805586278438568115 -0.120712220668792725
-0.389752298593521118 0.320259213447570801 0.167888954281806946
-0.384811848402023315 0.32904428243637085 0.196545541286468506
-0.364571720361709595 0.238747864961624146 -0.0841618329286575317
-0.407690227031707764 0.200063765048980713 0.0401713475584983826
-0.644070982933044434 0.287529587745666504 0.0938452482223510742
0.408690929412841797 -0.346500635147094727 0.135617956519126892
0.222346872091293335 0.0832368135452270508 -0.0342494361102581024
0.498488336801528931 -0.160562396049499512 0.123102016746997833
0.500171780586242676 -0.0921672359108924866 0.134093016386032104
0.21506895124912262 0.00236736563965678215 0.29889446496963501
-0.3534565269947052 -0.067383110523223877 -0.00973006803542375565
-0.385847806930541992 0.266775578260421753 -0.0722953528165817261
0.506695151329040527 -0.346351504325866699 0.0542930066585540771
-0.357616722583770752 -0.0554471909999847412 -0.146078005433082581
0.132462739944458008 0.0732459127902984619 0.321420967578887939
-0.0995054617524147034 -0.265038967132568359 0.00578912859782576561
0.242483437061309814 0.0240962859243154526 0.321199566125869751
-0.480634331703186035 -0.010963980108499527 0.184884041547775269
0.242614537477493286 0.0489810071885585785 0.316601812839508057
-0.2782745361328125 0.33351781964302063 0.0403467006981372833
0.369650959968566895 -0.0304373502731323242 -0.0407020598649978638
0.520455658435821533 -0.347162634134292603 -0.0370411761105060577
0.29333120584487915 -0.0117641054093837738 0.0362689904868602753
-0.643880605697631836 0.285501301288604736 0.0926552414894104004
0.0359504967927932739 0.137177988886833191 0.0845434814691543579
-0.397026389837265015 -0.0572061948478221893 0.125228121876716614
-0.441538900136947632 -0.0377759300172328949 0.130347698926925659
0.523941934108734131 -0.316726088523864746 -0.0660553872585296631
0.422221124172210693 -0.279221504926681519 0.330852210521697998
0.509903073310852051 -0.344211101531982422 0.05648006871342659
0.403516948223114014 -0.25810551643371582 0.323159486055374146
-0.480496197938919067 0.0186590775847434998 0.175902009010314941
0.235864445567131042 0.0691059082746505737 0.313428968191146851
-0.479776859283447266 -0.00766739808022975922 0.166736125946044922
0.239419609308242798 0.0680437535047531128 0.313713252544403076
0.387677669525146484 0.0265589803457260132 0.105216272175312042
0.219785973429679871 -0.315657973289489746 0.309769779443740845
0.382642090320587158 0.0434180945158004761 0.0680641680955886841
0.462500035762786865 0.0113750845193862915 0.174202114343643188
0.399104833602905273 -0.257940709590911865 0.326852470636367798
-0.499680757522583008 0.0217329412698745728 0.180113345384597778
-0.573095619678497314 0.266779720783233643 0.359776914119720459
-0.663836836814880371 0.230237916111946106 0.021808793768286705
-0.149319082498550415 0.276020914316177368 0.0786602199077606201
0.522290050983428955 -0.334219157695770264 -0.323203891515731812
-0.220450341701507568 0.316389769315719604 0.0963315516710281372
0.499949663877487183 -0.345910221338272095 0.0663559213280677795
-0.189741760492324829 0.303469181060791016 0.114373713731765747
0.313116103410720825 -0.129437685012817383 0.300162613391876221
0.225166216492652893 -0.0349230095744132996 0.304679542779922485
0.0574064925312995911 -0.330290645360946655 0.290844857692718506
0.434927701950073242 -0.279209643602371216 0.332431763410568237
0.408760607242584229 -0.285101771354675293 0.330450356006622314
0.385374337434768677 -0.265149772167205811 0.318431705236434937
0.397244185209274292 -0.383966386318206787 -0.226449251174926758
-0.162081405520439148 0.278861790895462036 0.128005951642990112
0.380257129669189453 0.0443886816501617432 0.0759727358818054199
0.390417397022247314 -0.255150675773620605 0.318452984094619751
-0.500349342823028564 0.0249140318483114243 0.18507850170135498
0.499618500471115112 -0.325173497200012207 -0.313916444778442383
0.380378574132919312 -0.375201195478439331 -0.217171341180801392
0.521351814270019531 -0.348508358001708984 -0.325579077005386353
0.520892500877380371 -0.347676396369934082 -0.322586536407470703
0.513470888137817383 -0.318900913000106812 -0.319165170192718506
0.25509876012802124 -0.222073331475257874 0.0568330585956573486
0.186090588569641113 -0.141853377223014832 -0.106196589767932892
0.507785201072692871 -0.31943020224571228 0.0286235623061656952
-0.469300568103790283 -0.0114637333899736404 0.180195420980453491
0.496295422315597534 -0.348337918519973755 -0.310585528612136841
0.521680355072021484 -0.326724767684936523 -0.322704851627349854
0.475908815860748291 -0.319608420133590698 -0.303839266300201416
-0.341290473937988281 0.230442747473716736 -0.04502907395362854
0.201758623123168945 0.133279308676719666 0.111570343375205994
-0.17263340950012207 0.0225575380027294159 0.0249560456722974777
0.266047447919845581 -0.165730878710746765 0.00536634074524044991
0.54489743709564209 -0.327575445175170898 -0.0485345534980297089
-0.456278026103973389 -0.0524913035333156586 0.161589205265045166
0.469577044248580933 -0.355490565299987793 -0.307933032512664795
0.478226780891418457 -0.269179970026016235 -0.30239260196685791
0.46704593300819397 -0.361326217651367188 -0.309006780385971069
-0.320347428321838379 0.26736748218536377 0.0107868965715169907
0.0330605283379554749 0.0988184511661529541 0.128006696701049805
-0.28495335578918457 -0.0993509218096733093 -0.0877330303192138672
-0.616402506828308105 0.217387646436691284 -0.105120614171028137
0.244230911135673523 0.104776300489902496 -0.0304958149790763855
0.465472966432571411 -0.234450235962867737 -0.228998720645904541
-0.294215083122253418 -0.0877829864621162415 -0.0964204594492912292
0.249108761548995972 -0.275308519601821899 0.322100579738616943
0.222234621644020081 0.0669001489877700806 -0.0287809297442436218
-0.250835150480270386 -0.129557117819786072 -0.056122899055480957
-0.2114982008934021 0.302621036767959595 0.148164927959442139
0.339356690645217896 -0.139938831329345703 0.317666709423065186
0.529936254024505615 -0.35592922568321228 0.0688627958297729492
-0.599797666072845459 0.357249140739440918 0.0601708739995956421
-0.346701204776763916 -0.0549703426659107208 -0.144212588667869568
-0.43341219425201416 0.158239752054214478 -0.085437387228012085
0.526759922504425049 -0.330863088369369507 0.0196712668985128403
0.528302669525146484 -0.287245213985443115 -0.0709102004766464233
-0.499319791793823242 0.143287122249603271 -0.254378259181976318
0.146411806344985962 0.157375052571296692 0.0579519905149936676
0.253110229969024658 -0.00709732435643672943 0.326939970254898071
0.349577993154525757 -0.146580964326858521 0.320032954216003418
0.441929668188095093 -0.321938455104827881 -0.230363190174102783
-0.224037572741508484 -0.139451250433921814 -0.0542685426771640778
0.522794544696807861 -0.349472761154174805 0.0960922688245773315
-0.645691573619842529 0.254003137350082397 0.023943878710269928
0.392921149730682373 -0.279388308525085449 0.321949809789657593
-0.474676251411437988 -0.00920663587749004364 0.164356112480163574
0.224387422204017639 -0.324473291635513306 0.318444162607192993
-0.363710612058639526 -0.120700240135192871 0.129415035247802734
-0.238669902086257935 -0.14016328752040863 -0.0544916242361068726
-0.114020973443984985 -0.00881703943014144897 -0.017254956066608429
0.389089643955230713 -0.277640312910079956 0.320237874984741211
-0.50704503059387207 0.0118419919162988663 0.201301589608192444
0.461946725845336914 -0.296214938163757324 -0.295168668031692505
0.35091930627822876 -0.147537395358085632 0.320864856243133545
0.457202136516571045 -0.303048551082611084 -0.229596704244613647
0.0251689329743385315 -0.1437186598777771 -0.0204267799854278564
0.368688881397247314 -0.327103018760681152 0.318108856678009033
0.391398996114730835 -0.280795753002166748 0.316398352384567261
0.128515869379043579 -0.318492263555526733 -0.0977971702814102173
-0.134668797254562378 0.279105246067047119 0.117011293768882751
-0.333711922168731689 0.0953276604413986206 -0.103065788745880127
0.37377774715423584 -0.375066876411437988 -0.215704545378684998
0.520122885704040527 -0.34491199254989624 -0.323233157396316528
0.523750722408294678 -0.357176333665847778 -0.32709270715713501
-0.068535342812538147 -0.254298865795135498 0.0982318371534347534
0.325344562530517578 -0.130182117223739624 0.314149588346481323
0.423824489116668701 -0.259054660797119141 0.327885210514068604
-0.480250805616378784 0.032536044716835022 0.195956200361251831
0.526734292507171631 -0.298751145601272583 -0.322648584842681885
0.538160383701324463 -0.291688621044158936 -0.324983209371566772
0.377580165863037109 -0.373278290033340454 -0.214440137147903442
0.371071696281433105 -0.356274932622909546 -0.214504525065422058
0.524361729621887207 -0.350824892520904541 -0.325472384691238403
0.525637567043304443 -0.362564176321029663 -0.323561012744903564
0.515713155269622803 -0.326305687427520752 -0.320518702268600464
0.479287773370742798 -0.351435184478759766 -0.312752664089202881
0.478409022092819214 -0.364839762449264526 -0.313417166471481323
-0.362126201391220093 0.311230719089508057 0.238699063658714294
-0.321358919143676758 0.105015888810157776 0.0214843414723873138
-0.447770029306411743 0.204720184206962585 -0.0411636903882026672
-0.37825813889503479 0.280186504125595093 -0.00809286441653966904
-0.0227178968489170074 -0.260250747203826904 0.143142998218536377
-0.591812312602996826 0.362088948488235474 0.0640299618244171143
0.36728280782699585 -0.372650474309921265 -0.213167712092399597
-0.12431962788105011 -0.010180177167057991 0.0073745138943195343
0.396509110927581787 -0.352533966302871704 -0.219063609838485718
0.507376194000244141 -0.158888638019561768 0.124514192342758179
0.195635169744491577 0.124945156276226044 0.00568031845614314079
-0.0266462769359350204 0.167639210820198059 0.382550030946731567
-0.333963483572006226 -0.120485544204711914 0.0997087806463241577
-0.325506240129470825 0.303624600172042847 -0.0373606942594051361
0.53438115119934082 -0.346084564924240112 0.0372161865234375
0.52555084228515625 -0.331026256084442139 0.03394298255443573
-0.595629394054412842 0.382888585329055786 0.11314769834280014
-0.011388435959815979 -0.143639296293258667 -0.0272279437631368637
-0.235850989818572998 0.172916874289512634 -0.00244121719151735306
-0.485689133405685425 -0.00982354395091533661 0.176723212003707886
-0.278149962425231934 0.336896508932113647 0.0419520772993564606
0.513702571392059326 -0.348240196704864502 0.0964083746075630188
-0.44836089015007019 -0.0349035970866680145 0.116645842790603638
0.433946669101715088 -0.252480208873748779 0.331556022167205811
0.414534121751785278 -0.277530133724212646 0.326828032732009888
-0.469188481569290161 0.0349909886717796326 0.192679673433303833
0.502484440803527832 -0.338661670684814453 0.00754080992192029953
-0.481783807277679443 -0.00207481719553470612 0.177040830254554749
-0.377249002456665039 -0.105965644121170044 0.0923261865973472595
-0.501061618328094482 0.0227384027093648911 0.183657243847846985
0.360209822654724121 -0.286087989807128906 -0.142252638936042786
0.00152098946273326874 -0.230975240468978882 0.0893900543451309204
-0.140496984124183655 0.265908777713775635 0.0880752801895141602
-0.129715785384178162 0.255131661891937256 0.0709245353937149048
0.311942309141159058 -0.292455494403839111 -0.131552591919898987
0.427946329116821289 -0.254773855209350586 0.329967081546783447
-0.614648163318634033 0.307312548160552979 0.392243921756744385
0.410601764917373657 -0.357108473777770996 -0.227130383253097534
0.505256235599517822 -0.345606327056884766 -0.320335358381271362
0.508018672466278076 -0.351708114147186279 -0.323055267333984375
0.523687422275543213 -0.297653108835220337 -0.319122552871704102
0.509881019592285156 -0.345951586961746216 -0.320648759603500366
0.270180463790893555 -0.168765440583229065 -0.0801502913236618042
0.134004607796669006 0.121011108160018921 0.328346431255340576
0.251756846904754639 -0.28441011905670166 0.327860742807388306
0.324307739734649658 -0.119527041912078857 0.310163885354995728
0.301668465137481689 -0.203713864088058472 0.250751405954360962
0.249957561492919922 -0.00307722762227058411 0.324471145868301392
0.507356822490692139 -0.342327505350112915 0.0870134755969047546
0.242025747895240784 0.0905657112598419189 0.309618681669235229
0.462411224842071533 -0.283399254083633423 -0.23166164755821228
-0.262275606393814087 0.31477200984954834 0.0455796867609024048
0.343560397624969482 -0.139375805854797363 0.329084873199462891
0.373541265726089478 -0.362968206405639648 -0.209421083331108093
0.337219417095184326 -0.128498777747154236 0.320167362689971924
0.526814639568328857 -0.34633105993270874 -0.324419558048248291
0.524584114551544189 -0.351215183734893799 -0.327029615640640259
0.480008989572525024 -0.371480375528335571 -0.313538700342178345
-0.360195666551589966 -0.0641442984342575073 0.0823545157909393311
-0.407954871654510498 0.0893544852733612061 -0.113893911242485046
0.0144178867340087891 0.0985115915536880493 0.216724187135696411
-0.378303617238998413 -0.0927121192216873169 -0.0289034023880958557
0.265213847160339355 0.0689583867788314819 -0.0924696475267410278
-0.108449205756187439 -0.014604693278670311 0.0453361645340919495
-0.358531057834625244 -0.0914052948355674744 0.0123083898797631264
-0.29028010368347168 0.305629909038543701 0.166025221347808838
-0.355638653039932251 -0.0728283599019050598 0.0402140095829963684
-0.598499894142150879 0.295431435108184814 0.18623313307762146
0.249142050743103027 0.0973716601729393005 -0.0348654985427856445
0.378980338573455811 -0.354061543941497803 -0.210125729441642761
0.469593822956085205 -0.323934316635131836 0.137398451566696167
0.464284926652908325 -0.271121442317962646 -0.0934912711381912231
-0.439871639013290405 -0.0425215065479278564 0.0834764987230300903
-0.336509048938751221 -0.124114453792572021 0.126883134245872498
0.528670668601989746 -0.341130346059799194 0.0503987856209278107
0.39234626293182373 0.047867603600025177 0.132807552814483643
-0.185660123825073242 0.314677625894546509 0.107568323612213135
-0.441244333982467651 -0.0422319844365119934 0.117210343480110168
0.537524938583374023 -0.32533833384513855 -0.0561970137059688568
-0.353210538625717163 0.307190984487533569 0.113581769168376923
0.494181990623474121 -0.345285683870315552 0.0435748174786567688
-0.575293242931365967 0.305979251861572266 0.379465043544769287
0.430782139301300049 -0.280192583799362183 0.333434730768203735
-0.478072404861450195 0.00456761894747614861 0.163293778896331787
0.52517467737197876 -0.348950356245040894 -0.00304940668866038322
-0.0674685165286064148 -0.262264281511306763 0.297900259494781494
-0.512189865112304688 0.00502754654735326767 0.187235042452812195
0.389829367399215698 -0.359497725963592529 -0.216321080923080444
-0.118841938674449921 0.25534859299659729 0.0634570121765136719
-0.500515580177307129 0.00542054930701851845 0.192576989531517029
0.426157534122467041 -0.273698568344116211 0.330309152603149414
-0.333875179290771484 0.104637742042541504 -0.119219563901424408
-0.105742260813713074 0.255019575357437134 0.0934328585863113403
0.510976970195770264 -0.340874910354614258 -0.32018396258354187
-0.612144291400909424 0.303052157163619995 0.396340131759643555
-0.509030163288116455 0.0371649563312530518 0.188026607036590576
-0.291304707527160645 -0.0885296463966369629 -0.0791685581207275391
0.50973820686340332 -0.344143897294998169 -0.321560919284820557
0.0719547420740127563 0.139695063233375549 0.0720557123422622681
0.245669245719909668 0.107891470193862915 0.320921540260314941
0.472828119993209839 -0.286144763231277466 -0.231298357248306274
0.304938256740570068 -0.314079791307449341 0.331418395042419434
0.511997401714324951 -0.349246621131896973 -0.32261773943901062
-0.315616041421890259 -0.0863721221685409546 -0.0349850840866565704
0.51457524299621582 -0.354946523904800415 -0.323629617691040039
-0.625018894672393799 0.180775776505470276 -0.0862932205200195312
-0.354235559701919556 -0.0550282970070838928 -0.144550606608390808
-0.331332862377166748 0.270097970962524414 -0.0556952878832817078
-0.177795946598052979 0.139805033802986145 0.00448966072872281075
0.545226693153381348 -0.21687731146812439 0.15879349410533905
0.0307569429278373718 0.102945901453495026 0.0652093067765235901
0.510126888751983643 -0.330085515975952148 -0.319874227046966553
0.586222648620605469 -0.324429512023925781 -0.320371836423873901
0.249628901481628418 -0.287678360939025879 0.31799083948135376
0.25555148720741272 -0.00242787692695856094 0.32741081714630127
0.301355749368667603 -0.281922489404678345 0.330810487270355225
-0.343879163265228271 -0.0900145173072814941 0.0176118407398462296
-0.374170392751693726 -0.0894530043005943298 -0.0187782961875200272
-0.0655707269906997681 -0.273007422685623169 0.158742278814315796
-0.630419671535491943 0.276296019554138184 0.0758075788617134094
0.366296142339706421 -0.364820629358291626 -0.2130013108253479
-0.124529145658016205 -0.0286439433693885803 -0.007022821344435215
-0.598534703254699707 0.343071818351745605 0.0904052630066871643
0.443482458591461182 -0.24880141019821167 -0.286647975444793701
0.382464706897735596 -0.347265779972076416 -0.212805405259132385
0.311907321214675903 -0.371914058923721313 -0.156818628311157227
-0.179337754845619202 0.313328921794891357 0.0997305586934089661
0.535251021385192871 -0.318500518798828125 -0.0329714193940162659
-0.654876768589019775 0.238861173391342163 0.0139906648546457291
-0.452996581792831421 -0.0531969219446182251 0.162774190306663513
0.500046730041503906 -0.347882002592086792 0.0707973316311836243
0.440079271793365479 -0.260055959224700928 0.334191650152206421
0.507387757301330566 -0.342951208353042603 0.0295084957033395767
0.264282703399658203 0.122138172388076782 0.026568826287984848
0.399529099464416504 0.033191978931427002 0.139030933380126953
-0.106370709836483002 0.253216266632080078 0.0722147375345230103
0.316388040781021118 -0.379963457584381104 -0.157719790935516357
-0.566530823707580566 0.29598921537399292 -0.051875382661819458
0.390262424945831299 -0.362003326416015625 -0.221689343452453613
0.358639359474182129 0.0339586138725280762 0.0478654950857162476
0.19443725049495697 -0.364842087030410767 -0.0964454486966133118
0.391217321157455444 -0.354955017566680908 -0.21790100634098053
0.519968807697296143 -0.334342420101165771 -0.323072582483291626
0.523143529891967773 -0.332472771406173706 -0.324518471956253052
0.244230479001998901 0.0248445216566324234 0.323316127061843872
0.2126016765832901 -0.338024884462356567 0.318133711814880371
0.237396299839019775 0.106837362051010132 0.314464569091796875
0.521898984909057617 -0.336229830980300903 -0.326166838407516479
0.317970693111419678 -0.379106253385543823 -0.151822730898857117
0.584485292434692383 -0.31733238697052002 -0.334550201892852783
-0.380569994449615479 -0.0927908644080162048 -0.0181867610663175583
0.457915723323822021 -0.324819624423980713 0.124485284090042114
0.388616114854812622 0.0542748197913169861 0.130765944719314575
-0.173706427216529846 0.307954579591751099 0.105649180710315704
-0.462289214134216309 -0.0293434765189886093 0.133841067552566528
0.439255893230438232 -0.26064610481262207 0.334942638874053955
0.399979948997497559 0.0255029741674661636 0.127082347869873047
0.426931142807006836 -0.262856990098953247 0.331832587718963623
-0.510159134864807129 0.00478024501353502274 0.190108031034469604
-0.131306678056716919 0.254440784454345703 0.0812315493822097778
-0.284375548362731934 0.336748242378234863 0.0340362712740898132
0.454768836498260498 -0.258740782737731934 0.33647039532661438
-0.33121103048324585 0.0984046459197998047 -0.118472814559936523
-0.508545041084289551 0.0366896465420722961 0.187967106699943542
0.258005827665328979 0.00822386983782052994 0.32693818211555481
0.445499062538146973 -0.255265265703201294 0.333606481552124023
0.236616507172584534 0.109741628170013428 0.308359056711196899
0.302120625972747803 -0.328593641519546509 0.333924263715744019
-0.320721328258514404 0.267486363649368286 -0.0476677641272544861
-0.133394137024879456 -0.268047243356704712 -0.00520725548267364502
-0.376833081245422363 -0.0747990980744361877 0.0234579872339963913
-0.376050502061843872 -0.0630296692252159119 -0.160846680402755737
-0.495031535625457764 -0.0222537126392126083 0.173182398080825806
-0.527777612209320068 -0.00642584357410669327 0.186105519533157349
0.381926506757736206 -0.365801334381103516 -0.219942748546600342
0.389072924852371216 -0.329509735107421875 0.185931295156478882
-0.578038692474365234 0.292417943477630615 -0.0413668639957904816
0.241435229778289795 0.0890418961644172668 -0.0401874668896198273
0.374331057071685791 -0.350609749555587769 -0.210567295551300049
0.187648922204971313 0.108134843409061432 0.00122331571765244007
-0.341810822486877441 0.273535430431365967 -0.0526394173502922058
0.53275984525680542 -0.353073567152023315 0.0528244338929653168
-0.114057242870330811 0.185971692204475403 0.354092925786972046
-0.215712547302246094 0.314090549945831299 0.111756399273872375
0.46999126672744751 -0.304318487644195557 -0.236181825399398804
0.536672055721282959 -0.320125192403793335 -0.0268457271158695221
-0.266543030738830566 0.310833275318145752 0.0449878349900245667
0.278700768947601318 0.00882119126617908478 -0.0280597694218158722
0.384248226881027222 -0.361382156610488892 -0.217656999826431274
0.0277353189885616302 -0.0950847715139389038 0.0182401705533266068
-0.416696429252624512 -0.0568919405341148376 0.13262467086315155
0.385013818740844727 -0.286772668361663818 -0.110314443707466125
0.381878823041915894 -0.362398386001586914 -0.220230549573898315
0.199806585907936096 -0.365801870822906494 -0.096564166247844696
0.387501657009124756 -0.353298485279083252 -0.217282325029373169
0.511986374855041504 -0.336050480604171753 -0.320344269275665283
0.513251543045043945 -0.335757136344909668 -0.322527170181274414
0.233285322785377502 0.034962829202413559 0.318003654479980469
0.242152750492095947 0.0897108167409896851 0.309503376483917236
0.362680673599243164 -0.282217204570770264 0.315689355134963989
0.530699789524078369 -0.345594286918640137 -0.330531269311904907
0.200315818190574646 -0.189804151654243469 -0.0722581297159194946
-0.193376213312149048 0.134163424372673035 0.00843736622482538223
0.320842921733856201 -0.37369149923324585 -0.15918964147567749
0.204594045877456665 -0.325116008520126343 0.315276294946670532
0.322461932897567749 -0.276840627193450928 0.316924780607223511
-0.499323397874832153 0.0168836452066898346 0.182956516742706299
0.346942484378814697 -0.272118449211120605 -0.132599994540214539
0.244793593883514404 0.0221026577055454254 0.321022063493728638
0.195417150855064392 -0.16686190664768219 -0.0682511478662490845
0.0376264192163944244 0.13201412558555603 0.105115517973899841
-0.455179721117019653 -0.0501275919377803802 0.154121056199073792
-0.140349775552749634 0.26986125111579895 0.0793329626321792603
0.539921283721923828 -0.225603610277175903 0.172483831644058228
0.236543744802474976 0.10505734384059906 0.309060811996459961
-0.452172726392745972 -0.0269285589456558228 0.123317092657089233
-0.509735524654388428 0.0019411095418035984 0.172616630792617798
0.236627012491226196 0.0843809917569160461 0.310264438390731812
-0.488310486078262329 -0.0222062133252620697 0.177243500947952271
-0.520861387252807617 -0.00109824817627668381 0.186177626252174377
