ply
format ascii 1.0
element vertex 738
property float x
property float y
property float z
end_header
-0.0676630884408950806 -0.263436228036880493 0.295961260795593262
0.519592881202697754 -0.242512524127960205 -0.309832543134689331
0.509348273277282715 -0.329217821359634399 0.0153020443394780159
-0.5932503342628479 0.369620203971862793 0.120473936200141907
-0.655229866504669189 0.175977230072021484 -0.103237912058830261
-0.222926691174507141 -0.143432661890983582 -0.0542047806084156036
-0.191131472587585449 0.316929668188095093 0.100133791565895081
0.256447255611419678 -0.282780468463897705 0.31925731897354126
0.238597512245178223 0.033056311309337616 0.31872934103012085
-0.120338611304759979 -0.0455188378691673279 0.00720103736966848373
-0.64116746187210083 0.309027731418609619 0.101538434624671936
0.363989353179931641 -0.372892588376998901 -0.207691073417663574
0.537005245685577393 -0.216908097267150879 0.161641791462898254
-0.552736937999725342 0.382798135280609131 0.157166332006454468
-0.122577376663684845 0.259834647178649902 0.114342115819454193
0.120294764637947083 0.102563261985778809 0.089339621365070343
-0.375061184167861938 0.265978872776031494 -0.0902136266231536865
0.516613006591796875 -0.348080724477767944 0.0983074530959129333
-0.294190168380737305 -0.106321312487125397 -0.109727799892425537
0.274693101644515991 0.103287309408187866 -0.0582413859665393829
-0.575346171855926514 0.219850718975067139 -0.213241100311279297
-0.115790985524654388 0.268910050392150879 0.179171234369277954
0.235907971858978271 -0.287304848432540894 0.313809961080551147
0.308964312076568604 -0.186634495854377747 0.240843221545219421
0.541584610939025879 -0.324860900640487671 -0.0213758386671543121
0.0783240646123886108 -0.337082564830780029 0.281645655632019043
-0.0062478603795170784 -0.171434462070465088 0.00395524967461824417
-0.282081365585327148 0.261976569890975952 0.00631831586360931396
0.512953698635101318 -0.236304819583892822 -0.309790074825286865
-0.647157788276672363 0.278834879398345947 0.0793637186288833618
-0.646100640296936035 0.183419376611709595 -0.0911881104111671448
0.513862967491149902 -0.321322709321975708 0.0239523649215698242
-0.407003492116928101 -0.06289643794298172 0.113333314657211304
0.516451239585876465 -0.354437530040740967 -0.0208505410701036453
-0.566713869571685791 0.374747484922409058 0.15188656747341156
0.235412180423736572 0.0438260920345783234 0.31322208046913147
-0.664211928844451904 0.227438434958457947 0.0228914599865674973
-0.448494225740432739 -0.0375282391905784607 0.127534255385398865
0.502653241157531738 -0.301167041063308716 -0.179272264242172241
-0.588712155818939209 0.361511439085006714 0.0855761617422103882
-0.194117039442062378 0.315366387367248535 0.104194864630699158
0.246313720941543579 0.0247587542980909348 0.323251217603683472
0.530770301818847656 -0.322695314884185791 -0.0586533918976783752
-0.183026969432830811 0.307640403509140015 0.1277962327003479
0.246535301208496094 0.00778117403388023376 0.323463261127471924
0.0584063157439231873 0.140278637409210205 0.345182061195373535
-0.50670778751373291 0.150181829929351807 0.355967015027999878
0.270069539546966553 -0.310588985681533813 0.325970351696014404
-0.25400841236114502 0.0238372683525085449 -0.0712117776274681091
0.240715935826301575 -0.294543921947479248 0.322059839963912964
0.24844108521938324 0.04451008141040802 0.31391674280166626
0.468356966972351074 -0.101622343063354492 0.0343640595674514771
-0.125300467014312744 0.195761263370513916 0.11463513970375061
0.239530056715011597 -0.325915753841400146 0.317469477653503418
0.4999886155128479 -0.365682035684585571 0.0740681439638137817
0.523225247859954834 -0.323672443628311157 0.0257150735706090927
0.444077849388122559 -0.252400249242782593 0.33209797739982605
0.32055056095123291 -0.13070264458656311 -0.107104718685150146
0.0629879683256149292 -0.00996197201311588287 0.321389079093933105
0.511265039443969727 -0.359771132469177246 0.0470510423183441162
0.135413229465484619 -0.10008624941110611 0.0399281866848468781
0.0493606403470039368 0.012052515521645546 0.0291387941688299179
0.0202912203967571259 0.0488157123327255249 0.0419993214309215546
0.0869351029396057129 -0.0655031204223632812 0.289376318454742432
-0.16231362521648407 -0.265250593423843384 0.147091463208198547
0.265422344207763672 -0.0191654935479164124 0.0620523653924465179
-0.0296695791184902191 -0.0283836256712675095 0.295013427734375
0.501908063888549805 -0.239586308598518372 -0.302467137575149536
0.475592941045761108 -0.313896328210830688 -0.302474439144134521
-0.630806386470794678 0.306817501783370972 0.166954934597015381
0.474638938903808594 -0.319897770881652832 0.120824888348579407
0.508907079696655273 -0.299735128879547119 -0.106027662754058838
0.52804100513458252 -0.273921996355056763 -0.317599713802337646
0.493245512247085571 -0.33147767186164856 -0.311175167560577393
0.502989232540130615 -0.319009661674499512 0.0977113991975784302
0.473701983690261841 -0.304843097925186157 -0.298692613840103149
-0.559482932090759277 0.26861262321472168 0.363930672407150269
0.124616093933582306 0.117578104138374329 0.313499867916107178
-0.633547723293304443 0.28284493088722229 0.0540665090084075928
-0.586956322193145752 0.363118261098861694 0.102060496807098389
0.370759367942810059 -0.373079299926757812 -0.21340574324131012
0.437993645668029785 -0.347267955541610718 0.153686240315437317
0.0576761290431022644 0.121906369924545288 0.320700287818908691
-0.574770569801330566 0.369349688291549683 0.215006694197654724
0.264823883771896362 0.0249875839799642563 -0.0592408478260040283
0.367987990379333496 -0.33612525463104248 0.160126432776451111
0.510365128517150879 -0.300465017557144165 -0.112483471632003784
0.133159399032592773 -0.319808542728424072 -0.0983678027987480164
0.516417384147644043 -0.347685396671295166 -0.0205837078392505646
0.38885834813117981 -0.345772743225097656 -0.214730381965637207
-0.576307356357574463 0.319435715675354004 0.0406434535980224609
0.535988092422485352 -0.276987224817276001 -0.321005165576934814
0.467446774244308472 -0.309993118047714233 -0.299776375293731689
0.506991565227508545 -0.345901519060134888 0.0178276989609003067
-0.555920839309692383 0.310188353061676025 0.101525574922561646
0.193571031093597412 -0.338698267936706543 -0.0596429705619812012
0.0699793398380279541 -0.281579643487930298 -0.0780911967158317566
0.2518271803855896 -0.249730378389358521 0.319846808910369873
0.239293918013572693 0.031639978289604187 0.316402912139892578
-0.12151433527469635 -0.0471537262201309204 0.00796059891581535339
0.178231433033943176 -0.0997290387749671936 -0.0151615701615810394
0.532095372676849365 -0.331186354160308838 -0.0135994646698236465
0.369709223508834839 -0.348514556884765625 -0.209664672613143921
0.534758508205413818 -0.245149224996566772 0.176830828189849854
0.560975551605224609 -0.314947575330734253 -0.331311523914337158
0.554009497165679932 -0.21106363832950592 0.133705884218215942
-0.543135404586791992 0.381013870239257812 0.163913846015930176
0.123963326215744019 0.117358848452568054 0.133017688989639282
-0.581897318363189697 0.352189421653747559 0.0972202867269515991
-0.48221510648727417 0.186456277966499329 -0.092143818736076355
0.515442371368408203 -0.338144809007644653 0.0383893623948097229
0.253312885761260986 -0.278544485569000244 0.321618527173995972
0.277854382991790771 -0.355114996433258057 -0.126622885465621948
0.507631480693817139 -0.28565061092376709 -0.314053714275360107
-0.431305944919586182 -0.0568685680627822876 0.116708517074584961
0.201612085103988647 0.090768665075302124 0.222907036542892456
0.244298353791236877 0.104782529175281525 -0.0581151284277439117
-0.1962127685546875 0.202015921473503113 0.348607242107391357
0.250073611736297607 0.0256410092115402222 0.322688043117523193
0.239279359579086304 0.0197462402284145355 0.320626199245452881
-0.0317318812012672424 0.163370370864868164 0.382276713848114014
-0.482331126928329468 -0.015125153586268425 0.180317074060440063
0.483599245548248291 -0.368256479501724243 0.0455320924520492554
-0.643428266048431396 0.287624627351760864 0.0860089957714080811
0.276553124189376831 -0.165780454874038696 -0.0710382387042045593
-0.412097245454788208 -0.056302390992641449 0.0783580765128135681
-0.642956554889678955 0.175873637199401855 -0.0822114497423171997
-0.22582535445690155 -0.133352950215339661 -0.0526686199009418488
0.254481345415115356 -0.264996975660324097 0.320807129144668579
-0.345658570528030396 0.0176812149584293365 -0.117591887712478638
-0.287806451320648193 -0.0907329916954040527 -0.106855727732181549
-0.584997832775115967 0.209883317351341248 -0.218496039509773254
0.266976535320281982 -0.296377420425415039 0.314925521612167358
-0.0263311564922332764 -0.186706230044364929 -0.0438111424446105957
-0.617542505264282227 0.277258932590484619 0.0311145670711994171
-0.607910335063934326 0.298320531845092773 0.0919759571552276611
-0.398018866777420044 -0.0622852370142936707 0.119451895356178284
-0.451521486043930054 -0.0373684614896774292 0.119804456830024719
0.430852711200714111 -0.271061122417449951 0.328792303800582886
-0.0524926744401454926 0.141194999217987061 0.0915436223149299622
-0.503821492195129395 0.151707649230957031 0.354665994644165039
0.240416854619979858 -0.318736255168914795 0.322391778230667114
0.497159987688064575 -0.370158225297927856 0.0568059049546718597
0.398711919784545898 -0.256122469902038574 0.322238951921463013
-0.158502489328384399 -0.262988477945327759 0.180799677968025208
-0.499112069606781006 0.0146366097033023834 0.157852262258529663
0.417231708765029907 -0.296561002731323242 0.328376203775405884
0.535355448722839355 -0.339380234479904175 -0.0188760627061128616
0.343506604433059692 -0.266616940498352051 -0.128241002559661865
-0.496645063161849976 0.0722779706120491028 0.203157216310501099
0.443218708038330078 -0.271438866853713989 0.333215147256851196
0.522366583347320557 -0.334540814161300659 0.0322824306786060333
0.453058242797851562 -0.319020777940750122 -0.293636590242385864
0.473666399717330933 -0.310821563005447388 0.11665092408657074
0.517178058624267578 -0.277607470750808716 -0.313260704278945923
0.502495884895324707 -0.325096428394317627 -0.314647585153579712
0.517853021621704102 -0.326175540685653687 0.101649031043052673
0.479212522506713867 -0.310667514801025391 -0.302779734134674072
0.113588839769363403 0.119019955396652222 0.288786947727203369
-0.122054368257522583 0.269046783447265625 0.158181518316268921
-0.614201664924621582 0.26557469367980957 0.0516010597348213196
-0.479066193103790283 0.00333942146971821785 0.18124854564666748
0.426261544227600098 -0.354467630386352539 0.158078476786613464
-0.292815148830413818 -0.109822958707809448 -0.106059983372688293
0.130248561501502991 0.0661263316869735718 0.320580363273620605
0.253672480583190918 0.0390275157988071442 -0.0784128680825233459
0.235286444425582886 0.0942961275577545166 -0.0537961311638355255
0.416840493679046631 -0.260809600353240967 -0.202808499336242676
0.521470963954925537 -0.35359230637550354 -0.0196644291281700134
-0.608678162097930908 0.381449848413467407 0.1808624267578125
0.51754450798034668 -0.278517931699752808 -0.31520378589630127
0.499051302671432495 -0.349090725183486938 0.0239810813218355179
-0.58743751049041748 0.369661778211593628 0.112771250307559967
0.50539165735244751 -0.104239314794540405 0.146990597248077393
-0.197965323925018311 0.311718523502349854 0.112418413162231445
0.26367640495300293 -0.285992443561553955 0.319489598274230957
0.236335024237632751 0.0627641454339027405 0.30990031361579895
-0.1451730877161026 -0.0432419925928115845 0.00393526535481214523
-0.657245457172393799 0.214849218726158142 -0.0463755801320075989
-0.289394497871398926 -0.0755707472562789917 -0.0690669268369674683
0.227317869663238525 0.0423441007733345032 -0.0488631017506122589
0.551061034202575684 -0.143860846757888794 0.131828725337982178
0.519724249839782715 -0.294493973255157471 0.0743937194347381592
0.517596542835235596 -0.283274471759796143 -0.181602925062179565
-0.357614129781723022 -0.0167186986654996872 -0.0280779153108596802
0.0913724601268768311 0.0884622186422348022 0.0854781493544578552
0.466229856014251709 -0.36113286018371582 -0.0111669925972819328
-0.432471632957458496 0.15798458456993103 -0.0664705336093902588
0.523805737495422363 -0.334780007600784302 0.0684566274285316467
0.262609541416168213 -0.285357058048248291 0.318138599395751953
0.00935056805610656738 -0.0908824354410171509 -0.0264890808612108231
0.032691415399312973 -0.130278632044792175 0.0216291360557079315
-0.630594253540039062 0.265359044075012207 0.0290101096034049988
0.241687297821044922 0.0749469175934791565 0.318149596452713013
0.239492282271385193 0.0302473027259111404 0.318475157022476196
-0.17504197359085083 0.301215887069702148 0.115683257579803467
0.303784281015396118 -0.150687113404273987 0.30771327018737793
0.261593341827392578 -0.290147870779037476 0.320651531219482422
-0.476401746273040771 -0.00773115642368793488 0.166536778211593628
0.242339819669723511 0.0823417007923126221 0.311666965484619141
0.520209312438964844 -0.3504830002784729 0.0813453346490859985
-0.0352838486433029175 -0.237348854541778564 0.123463265597820282
-0.637875199317932129 0.290357202291488647 0.0985996797680854797
-0.234711527824401855 -0.132217034697532654 -0.0585428215563297272
-0.378752797842025757 -0.108036041259765625 0.105567127466201782
-0.2364644855260849 -0.147322237491607666 -0.0583012104034423828
-0.657502591609954834 0.214567869901657104 -0.0338246524333953857
0.528857886791229248 -0.351938843727111816 0.0772724002599716187
-0.620570659637451172 0.270468175411224365 0.0521835722029209137
-0.404050260782241821 -0.0637653842568397522 0.112414434552192688
-0.446528524160385132 -0.0406613647937774658 0.122336544096469879
0.2674407958984375 -0.285057008266448975 0.323279529809951782
0.127323701977729797 -0.326204568147659302 0.312066912651062012
0.152075096964836121 -0.34273141622543335 0.317313998937606812
0.447306543588638306 -0.334915518760681152 -0.293603181838989258
0.515847086906433105 -0.302037954330444336 -0.108386948704719543
0.515179634094238281 -0.279454499483108521 -0.313307195901870728
0.484610408544540405 -0.326940536499023438 -0.310319334268569946
0.463991254568099976 -0.345118731260299683 -0.30320274829864502
0.54912567138671875 -0.209606558084487915 -0.316057175397872925
0.524055778980255127 -0.299201726913452148 -0.322863906621932983
0.517982721328735352 -0.300024360418319702 -0.318793833255767822
0.246518850326538086 0.0575418323278427124 0.31584128737449646
0.24074980616569519 0.0881651341915130615 0.312163591384887695
-0.292495489120483398 -0.0997807532548904419 -0.102276027202606201
-0.453192293643951416 -0.0511633530259132385 0.117729261517524719
0.404297679662704468 -0.27145993709564209 0.322309941053390503
-0.502671599388122559 0.00410363543778657913 0.188908845186233521
0.400679618120193481 -0.286537826061248779 0.324633687734603882
0.39873427152633667 -0.272751510143280029 0.32313227653503418
0.341340750455856323 -0.25826677680015564 0.0897906869649887085
-0.0195778105407953262 -0.244102895259857178 0.128421962261199951
-0.464850783348083496 0.0362929478287696838 0.188765496015548706
-0.19485493004322052 0.222282394766807556 0.171408012509346008
0.366263449192047119 -0.328619539737701416 -0.0238725375384092331
0.322871685028076172 -0.389359325170516968 -0.159585416316986084
0.535403192043304443 -0.322723537683486938 -0.0587589442729949951
-0.441906481981277466 -0.00389726273715496063 0.152988195419311523
-0.0193556435406208038 -0.0591303929686546326 0.141296520829200745
-0.000663390383124351501 -0.23587992787361145 0.105849988758563995
0.525724172592163086 -0.200990021228790283 -0.0801944807171821594
0.449496686458587646 -0.307526588439941406 -0.293471872806549072
0.526741981506347656 -0.274635016918182373 -0.316086411476135254
0.499784260988235474 -0.324003905057907104 -0.313056915998458862
0.474766671657562256 -0.304250478744506836 -0.297942012548446655
-0.127494126558303833 0.246895700693130493 0.138412654399871826
-0.648893058300018311 0.282605350017547607 0.0942216962575912476
-0.199459180235862732 0.286996603012084961 0.33540615439414978
0.497411727905273438 -0.086155429482460022 0.136308044195175171
0.200333297252655029 -0.358571499586105347 -0.0914154201745986938
0.505158185958862305 -0.36682698130607605 -0.0230930950492620468
0.527054429054260254 -0.241996869444847107 0.172641843557357788
-0.585925638675689697 0.379629701375961304 0.170104146003723145
0.444535970687866211 -0.314146548509597778 -0.288353890180587769
0.498026371002197266 -0.110571593046188354 0.111815929412841797
-0.65555042028427124 0.17556317150592804 -0.103962987661361694
-0.202111780643463135 0.309187829494476318 0.088770642876625061
0.200283870100975037 -0.0130979996174573898 0.295190542936325073
0.160238116979598999 -0.0619226619601249695 -0.0444899909198284149
-0.579852163791656494 0.302800476551055908 0.368338048458099365
0.274870693683624268 0.098632514476776123 -0.0298421792685985565
-0.435950100421905518 0.156395643949508667 -0.0863227546215057373
0.534466028213500977 -0.332166194915771484 0.0122559694573283195
-0.568941891193389893 0.197445347905158997 -0.229540586471557617
-0.497896075248718262 0.0454554371535778046 -0.0874193310737609863
0.0324990339577198029 -0.104105159640312195 0.0327654555439949036
0.533906400203704834 -0.263667196035385132 -0.316673606634140015
0.00924056582152843475 0.198136493563652039 0.0273789055645465851
0.302051067352294922 0.0390593484044075012 -0.0852058529853820801
-0.332244247198104858 -0.0154861286282539368 -0.108117550611495972
0.236262619495391846 0.015086236409842968 0.321214795112609863
0.124688051640987396 0.0133669180795550346 0.298183292150497437
0.527565121650695801 -0.354439854621887207 0.0656942948698997498
0.466632634401321411 -0.309152007102966309 -0.233536213636398315
-0.651888430118560791 0.285818397998809814 0.104442119598388672
0.546092867851257324 -0.219313010573387146 0.163345813751220703
0.527768850326538086 -0.322440654039382935 -0.0165643896907567978
-0.382480651140213013 -0.0556098073720932007 0.0762958675622940063
0.456696182489395142 -0.310140669345855713 -0.292980313301086426
0.504869937896728516 -0.338876008987426758 -0.318237811326980591
0.478606134653091431 -0.313605517148971558 -0.30011218786239624
0.520435988903045654 -0.300403416156768799 -0.31771734356880188
-0.00268872082233428955 -0.139277666807174683 -0.0248693600296974182
0.397079885005950928 -0.272352337837219238 0.323335170745849609
0.400694072246551514 -0.270744502544403076 0.323624253273010254
0.505716264247894287 -0.331016510725021362 0.10570739209651947
-0.467455059289932251 0.0429751351475715637 0.170538023114204407
0.409535914659500122 -0.34525221586227417 0.156008288264274597
-0.361325234174728394 -0.0346765220165252686 -0.148906394839286804
-0.128474384546279907 -0.267181277275085449 0.11205001175403595
0.512421846389770508 -0.368232876062393188 -0.0151732154190540314
-0.213910162448883057 0.313083738088607788 0.0970764309167861938
0.250414669513702393 -0.286536753177642822 0.322647631168365479
0.208332061767578125 0.0100579829886555672 -0.0464707240462303162
0.0702762603759765625 -0.15151609480381012 -0.0175798814743757248
-0.169719457626342773 0.305199414491653442 0.118620872497558594
0.470656931400299072 -0.363433957099914551 0.00665934290736913681
-0.291697472333908081 -0.0985855311155319214 -0.103534117341041565
0.0372910425066947937 -0.14994560182094574 -0.0220844466239213943
0.23163798451423645 0.0568181648850440979 0.308779776096343994
0.253250062465667725 -0.288064748048782349 0.320351243019104004
-0.47129252552986145 0.00140570430085062981 0.168923407793045044
0.240614831447601318 0.0633352920413017273 0.312557995319366455
0.508964896202087402 -0.351238876581192017 0.0633857101202011108
0.227038025856018066 -0.314239770174026489 0.314297139644622803
-0.374997138977050781 -0.0924081206321716309 0.0861274600028991699
-0.0632044672966003418 -0.24117743968963623 0.302200943231582642
-0.222490906715393066 -0.127194851636886597 -0.0535213984549045563
-0.409826815128326416 -0.0648202747106552124 0.098403148353099823
-0.445068299770355225 -0.0440316647291183472 0.132574796676635742
0.238784715533256531 -0.293510079383850098 0.314037114381790161
0.153470307588577271 -0.323898077011108398 0.319807082414627075
0.424888193607330322 -0.255284309387207031 0.328373998403549194
0.437748849391937256 -0.341949671506881714 -0.293305426836013794
0.506319642066955566 -0.333501905202865601 -0.318310678005218506
0.444679439067840576 -0.35145154595375061 -0.287306100130081177
0.23782050609588623 0.0663267150521278381 0.311641544103622437
0.402967751026153564 -0.286735296249389648 0.325737982988357544
-0.494504034519195557 0.00723943999037146568 0.188278183341026306
0.485358327627182007 -0.0625644773244857788 0.131365403532981873
0.0128236599266529083 -0.170697018504142761 0.00946330465376377106
0.531727254390716553 -0.306622952222824097 -0.0626120120286941528
0.314203947782516479 -0.301513463258743286 -0.127136871218681335
0.445531606674194336 -0.290571630001068115 -0.286060601472854614
-0.337036758661270142 0.225370109081268311 0.125246673822402954
-0.400129973888397217 -0.0274207182228565216 -0.001824977807700634
0.402748703956604004 -0.270923584699630737 0.324005335569381714
-0.133681818842887878 0.196211904287338257 0.167163610458374023
0.398748725652694702 -0.270841687917709351 0.32382771372795105
-0.445631951093673706 -0.0243346765637397766 0.0219314191490411758
-0.137933820486068726 0.245330497622489929 0.191241979598999023
-0.61191713809967041 0.294249981641769409 0.183370530605316162
0.124403193593025208 0.116709046065807343 0.316107451915740967
-0.120973102748394012 0.25115126371383667 0.161413818597793579
-0.5823783278465271 0.348085165023803711 0.0578743815422058105
0.426453381776809692 -0.347421169281005859 0.152469992637634277
-0.566113293170928955 0.29526984691619873 -0.0693315565586090088
0.251788496971130371 0.0271907877177000046 -0.0801481679081916809
0.247435688972473145 0.10090009868144989 -0.048936404287815094
-0.35799136757850647 -0.0548494905233383179 -0.142477452754974365
0.198849767446517944 0.120395466685295105 0.0352483242750167847
0.54522550106048584 -0.1310272216796875 0.111863389611244202
-0.58096778392791748 0.321763336658477783 -0.0231771636754274368
0.206288516521453857 0.0252027511596679688 0.17650158703327179
-0.595049083232879639 0.375559002161026001 0.171620339155197144
0.444306552410125732 -0.318510532379150391 0.126906901597976685
0.255106717348098755 -0.278032451868057251 0.316102206707000732
0.235179319977760315 0.0245350562036037445 0.316111594438552856
-0.363111346960067749 -0.0488171949982643127 -0.023968968540430069
-0.182307690382003784 0.118546463549137115 0.0417500361800193787
0.254811853170394897 -0.287457913160324097 0.318943291902542114
0.241645693778991699 0.0338740795850753784 0.321315586566925049
0.399534851312637329 0.0240755137056112289 0.114512138068675995
-0.340960204601287842 -0.0653221681714057922 -0.148070350289344788
0.0756459608674049377 -0.332428932189941406 0.298652410507202148
-0.386826157569885254 -0.0597039349377155304 0.0940126776695251465
-0.448379725217819214 -0.0403188392519950867 0.128556758165359497
0.439205944538116455 -0.278370440006256104 0.333413660526275635
0.0345444567501544952 -0.122424833476543427 -0.0259390436112880707
0.414259374141693115 -0.279859304428100586 0.326690763235092163
0.433031529188156128 -0.295217454433441162 0.332791537046432495
0.367458820343017578 -0.277807950973510742 -0.130686908960342407
-0.477373450994491577 0.00190773233771324158 0.188184753060340881
-0.292138546705245972 -0.0952549055218696594 -0.104819230735301971
0.241383820772171021 -0.31226232647895813 0.309224456548690796
0.473054051399230957 -0.353292912244796753 0.00666098296642303467
-0.297017663717269897 -0.0953979045152664185 -0.107177622616291046
0.244693160057067871 -0.287822037935256958 0.319732695817947388
0.0622090846300125122 -0.329072326421737671 0.296476602554321289
0.157920822501182556 -0.267108529806137085 -0.105762302875518799
0.249909341335296631 0.0641031265258789062 0.314832955598831177
-0.482211530208587646 -0.00715776905417442322 0.178096100687980652
0.236089855432510376 0.0672645121812820435 0.314209997653961182
0.238577306270599365 -0.331064462661743164 0.321074008941650391
-0.38095700740814209 -0.091120794415473938 0.0369497165083885193
-0.216135025024414062 -0.139316052198410034 -0.0546543896198272705
-0.38213193416595459 -0.0624874457716941833 0.0837633535265922546
0.149837613105773926 -0.33108934760093689 0.331429183483123779
0.445724278688430786 -0.278893470764160156 0.333330333232879639
0.407264649868011475 -0.27960088849067688 0.324884593486785889
-0.502082169055938721 0.00698205269873142242 0.188269823789596558
-0.321907311677932739 0.0981238037347793579 -0.0705778449773788452
0.532149910926818848 -0.206491261720657349 -0.0527545399963855743
0.450801372528076172 -0.292946219444274902 -0.291076987981796265
0.48744887113571167 -0.32424086332321167 -0.311379045248031616
0.446220278739929199 -0.308714985847473145 -0.291467458009719849
-0.577782511711120605 0.269807904958724976 0.365361928939819336
-0.46165117621421814 0.106567785143852234 -0.231192037463188171
0.374224722385406494 -0.31792798638343811 0.198577806353569031
-0.589141666889190674 0.367235749959945679 0.131040364503860474
0.392296850681304932 -0.352335721254348755 -0.218174874782562256
0.440872490406036377 -0.309239506721496582 -0.289644479751586914
-0.20051872730255127 0.305919289588928223 0.0946456491947174072
-0.155713886022567749 0.268553942441940308 0.151527389883995056
0.530054390430450439 -0.337589740753173828 0.0712174549698829651
0.463241875171661377 -0.265377342700958252 -0.218026846647262573
-0.633373618125915527 0.276315391063690186 0.106728561222553253
0.43813711404800415 -0.307480603456497192 -0.287811398506164551
0.515561461448669434 -0.276217788457870483 -0.31717151403427124
0.516779541969299316 -0.339357703924179077 -0.32112574577331543
0.454403698444366455 -0.306143969297409058 -0.293800145387649536
0.490643441677093506 -0.320964425802230835 0.0938909724354743958
0.0208364240825176239 -0.275117009878158569 -0.0187325067818164825
-0.653282225131988525 0.172051787376403809 -0.108158856630325317
-0.224174484610557556 0.318931847810745239 0.120751768350601196
0.465088367462158203 -0.363146990537643433 0.00549809355288743973
0.481078982353210449 -0.336037755012512207 0.0496942177414894104
0.511824548244476318 -0.338380634784698486 -0.319852381944656372
0.439946115016937256 -0.355507045984268188 -0.298340916633605957
-0.269596695899963379 0.322479188442230225 0.0415886491537094116
0.423876255750656128 -0.31250879168510437 -0.282377094030380249
0.415590822696685791 -0.294352054595947266 0.328134119510650635
-0.326389342546463013 -0.0747596248984336853 0.122948423027992249
-0.366802573204040527 -0.0660930201411247253 0.15475308895111084
-0.338825196027755737 0.215503841638565063 0.131782457232475281
0.0102157611399888992 0.119781367480754852 0.104865014553070068
0.542376399040222168 -0.308196187019348145 -0.046748429536819458
0.0137996673583984375 -0.261404186487197876 0.0393194034695625305
-0.00352882407605648041 -0.236085042357444763 0.0937819182872772217
0.00051786378026008606 -0.219399228692054749 0.0809367448091506958
0.464777857065200806 -0.36001133918762207 0.0299055129289627075
-0.269887208938598633 -0.137352153658866882 0.176776111125946045
-0.344717979431152344 -0.0650721192359924316 0.141269296407699585
0.123402237892150879 -0.276448220014572144 0.128397092223167419
-0.133931905031204224 0.0791784748435020447 0.0896759778261184692
0.463302433490753174 -0.0539246127009391785 0.0173519570380449295
-0.0143686551600694656 -0.216323375701904297 0.0799015983939170837
-0.554645001888275146 0.392181575298309326 0.147182703018188477
0.496520131826400757 -0.365821719169616699 0.00496496353298425674
-0.610086560249328613 0.294359028339385986 0.186028912663459778
0.530102670192718506 -0.274263739585876465 -0.318053275346755981
0.369802772998809814 -0.263838440179824829 0.181195825338363647
0.419853717088699341 -0.343661129474639893 0.150315791368484497
0.252103596925735474 0.0395877435803413391 -0.0673576667904853821
0.549238383769989014 -0.14921143651008606 0.123973488807678223
-0.570468425750732422 0.284271985292434692 -0.00718884728848934174
0.500824153423309326 -0.361515164375305176 -0.00124222645536065102
0.20829029381275177 0.116093277931213379 -0.0111652351915836334
-0.289603084325790405 -0.0849692225456237793 -0.0669374614953994751
0.159006059169769287 -0.0827154666185379028 -0.0364593043923377991
-0.339463174343109131 -0.104828760027885437 0.141292393207550049
0.511130392551422119 -0.280456304550170898 -0.313732326030731201
-0.339029490947723389 -0.0786711722612380981 0.0388909392058849335
-0.369074642658233643 0.281395107507705688 -0.0627138018608093262
0.509832203388214111 -0.340061068534851074 0.0645748525857925415
0.300979048013687134 -0.205232381820678711 0.247540518641471863
0.543064713478088379 -0.311040401458740234 -0.0611833222210407257
0.141586393117904663 0.0700453072786331177 0.335905790328979492
-0.593810200691223145 0.267590731382369995 0.0115141775459051132
0.221111297607421875 -0.00649758800864219666 0.295247286558151245
0.230450794100761414 0.0350355207920074463 0.312426835298538208
0.533553719520568848 -0.318560779094696045 -0.0132566820830106735
-0.390082985162734985 -0.0627669170498847961 0.106180548667907715
-0.447701334953308105 -0.0390496961772441864 0.127355754375457764
0.495402812957763672 -0.0907379984855651855 0.154138356447219849
0.25059172511100769 0.0637898296117782593 0.315918922424316406
-0.291740626096725464 -0.0920483022928237915 0.306781768798828125
-0.366073191165924072 -0.114018313586711884 0.103884920477867126
-0.563163459300994873 0.127777814865112305 -0.0786735117435455322
-0.501102030277252197 0.0239263642579317093 0.186575338244438171
0.518287241458892822 -0.296395748853683472 -0.314532637596130371
0.47224774956703186 -0.327330529689788818 -0.300485789775848389
-0.574339866638183594 0.269479990005493164 0.362299531698226929
-0.57073289155960083 0.355266660451889038 0.166568607091903687
-0.191492080688476562 0.304934322834014893 0.100808978080749512
-0.661390960216522217 0.240149259567260742 0.0416113883256912231
-0.505426764488220215 0.145137697458267212 0.352600663900375366
0.507230162620544434 -0.346150219440460205 -0.318683356046676636
-0.200249582529067993 0.305353313684463501 0.101658128201961517
0.474858731031417847 -0.356796622276306152 0.00423441734164953232
0.50964665412902832 -0.329820364713668823 0.0658403784036636353
-0.610037863254547119 0.367653101682662964 0.0873275846242904663
-0.561773538589477539 0.288453787565231323 -0.05634303018450737
0.219582453370094299 0.0107870381325483322 0.308763027191162109
0.240136712789535522 0.00583306234329938889 0.32109871506690979
-0.359947443008422852 -0.0559344105422496796 -0.138383105397224426
0.398725122213363647 -0.251962274312973022 0.321684718132019043
0.399008840322494507 -0.262338519096374512 0.324557214975357056
0.223794177174568176 -0.323493063449859619 0.320389389991760254
0.410475045442581177 -0.267081141471862793 0.32495880126953125
-0.508909523487091064 0.0499748289585113525 0.194623097777366638
-0.630485057830810547 0.156961336731910706 -0.0522529967129230499
-0.502506792545318604 0.147703111171722412 0.344638228416442871
0.520974695682525635 -0.349793523550033569 -0.323453962802886963
0.495166808366775513 -0.347414791584014893 1.36615708470344543e-05
-0.19807712733745575 0.0167774427682161331 -0.0504237785935401917
-0.556893408298492432 0.341864407062530518 -0.00617510266602039337
0.488441497087478638 -0.359673678874969482 0.0404341705143451691
0.448888838291168213 -0.0739285126328468323 0.00149622326716780663
-0.555711746215820312 0.38533174991607666 0.157203391194343567
0.374195456504821777 -0.0805389732122421265 -0.120633393526077271
-0.389260649681091309 0.320134997367858887 0.168439537286758423
-0.384797841310501099 0.328749001026153564 0.196831658482551575
-0.364149957895278931 0.238398134708404541 -0.0842885076999664307
-0.407600969076156616 0.199908196926116943 0.0404868237674236298
-0.644008159637451172 0.287417083978652954 0.093763202428817749
0.408256560564041138 -0.346539050340652466 0.135753124952316284
0.222392156720161438 0.0830965340137481689 -0.0341186299920082092
0.497775256633758545 -0.160592138767242432 0.12343607097864151
0.499743223190307617 -0.0922114327549934387 0.134288668632507324
0.21450863778591156 0.00239297514781355858 0.299172759056091309
-0.353094011545181274 -0.067461945116519928 -0.00964386481791734695
-0.385276347398757935 0.26658254861831665 -0.0721540898084640503
0.506583034992218018 -0.346260160207748413 0.0543939657509326935
-0.357331275939941406 -0.0553997978568077087 -0.145978331565856934
0.132062584161758423 0.0731767788529396057 0.321471691131591797
-0.09949512779712677 -0.264990508556365967 0.00608726358041167259
0.242113411426544189 0.0240580644458532333 0.321343183517456055
-0.48005029559135437 -0.0110334344208240509 0.185532078146934509
0.24214974045753479 0.048963446170091629 0.316623002290725708
-0.277809023857116699 0.333276808261871338 0.0404099151492118835
0.369745194911956787 -0.0306680500507354736 -0.040475018322467804
0.520262300968170166 -0.347125262022018433 -0.0369356796145439148
0.293704301118850708 -0.0120699536055326462 0.0366334579885005951
-0.643839001655578613 0.285414993762969971 0.0925772935152053833
0.0359587445855140686 0.137228146195411682 0.0848116204142570496
-0.397488176822662354 -0.0570804998278617859 0.126058980822563171
-0.441307961940765381 -0.0376708768308162689 0.131236150860786438
0.523847341537475586 -0.316670984029769897 -0.065986931324005127
0.422375917434692383 -0.279205292463302612 0.330799639225006104
0.509854018688201904 -0.344103395938873291 0.056672658771276474
0.403371065855026245 -0.258158117532730103 0.323260843753814697
-0.479883790016174316 0.0186303239315748215 0.176474183797836304
0.235194534063339233 0.0691310465335845947 0.313783466815948486
-0.479524701833724976 -0.00790090486407279968 0.167576864361763
0.238891735672950745 0.0680278688669204712 0.314080417156219482
0.387503743171691895 0.0265139266848564148 0.105301335453987122
0.219261884689331055 -0.315718263387680054 0.30998682975769043
0.382643729448318481 0.0433545857667922974 0.0681086704134941101
0.462782829999923706 0.0111628659069538116 0.174165770411491394
0.399038314819335938 -0.257997512817382812 0.326846599578857422
-0.499106645584106445 0.021642737090587616 0.180558159947395325
-0.57355266809463501 0.266783922910690308 0.359502017498016357
-0.663615763187408447 0.230170577764511108 0.0218700375407934189
-0.149169549345970154 0.275900781154632568 0.0785992443561553955
0.522093117237091064 -0.334185570478439331 -0.3231162428855896
-0.220553010702133179 0.316181331872940063 0.0961613059043884277
0.499836742877960205 -0.345798254013061523 0.0664931386709213257
-0.189682602882385254 0.303080528974533081 0.114229492843151093
0.312667876482009888 -0.129415705800056458 0.300329118967056274
0.22449144721031189 -0.0348993502557277679 0.304867476224899292
0.0567611567676067352 -0.330170422792434692 0.290853798389434814
0.435044020414352417 -0.279205113649368286 0.33234870433807373
0.408821225166320801 -0.285104990005493164 0.330525189638137817
0.385142087936401367 -0.265181452035903931 0.318519353866577148
0.396998584270477295 -0.383900582790374756 -0.226407527923583984
-0.162036091089248657 0.278954625129699707 0.128168508410453796
0.380314052104949951 0.0443043597042560577 0.0760406777262687683
0.390311479568481445 -0.255185127258300781 0.318555057048797607
-0.500058650970458984 0.0247067268937826157 0.185517102479934692
0.499553084373474121 -0.325106054544448853 -0.313783913850784302
0.379910290241241455 -0.375138431787490845 -0.217182010412216187
0.521104097366333008 -0.348445117473602295 -0.325458765029907227
0.52070319652557373 -0.347557663917541504 -0.3223419189453125
0.51339036226272583 -0.318789422512054443 -0.319037854671478271
0.254843175411224365 -0.22204279899597168 0.0568683668971061707
0.186132267117500305 -0.141838178038597107 -0.106149643659591675
0.507563591003417969 -0.319289147853851318 0.0287429988384246826
-0.468840986490249634 -0.0113726872950792313 0.180924832820892334
0.49615556001663208 -0.348266363143920898 -0.310483545064926147
0.521522462368011475 -0.326674491167068481 -0.322511523962020874
0.475850313901901245 -0.319485247135162354 -0.303793966770172119
-0.340936601161956787 0.230247199535369873 -0.0450487434864044189
0.201765254139900208 0.133124619722366333 0.111580491065979004
-0.172077879309654236 0.0225046798586845398 0.0254173446446657181
0.265923023223876953 -0.165790379047393799 0.00546203600242733955
0.544759929180145264 -0.327513039112091064 -0.0485005564987659454
-0.456024765968322754 -0.0523661375045776367 0.162312239408493042
0.469537645578384399 -0.355377227067947388 -0.307858705520629883
0.47818988561630249 -0.269051045179367065 -0.302315682172775269
0.467002958059310913 -0.361220747232437134 -0.308937311172485352
-0.320002079010009766 0.267094999551773071 0.0108367223292589188
0.0329393520951271057 0.0987978279590606689 0.128380194306373596
-0.284854233264923096 -0.0994874909520149231 -0.0878129526972770691
-0.616156160831451416 0.217190533876419067 -0.105003409087657928
0.244176596403121948 0.1046772301197052 -0.0304211154580116272
0.465231418609619141 -0.234442353248596191 -0.228726327419281006
-0.294555455446243286 -0.0877090767025947571 -0.0963876098394393921
0.248893141746520996 -0.275371670722961426 0.322246342897415161
0.222410380840301514 0.0667355805635452271 -0.0286083333194255829
-0.250683784484863281 -0.129589676856994629 -0.0560630708932876587
-0.211081475019454956 0.302226394414901733 0.148474454879760742
0.339043527841567993 -0.139913842082023621 0.317975223064422607
0.529882371425628662 -0.355885356664657593 0.068852543830871582
-0.599117100238800049 0.356716811656951904 0.0600763857364654541
-0.346583932638168335 -0.0549842901527881622 -0.144183486700057983
-0.432675838470458984 0.158045172691345215 -0.0849431306123733521
0.526561558246612549 -0.330777585506439209 0.0197906624525785446
0.52836763858795166 -0.287128210067749023 -0.070883043110370636
-0.499252676963806152 0.143177241086959839 -0.254568189382553101
0.146214157342910767 0.157304540276527405 0.0579650029540061951
0.25283542275428772 -0.0071345064789056778 0.327086538076400757
0.349345475435256958 -0.14661814272403717 0.320203244686126709
0.441754579544067383 -0.321810334920883179 -0.230236023664474487
-0.22364431619644165 -0.139570906758308411 -0.0542202331125736237
0.522638082504272461 -0.349519550800323486 0.0961454957723617554
-0.64561760425567627 0.253814816474914551 0.0239226222038269043
0.392915964126586914 -0.279426157474517822 0.321947693824768066
-0.474119871854782104 -0.00938655063509941101 0.165184319019317627
0.224112093448638916 -0.324461549520492554 0.318538308143615723
-0.363448858261108398 -0.12094743549823761 0.129407405853271484
-0.238415271043777466 -0.140319973230361938 -0.0544765777885913849
-0.11384938657283783 -0.0087872333824634552 -0.0169312767684459686
0.389030635356903076 -0.277632176876068115 0.320298701524734497
-0.506907463073730469 0.0117701571434736252 0.20160241425037384
0.462154686450958252 -0.296089023351669312 -0.295052528381347656
0.350683659315109253 -0.147557273507118225 0.321053892374038696
0.457342177629470825 -0.302894711494445801 -0.229467332363128662
0.0255505852401256561 -0.143878906965255737 -0.0203883610665798187
0.368304729461669922 -0.327104300260543823 0.318318665027618408
0.391463339328765869 -0.280811309814453125 0.316415697336196899
0.12811027467250824 -0.318501144647598267 -0.0978412479162216187
-0.134516730904579163 0.278799235820770264 0.116772696375846863
-0.333945810794830322 0.0954474136233329773 -0.102724581956863403
0.373382717370986938 -0.375006318092346191 -0.215658754110336304
0.519868016242980957 -0.344819486141204834 -0.323038935661315918
0.523512601852416992 -0.357207924127578735 -0.326975017786026001
-0.0689911618828773499 -0.254391521215438843 0.0984741002321243286
0.324957668781280518 -0.130192205309867859 0.314435094594955444
0.423861652612686157 -0.259099006652832031 0.327861040830612183
-0.480187267065048218 0.0322935022413730621 0.195876568555831909
0.526687026023864746 -0.298680961132049561 -0.322597235441207886
0.538241565227508545 -0.291634798049926758 -0.324939548969268799
0.377189040184020996 -0.373209059238433838 -0.214464709162712097
0.370811909437179565 -0.356223762035369873 -0.214392110705375671
0.524217128753662109 -0.350805342197418213 -0.325416833162307739
0.525511860847473145 -0.362579107284545898 -0.323541641235351562
0.515626430511474609 -0.326231569051742554 -0.320424646139144897
0.479177266359329224 -0.35134357213973999 -0.312732130289077759
0.478346019983291626 -0.364813745021820068 -0.313316643238067627
-0.36254921555519104 0.311159312725067139 0.238988742232322693
-0.321813911199569702 0.105114243924617767 0.0218923091888427734
-0.447556287050247192 0.204685255885124207 -0.0406047403812408447
-0.377597570419311523 0.279779165983200073 -0.00826036464422941208
-0.0229816213250160217 -0.26037946343421936 0.143050342798233032
-0.590977907180786133 0.361520528793334961 0.0639251172542572021
0.367001056671142578 -0.372643589973449707 -0.213143870234489441
-0.124128364026546478 -0.0102344043552875519 0.00742493569850921631
0.396278142929077148 -0.352436363697052002 -0.218957304954528809
0.506497085094451904 -0.158913806080818176 0.124858781695365906
0.195757001638412476 0.12469879537820816 0.00583521975204348564
-0.0271012801676988602 0.167381271719932556 0.382582545280456543
-0.333938360214233398 -0.120719358325004578 0.099576897919178009
-0.325282305479049683 0.303407639265060425 -0.0373495854437351227
0.534385561943054199 -0.346032649278640747 0.0372305959463119507
0.525591552257537842 -0.330915927886962891 0.0339757204055786133
-0.595133185386657715 0.382506877183914185 0.113047987222671509
-0.0114674791693687439 -0.143597081303596497 -0.0270106401294469833
-0.235914409160614014 0.172759711742401123 -0.00227637309581041336
-0.485092431306838989 -0.00999425537884235382 0.177379503846168518
-0.277729690074920654 0.3365936279296875 0.0419081896543502808
0.513384163379669189 -0.348203212022781372 0.0965699851512908936
-0.448159277439117432 -0.0348117128014564514 0.117506891489028931
0.433939188718795776 -0.252512812614440918 0.331543028354644775
0.414645463228225708 -0.277558743953704834 0.326946645975112915
-0.469195276498794556 0.0348982438445091248 0.192730262875556946
0.502096414566040039 -0.338496863842010498 0.00789398234337568283
-0.480974078178405762 -0.00230195373296737671 0.17782747745513916
-0.376728951930999756 -0.105974294245243073 0.0928953438997268677
-0.500606715679168701 0.0225885603576898575 0.184115231037139893
0.36019626259803772 -0.286127418279647827 -0.142166659235954285
0.00150858424603939056 -0.231024041771888733 0.0895038396120071411
-0.140425950288772583 0.265596598386764526 0.0880616456270217896
-0.129571318626403809 0.254977136850357056 0.0709215700626373291
0.311915934085845947 -0.292461276054382324 -0.131571665406227112
0.427920639514923096 -0.254827231168746948 0.329955339431762695
-0.615085244178771973 0.307336002588272095 0.392082810401916504
0.41033172607421875 -0.357016712427139282 -0.227090314030647278
0.505024492740631104 -0.345458984375 -0.320157080888748169
0.507817566394805908 -0.351702272891998291 -0.323010444641113281
0.523700952529907227 -0.297538697719573975 -0.318963140249252319
0.509751975536346436 -0.345840781927108765 -0.320496320724487305
0.270247220993041992 -0.168788328766822815 -0.0799653232097625732
0.133563026785850525 0.12092696875333786 0.328495621681213379
0.251655548810958862 -0.284418314695358276 0.327873915433883667
0.323994308710098267 -0.119492776691913605 0.310176998376846313
0.300981760025024414 -0.203894138336181641 0.250770777463912964
0.249559476971626282 -0.00316791608929634094 0.324644088745117188
0.507065176963806152 -0.34221985936164856 0.0871647298336029053
0.241445779800415039 0.0905238017439842224 0.309561580419540405
0.462321639060974121 -0.283296406269073486 -0.231557145714759827
-0.26182931661605835 0.314368665218353271 0.0456025749444961548
0.343355149030685425 -0.139350339770317078 0.32925829291343689
0.373347163200378418 -0.362949937582015991 -0.209324866533279419
0.336936920881271362 -0.128597468137741089 0.320318698883056641
0.526665985584259033 -0.346194982528686523 -0.324307501316070557
0.524443626403808594 -0.351217061281204224 -0.32698407769203186
0.479930877685546875 -0.37145349383354187 -0.313459217548370361
-0.359873831272125244 -0.0640739724040031433 0.0827829539775848389
-0.407575428485870361 0.0890652462840080261 -0.113841898739337921
0.014170326292514801 0.0984402894973754883 0.216606348752975464
-0.377763718366622925 -0.0928193405270576477 -0.028489917516708374
0.265416651964187622 0.0687608495354652405 -0.0923679322004318237
-0.107950508594512939 -0.0147577002644538879 0.0455166958272457123
-0.358378618955612183 -0.0914838016033172607 0.0125790731981396675
-0.289959311485290527 0.305247068405151367 0.16605357825756073
-0.355082422494888306 -0.0727325677871704102 0.0406506247818470001
-0.597934067249298096 0.294963479042053223 0.186097174882888794
0.249040365219116211 0.0973139926791191101 -0.0347455032169818878
0.378853648900985718 -0.3541107177734375 -0.210011884570121765
0.469114035367965698 -0.323865324258804321 0.137740552425384521
0.464180231094360352 -0.27114558219909668 -0.0932804793119430542
-0.439155906438827515 -0.0427244678139686584 0.08393898606300354
-0.336428046226501465 -0.124291442334651947 0.126864880323410034
0.528535068035125732 -0.341124445199966431 0.0504010505974292755
0.391946226358413696 0.0477536730468273163 0.133061259984970093
-0.185358300805091858 0.314357161521911621 0.107511304318904877
-0.44093167781829834 -0.0420593023300170898 0.117965973913669586
0.537416696548461914 -0.325230687856674194 -0.0561144351959228516
-0.352863878011703491 0.306821227073669434 0.1135072261095047
0.493980377912521362 -0.345138043165206909 0.0436846092343330383
-0.575577497482299805 0.306012600660324097 0.379181325435638428
0.430895239114761353 -0.280201911926269531 0.333279281854629517
-0.477645426988601685 0.00442090025171637535 0.164020359516143799
0.525035738945007324 -0.3489188551902771 -0.0030016670934855938
-0.0677585974335670471 -0.262356400489807129 0.297948956489562988
-0.512231409549713135 0.00504668522626161575 0.187644988298416138
0.389574408531188965 -0.359397321939468384 -0.216241776943206787
-0.11885187029838562 0.255306780338287354 0.0632113665342330933
-0.500062406063079834 0.00537666724994778633 0.193078964948654175
0.426232278347015381 -0.273725152015686035 0.330355614423751831
-0.333942294120788574 0.104773066937923431 -0.1189870685338974
-0.10556580126285553 0.254651725292205811 0.0933383852243423462
0.510789394378662109 -0.34080958366394043 -0.320073038339614868
-0.61253821849822998 0.303107410669326782 0.396156042814254761
-0.50880199670791626 0.0371181629598140717 0.188663125038146973
-0.29154542088508606 -0.0885507538914680481 -0.0791642144322395325
0.509536504745483398 -0.344025015830993652 -0.32141450047492981
0.0721642374992370605 0.139619961380958557 0.0721984729170799255
0.245200276374816895 0.107898496091365814 0.320984512567520142
0.472844094038009644 -0.28602328896522522 -0.231158003211021423
0.304700672626495361 -0.314085781574249268 0.331529289484024048
0.5117950439453125 -0.349189192056655884 -0.322487235069274902
-0.315865308046340942 -0.0863437429070472717 -0.0349714197218418121
0.514357686042785645 -0.354903638362884521 -0.323515623807907104
-0.624711394309997559 0.180524334311485291 -0.0863871574401855469
-0.353973925113677979 -0.0549849458038806915 -0.144497588276863098
-0.330654680728912354 0.269593358039855957 -0.055724017322063446
