ply
format ascii 1.0
element vertex 738
property float x
property float y
property float z
end_header
-0.233148515224456787 0.155906572937965393 -0.00502218352630734444
0.506655573844909668 -0.332028031349182129 -0.00226239417679607868
0.445246845483779907 -0.249995127320289612 -0.22771117091178894
-0.639262735843658447 0.254486054182052612 0.0548475794494152069
0.533128499984741211 -0.262703895568847656 0.0935211479663848877
-0.393224179744720459 -0.0594780370593070984 0.100608572363853455
0.52438044548034668 -0.28965798020362854 -0.0918187424540519714
0.0282799489796161652 -0.27437293529510498 -0.0351067744195461273
0.38568452000617981 -0.306118696928024292 0.119092501699924469
-0.582444965839385986 0.366823375225067139 0.132002770900726318
0.240702271461486816 0.00296603073365986347 0.18141724169254303
-0.112943895161151886 0.165426403284072876 0.347733259201049805
0.482675522565841675 -0.368408799171447754 -0.0217839647084474564
0.412678927183151245 -0.321175992488861084 -0.210741594433784485
0.507805705070495605 -0.155489221215248108 0.124316059052944183
0.529304683208465576 -0.334753215312957764 0.0130896596238017082
-0.584380507469177246 0.336428523063659668 0.0344314239919185638
-0.591019392013549805 0.381927907466888428 0.131565004587173462
0.526718974113464355 -0.244308561086654663 -0.310358643531799316
0.474854409694671631 -0.290729433298110962 -0.299162805080413818
-0.597486197948455811 0.353694707155227661 0.16994611918926239
-0.587615370750427246 0.371470659971237183 0.101417429745197296
-0.212049767374992371 -0.129766494035720825 -0.0574925951659679413
0.234792590141296387 -0.293154686689376831 0.315206199884414673
0.238495379686355591 0.067188069224357605 0.320359379053115845
0.542328476905822754 -0.313869565725326538 -0.057841666042804718
-0.44484749436378479 -0.0486020296812057495 0.127253785729408264
0.359984904527664185 -0.388410955667495728 -0.208730250597000122
-0.556792795658111572 0.211150467395782471 -0.113331086933612823
0.521265506744384766 -0.279545217752456665 -0.176832377910614014
0.242359712719917297 0.0348186492919921875 0.314832687377929688
0.243226513266563416 0.000527850177604705095 0.0239846576005220413
0.381195545196533203 0.0390274599194526672 0.0122569333761930466
0.527192234992980957 -0.230601578950881958 -0.309862017631530762
0.327480316162109375 0.0963968709111213684 -0.0355408564209938049
-0.37435874342918396 -0.0604359619319438934 -0.132687821984291077
0.513428986072540283 -0.167495891451835632 0.136205404996871948
-0.574752509593963623 0.322020590305328369 0.049790605902671814
-0.5592842698097229 0.283389747142791748 0.364351093769073486
0.224866509437561035 0.032072555273771286 -0.0578560791909694672
-0.574560225009918213 0.214656859636306763 -0.220754712820053101
-0.0441423095762729645 0.156609192490577698 0.0814856290817260742
0.114424057304859161 0.110157735645771027 0.0257672667503356934
0.343204081058502197 -0.247000694274902344 -0.0965826287865638733
-0.285234570503234863 0.300454020500183105 -0.00253215199336409569
0.153680026531219482 -0.00432082405313849449 -0.00326340505853295326
0.0693432092666625977 0.138923704624176025 0.0759628042578697205
-0.270210981369018555 0.280198007822036743 0.00199136184528470039
0.5038108229637146 -0.292605102062225342 -0.159070760011672974
0.137331143021583557 -0.0257716700434684753 0.013410705141723156
-0.339155584573745728 -0.0321632958948612213 0.0230031367391347885
0.373891055583953857 -0.0917529910802841187 0.0446115396916866302
0.200361952185630798 0.101402923464775085 -0.00146558927372097969
-0.297370612621307373 -0.0251846704632043839 0.0361401066184043884
0.132123515009880066 -0.0177582092583179474 -0.025790700688958168
0.101733162999153137 0.0160960275679826736 0.0915021374821662903
0.176070228219032288 0.119504958391189575 0.038366362452507019
-0.230545759201049805 -0.063836224377155304 0.104841709136962891
0.486505359411239624 -0.296669304370880127 -0.303299754858016968
-0.603447854518890381 0.289483517408370972 0.185381144285202026
0.467697083950042725 -0.308770954608917236 0.120363883674144745
0.378770947456359863 -0.0143048390746116638 0.00673401914536952972
0.514827072620391846 -0.295328617095947266 -0.103213965892791748
0.519262194633483887 -0.2396983802318573 -0.307362735271453857
0.478339910507202148 -0.309741437435150146 -0.300055354833602905
0.483814328908920288 -0.274514824151992798 -0.299676656723022461
0.117538727819919586 0.118815243244171143 0.297872662544250488
-0.584460079669952393 0.356353223323822021 0.0660619661211967468
0.384229004383087158 -0.337419658899307251 0.125777512788772583
-0.574728190898895264 0.317697137594223022 -0.0262798964977264404
-0.604676961898803711 0.217117339372634888 -0.0866301432251930237
0.268182575702667236 0.0393952801823616028 -0.085916370153427124
-0.356534749269485474 -0.0223217159509658813 -0.130966663360595703
-0.564538896083831787 0.314321726560592651 -0.00764126190915703773
0.19103635847568512 -0.340969741344451904 -0.074539870023727417
0.404600173234939575 -0.357674658298492432 -0.223801180720329285
-0.500457346439361572 0.145470038056373596 0.354806184768676758
0.510107517242431641 -0.151446312665939331 0.115289673209190369
0.49727281928062439 -0.263915687799453735 -0.304159402847290039
0.458401709794998169 -0.280884832143783569 -0.289510607719421387
0.441364884376525879 -0.264965295791625977 -0.283461540937423706
-0.58827584981918335 0.357458829879760742 0.0619775988161563873
0.505715370178222656 -0.126754477620124817 0.12471374124288559
-0.206295952200889587 0.312444627285003662 0.108998402953147888
0.26862645149230957 -0.284165054559707642 0.319400101900100708
0.232978567481040955 0.00355897331610321999 0.318121463060379028
0.513686954975128174 -0.175618782639503479 -0.281502336263656616
-0.115149527788162231 0.00980528164654970169 0.00613117450848221779
0.404331684112548828 -0.359703958034515381 -0.224424883723258972
0.418113797903060913 -0.313338786363601685 0.14403824508190155
-0.555783629417419434 0.37646859884262085 0.186997964978218079
-0.175681173801422119 0.309119552373886108 0.118680708110332489
-0.3899497389793396 0.275997668504714966 -0.0847944393754005432
0.365756630897521973 0.051963265985250473 0.0249615143984556198
0.129518002271652222 0.115714907646179199 0.319101423025131226
-0.286580592393875122 -0.100801490247249603 -0.0918831750750541687
0.258564144372940063 0.101044744253158569 -0.061676952987909317
-0.361364632844924927 -0.0599900372326374054 -0.143950536847114563
0.13447222113609314 0.11367768794298172 0.338045984506607056
-0.56332629919052124 0.19930674135684967 -0.228738412261009216
-0.276560783386230469 0.287971705198287964 -0.000633447663858532906
0.455319613218307495 -0.246445685625076294 -0.288047194480895996
0.460665136575698853 -0.275413870811462402 -0.290577143430709839
-0.635099172592163086 0.308126151561737061 0.170597121119499207
0.512964546680450439 -0.317512392997741699 -0.0383093766868114471
0.469367474317550659 -0.265806317329406738 -0.297706335783004761
0.478579431772232056 -0.295030832290649414 -0.299989789724349976
0.458576202392578125 -0.246228218078613281 -0.289619177579879761
0.381571024656295776 -0.361048340797424316 -0.213612765073776245
-0.479594916105270386 -0.0127587830647826195 0.185992062091827393
-0.516733109951019287 0.365727424621582031 0.174272999167442322
-0.618754327297210693 0.202005162835121155 -0.0868940502405166626
-0.23732970654964447 0.0186905823647975922 -0.0723327770829200745
-0.382687658071517944 -0.0592465773224830627 0.0238805264234542847
0.475367337465286255 -0.3684120774269104 0.0220872703939676285
-0.649476110935211182 0.236725553870201111 0.0324809178709983826
0.413027018308639526 -0.34676826000213623 -0.221396669745445251
0.526564657688140869 -0.337206631898880005 0.0803374573588371277
0.506458878517150879 -0.239002272486686707 -0.307821124792098999
0.249970436096191406 -0.282356083393096924 0.318451672792434692
0.239651694893836975 0.0666186437010765076 0.31490519642829895
0.540039360523223877 -0.301857024431228638 -0.0934000536799430847
-0.448005437850952148 -0.0416008532047271729 0.126687690615653992
-0.0436908043920993805 0.104401737451553345 0.317998617887496948
0.248418614268302917 0.0210591182112693787 0.322459191083908081
-0.284902364015579224 -0.0999315306544303894 -0.0989005565643310547
-0.137689247727394104 -0.01521260105073452 -0.0485898777842521667
-0.278000086545944214 0.337846219539642334 0.0472520552575588226
-0.254813700914382935 0.289881467819213867 -0.00296741421334445477
-0.218972563743591309 0.321872562170028687 0.0701048299670219421
-0.573454439640045166 0.152200862765312195 -0.0742286443710327148
-0.290085136890411377 0.29267352819442749 0.0163030736148357391
0.526127040386199951 -0.320705503225326538 0.0274533610790967941
0.346607953310012817 -0.0304176472127437592 -0.0341412909328937531
0.522750198841094971 -0.362979978322982788 0.089669644832611084
-0.083161182701587677 -0.112003728747367859 0.078666001558303833
-0.404182106256484985 0.325992494821548462 0.121452376246452332
0.505251109600067139 -0.367131233215332031 -0.00421119015663862228
-0.118649773299694061 0.266076773405075073 0.121208988130092621
0.519223272800445557 -0.343008935451507568 0.0361211635172367096
0.130615413188934326 -0.334862411022186279 0.301409453153610229
0.467141151428222656 -0.311109989881515503 0.0727464780211448669
0.483369827270507812 -0.374076247215270996 0.0526050478219985962
0.421620965003967285 -0.0259627439081668854 0.0651945397257804871
0.494645357131958008 -0.363590329885482788 -0.0152582405135035515
-0.233031004667282104 0.287120938301086426 0.0843838080763816833
0.531712591648101807 -0.3318004310131073 -0.00695066992193460464
-0.272065073251724243 0.315364152193069458 0.114199176430702209
0.308746576309204102 0.0026638589333742857 0.0466269776225090027
0.467849969863891602 -0.263414621353149414 -0.295777052640914917
0.474343866109848022 -0.304388612508773804 0.114519089460372925
0.511647224426269531 -0.313664644956588745 -0.104113191366195679
0.509606420993804932 -0.245351538062095642 -0.308142006397247314
0.448377102613449097 -0.292522013187408447 -0.292470157146453857
0.46681821346282959 -0.283279210329055786 -0.296987175941467285
0.138709098100662231 0.112797819077968597 0.336987286806106567
-0.652329444885253906 0.285721510648727417 0.0982575789093971252
-0.638510048389434814 0.244817808270454407 -0.0379197262227535248
0.136691421270370483 0.0692627206444740295 0.338098078966140747
-0.577322661876678467 0.303820610046386719 -0.0552720427513122559
0.26295897364616394 0.030565991997718811 -0.0731296688318252563
0.542471945285797119 -0.216736793518066406 0.111853279173374176
-0.360164135694503784 -0.0359683185815811157 -0.134149447083473206
-0.574970781803131104 0.327506721019744873 -0.0292863380163908005
-0.361855864524841309 -0.0711770728230476379 -0.0338237248361110687
-0.130449607968330383 -0.267906785011291504 0.119208447635173798
0.495621323585510254 -0.365888535976409912 -9.41348116612061858e-05
0.374262243509292603 -0.35944896936416626 -0.209778830409049988
-0.378463774919509888 -0.107192210853099823 0.101439207792282104
-0.0669290870428085327 -0.264316737651824951 0.296593844890594482
0.520285308361053467 -0.243301853537559509 -0.309163182973861694
0.509953737258911133 -0.330613672733306885 0.0155485346913337708
-0.593590021133422852 0.36900019645690918 0.120825275778770447
-0.655547618865966797 0.175650104880332947 -0.102726802229881287
-0.222996920347213745 -0.144415721297264099 -0.053579334169626236
-0.191276073455810547 0.316632688045501709 0.100959300994873047
0.257078081369400024 -0.283643752336502075 0.319887310266494751
0.239622145891189575 0.0322465486824512482 0.319367051124572754
-0.120020225644111633 -0.0462563410401344299 0.00750453304499387741
-0.641774177551269531 0.308652251958847046 0.102116040885448456
0.365148365497589111 -0.374000072479248047 -0.206695795059204102
0.538258969783782959 -0.217766106128692627 0.16213226318359375
-0.552985250949859619 0.382471323013305664 0.158201694488525391
-0.122436009347438812 0.259291261434555054 0.115342177450656891
0.119811296463012695 0.10249616950750351 0.0897211730480194092
-0.375607877969741821 0.265840291976928711 -0.0893335267901420593
0.517386138439178467 -0.349128097295761108 0.0990369170904159546
-0.293561577796936035 -0.107403770089149475 -0.109154149889945984
0.275489598512649536 0.10310586541891098 -0.0573132224380970001
-0.575295567512512207 0.219565302133560181 -0.21234758198261261
-0.115473531186580658 0.268566250801086426 0.180006593465805054
0.236418560147285461 -0.288136899471282959 0.314567446708679199
0.310629189014434814 -0.187409654259681702 0.241268262267112732
0.542239367961883545 -0.325879275798797607 -0.0206484068185091019
0.0792552381753921509 -0.337985605001449585 0.282345831394195557
-0.00619953544810414314 -0.172065958380699158 0.00443791458383202553
-0.282359898090362549 0.261716753244400024 0.0072712763212621212
0.513539731502532959 -0.237071618437767029 -0.309156537055969238
-0.647129297256469727 0.278269797563552856 0.0797916576266288757
-0.646483004093170166 0.183162376284599304 -0.0905774906277656555
0.514591336250305176 -0.322571128606796265 0.0245596412569284439
-0.407042592763900757 -0.063878960907459259 0.113648504018783569
0.517299354076385498 -0.355761677026748657 -0.0203538555651903152
-0.566797375679016113 0.374345541000366211 0.15271034836769104
0.236375629901885986 0.0430629141628742218 0.313917070627212524
-0.664993226528167725 0.227121844887733459 0.0233673527836799622
-0.448214590549468994 -0.0387011468410491943 0.127196967601776123
0.503446102142333984 -0.302286446094512939 -0.178600981831550598
-0.589338243007659912 0.36106523871421814 0.0863364934921264648
-0.194120213389396667 0.314904630184173584 0.105074875056743622
0.247401490807533264 0.0239637326449155807 0.32405322790145874
0.531381368637084961 -0.323838382959365845 -0.0578112304210662842
-0.182856321334838867 0.307000309228897095 0.128681942820549011
0.247648522257804871 0.00703033804893493652 0.324181228876113892
0.0589244440197944641 0.139653041958808899 0.345921516418457031
-0.505883514881134033 0.14927421510219574 0.35700911283493042
0.271141856908798218 -0.311394304037094116 0.326430141925811768
-0.253774106502532959 0.0234266500920057297 -0.0705475956201553345
0.241469770669937134 -0.29544907808303833 0.322669178247451782
0.249436736106872559 0.0438553355634212494 0.31464916467666626
0.468894124031066895 -0.101905912160873413 0.0349197126924991608
-0.124686434864997864 0.19507114589214325 0.11560465395450592
0.240359559655189514 -0.3267822265625 0.31811639666557312
0.500739395618438721 -0.366676062345504761 0.0749128684401512146
0.523919939994812012 -0.324774473905563354 0.0264766011387109756
0.445104897022247314 -0.253334224224090576 0.332585901021957397
0.321962803602218628 -0.131436154246330261 -0.10637761652469635
0.0636467263102531433 -0.0108373044058680534 0.321846216917037964
0.511784553527832031 -0.360967785120010376 0.0477749928832054138
0.136050119996070862 -0.100769266486167908 0.0407516621053218842
0.0498246811330318451 0.011508602648973465 0.0299375727772712708
0.0210518911480903625 0.0482015945017337799 0.0427991636097431183
0.088441506028175354 -0.066176190972328186 0.289785981178283691
-0.162017092108726501 -0.266005575656890869 0.148087576031684875
0.265441805124282837 -0.0201304685324430466 0.0618157312273979187
-0.0287243910133838654 -0.0291661471128463745 0.295679569244384766
0.502612829208374023 -0.240320488810539246 -0.301739007234573364
0.476375877857208252 -0.314975976943969727 -0.301691144704818726
-0.631079435348510742 0.306275069713592529 0.167581528425216675
0.475980818271636963 -0.320911198854446411 0.121278643608093262
0.509559810161590576 -0.300886720418930054 -0.105273209512233734
0.528647780418395996 -0.274904191493988037 -0.316930621862411499
0.49398118257522583 -0.332444280385971069 -0.310449093580245972
0.50402069091796875 -0.320221453905105591 0.0982755273580551147
0.474626541137695312 -0.305807650089263916 -0.297841429710388184
-0.5595131516456604 0.268033057451248169 0.364673882722854614
0.125378534197807312 0.116844668984413147 0.314402192831039429
-0.633720815181732178 0.28223806619644165 0.0545346848666667938
-0.587528407573699951 0.36281740665435791 0.102668769657611847
0.371986120939254761 -0.374149203300476074 -0.212472304701805115
0.438974291086196899 -0.348109990358352661 0.154594391584396362
0.0584162548184394836 0.121270351111888885 0.321296572685241699
-0.57475125789642334 0.368811845779418945 0.215746656060218811
0.265220224857330322 0.0246698018163442612 -0.0583355985581874847
0.369314342737197876 -0.336942464113235474 0.160866230726242065
0.511000871658325195 -0.301605165004730225 -0.111722178757190704
0.134026840329170227 -0.320844858884811401 -0.0975791215896606445
0.517078578472137451 -0.348884612321853638 -0.0200098678469657898
0.389777600765228271 -0.346864134073257446 -0.213826492428779602
-0.577175915241241455 0.319083571434020996 0.0410503745079040527
0.536462068557739258 -0.277874380350112915 -0.320336788892745972
0.468336284160614014 -0.31094670295715332 -0.298978567123413086
0.50770878791809082 -0.34723171591758728 0.0182102862745523453
-0.556067168712615967 0.309707969427108765 0.102487705647945404
0.194349363446235657 -0.339587509632110596 -0.0589477755129337311
0.070468999445438385 -0.282506674528121948 -0.0777185708284378052
0.252948164939880371 -0.250486433506011963 0.320355683565139771
0.240417361259460449 0.0308886319398880005 0.317145287990570068
-0.120881833136081696 -0.0480567514896392822 0.008357977494597435
0.179226413369178772 -0.10030035674571991 -0.0145332217216491699
0.532972812652587891 -0.332405894994735718 -0.0128896571695804596
0.370851337909698486 -0.349597513675689697 -0.20860821008682251
0.535513043403625488 -0.245945185422897339 0.177538841962814331
0.561580181121826172 -0.315836548805236816 -0.330680429935455322
0.555086612701416016 -0.211801409721374512 0.134202569723129272
-0.543448925018310547 0.380768567323684692 0.164737358689308167
0.123308613896369934 0.117153868079185486 0.133386284112930298
-0.582406461238861084 0.35193324089050293 0.0980595871806144714
-0.48171466588973999 0.185866490006446838 -0.091266237199306488
0.516165673732757568 -0.339305907487869263 0.0391145944595336914
0.253956645727157593 -0.279418736696243286 0.322171121835708618
0.279023736715316772 -0.356152921915054321 -0.125804707407951355
0.508376121520996094 -0.286693602800369263 -0.31340181827545166
-0.432190060615539551 -0.0575526729226112366 0.11687508225440979
0.20247139036655426 0.0904558151960372925 0.223625615239143372
0.244811996817588806 0.104591675102710724 -0.0568890012800693512
-0.195657834410667419 0.201389327645301819 0.349457859992980957
0.250985860824584961 0.0248532164841890335 0.323578864336013794
0.240337520837783813 0.0189370922744274139 0.32126656174659729
-0.0312064159661531448 0.162595480680465698 0.382835119962692261
-0.482584297657012939 -0.0159702207893133163 0.180349692702293396
0.484367728233337402 -0.369241565465927124 0.0463601686060428619
-0.643653512001037598 0.287086129188537598 0.0865065231919288635
0.276486307382583618 -0.165956988930702209 -0.0701962411403656006
-0.411846846342086792 -0.0572204329073429108 0.0790984928607940674
-0.643140435218811035 0.175620794296264648 -0.0816710814833641052
-0.225841209292411804 -0.134303614497184753 -0.052035406231880188
0.255460798740386963 -0.265824407339096069 0.321335822343826294
-0.345353066921234131 0.0170542448759078979 -0.116686418652534485
-0.287084609270095825 -0.0919039994478225708 -0.106314085423946381
-0.585191845893859863 0.209774523973464966 -0.217653527855873108
0.268126070499420166 -0.297289669513702393 0.315413117408752441
-0.0253157112747430801 -0.187621265649795532 -0.0432693101465702057
-0.61820375919342041 0.276876568794250488 0.0317181199789047241
-0.608986258506774902 0.298193424940109253 0.0927714705467224121
-0.397582083940505981 -0.0632317438721656799 0.119066804647445679
-0.451752215623855591 -0.0385289415717124939 0.119683235883712769
0.431683391332626343 -0.271975278854370117 0.329457342624664307
-0.052193816751241684 0.140665203332901001 0.0919720306992530823
-0.503149628639221191 0.150898352265357971 0.355624794960021973
0.241321146488189697 -0.319603085517883301 0.323015004396438599
0.497746437788009644 -0.371063172817230225 0.0576762259006500244
0.399877756834030151 -0.257095664739608765 0.32273373007774353
-0.158167138695716858 -0.263991266489028931 0.181717216968536377
-0.499254882335662842 0.0137058738619089127 0.158290430903434753
0.418163031339645386 -0.297617405652999878 0.329000592231750488
0.535894632339477539 -0.340397387742996216 -0.0181207247078418732
0.344855457544326782 -0.267608106136322021 -0.127539411187171936
-0.496573448181152344 0.0716855674982070923 0.204185426235198975
0.444225728511810303 -0.272417634725570679 0.333685070276260376
0.522643387317657471 -0.335616588592529297 0.0331173501908779144
0.453900814056396484 -0.32008776068687439 -0.292720437049865723
0.474862754344940186 -0.31191977858543396 0.117019914090633392
0.517754971981048584 -0.27857816219329834 -0.312513351440429688
0.503189682960510254 -0.326125442981719971 -0.314015895128250122
0.518740415573120117 -0.327347695827484131 0.102235585451126099
0.479853391647338867 -0.311609953641891479 -0.301861226558685303
0.114969193935394287 0.118444301187992096 0.289262354373931885
-0.121791653335094452 0.268511176109313965 0.159028992056846619
-0.614951848983764648 0.265341073274612427 0.0524091646075248718
-0.47948262095451355 0.00270386785268783569 0.18152327835559845
0.427310168743133545 -0.355307966470718384 0.158872723579406738
-0.292256742715835571 -0.110990561544895172 -0.10557972639799118
0.130936458706855774 0.0653356313705444336 0.321462839841842651
0.254277318716049194 0.0385979749262332916 -0.0774452909827232361
0.236031621694564819 0.0938070341944694519 -0.0527180582284927368
0.418253988027572632 -0.261746764183044434 -0.202020138502120972
0.522288620471954346 -0.35488477349281311 -0.0191369354724884033
-0.609042644500732422 0.380998373031616211 0.181530579924583435
0.518105447292327881 -0.279478877782821655 -0.314436286687850952
0.499734222888946533 -0.350245743989944458 0.0244028028100728989
-0.588012397289276123 0.369190335273742676 0.113350898027420044
0.506608903408050537 -0.10486871749162674 0.14761662483215332
-0.197983399033546448 0.311435043811798096 0.113189198076725006
0.264572262763977051 -0.286873757839202881 0.320001780986785889
0.237448364496231079 0.0620121993124485016 0.31081467866897583
-0.144345968961715698 -0.0438023731112480164 0.00442055100575089455
-0.657897472381591797 0.214535579085350037 -0.0458351597189903259
-0.288550674915313721 -0.0763497129082679749 -0.0684104636311531067
0.227782994508743286 0.0420595556497573853 -0.0478083044290542603
0.552168428897857666 -0.144645735621452332 0.132360547780990601
0.520386457443237305 -0.295597255229949951 0.0752139613032341003
0.518153905868530273 -0.284252345561981201 -0.180863991379737854
-0.358085155487060547 -0.0174562800675630569 -0.0277253631502389908
0.0919060036540031433 0.0880578458309173584 0.0860686823725700378
0.467257797718048096 -0.362148046493530273 -0.0103419637307524681
-0.433018654584884644 0.15751175582408905 -0.066202796995639801
0.524412333965301514 -0.335892528295516968 0.0692147985100746155
0.263431638479232788 -0.286243140697479248 0.318724989891052246
0.0096644153818488121 -0.091277390718460083 -0.0258664004504680634
0.0328792743384838104 -0.13070368766784668 0.0221049301326274872
-0.630861043930053711 0.264859765768051147 0.0293816141784191132
0.242654502391815186 0.074190482497215271 0.319085478782653809
0.240725070238113403 0.0294128656387329102 0.319157898426055908
-0.174750044941902161 0.300713479518890381 0.116567842662334442
0.305181026458740234 -0.15153089165687561 0.308057159185409546
0.262464672327041626 -0.291046321392059326 0.321208953857421875
-0.476290464401245117 -0.00856310408562421799 0.166409760713577271
0.243291020393371582 0.0816321969032287598 0.312447071075439453
0.520835518836975098 -0.351554632186889648 0.0822475254535675049
-0.0346448943018913269 -0.238030165433883667 0.124268770217895508
-0.63847041130065918 0.289864093065261841 0.0991284027695655823
-0.234162449836730957 -0.133277416229248047 -0.0578212067484855652
-0.379310250282287598 -0.109273508191108704 0.105705656111240387
-0.236370056867599487 -0.148312419652938843 -0.0576736032962799072
-0.658109843730926514 0.214227601885795593 -0.0335428826510906219
0.529472529888153076 -0.352885693311691284 0.0781894102692604065
-0.621309399604797363 0.270120173692703247 0.0528072267770767212
-0.404204249382019043 -0.0647758916020393372 0.112242884933948517
-0.446409255266189575 -0.0419193282723426819 0.122186020016670227
0.268536686897277832 -0.285932660102844238 0.323686361312866211
0.128031492233276367 -0.327016741037368774 0.31274038553237915
0.152709528803825378 -0.343499124050140381 0.318019509315490723
0.448228567838668823 -0.335852831602096558 -0.292695552110671997
0.516304135322570801 -0.303183883428573608 -0.107643470168113708
0.515727460384368896 -0.280450880527496338 -0.312531709671020508
0.485359638929367065 -0.327895790338516235 -0.309495478868484497
0.464839011430740356 -0.346114069223403931 -0.302369832992553711
0.550089418888092041 -0.21038353443145752 -0.31567460298538208
0.524587392807006836 -0.30024254322052002 -0.322188436985015869
0.518454670906066895 -0.301054865121841431 -0.318083226680755615
0.24737846851348877 0.0569034405052661896 0.316677242517471313
0.241858378052711487 0.0873879119753837585 0.313015133142471313
-0.291712135076522827 -0.100991010665893555 -0.10170610249042511
-0.453666538000106812 -0.0524067692458629608 0.117281064391136169
0.405348330736160278 -0.272522509098052979 0.322776317596435547
-0.502517879009246826 0.00339254690334200859 0.189321145415306091
0.401639223098754883 -0.28750842809677124 0.325088709592819214
0.399788111448287964 -0.27381974458694458 0.323570609092712402
0.342810213565826416 -0.259225726127624512 0.0904036760330200195
-0.0185311492532491684 -0.244820684194564819 0.128842636942863464
-0.464616477489471436 0.0356151275336742401 0.189742952585220337
-0.194367468357086182 0.221390038728713989 0.172279492020606995
0.367402762174606323 -0.329537242650985718 -0.0232067704200744629
0.323921829462051392 -0.390383005142211914 -0.15858924388885498
0.535974025726318359 -0.323845505714416504 -0.057913217693567276
-0.441857963800430298 -0.0051220073364675045 0.152892798185348511
-0.0188784673810005188 -0.0598174631595611572 0.141944363713264465
4.17891751567367464e-05 -0.236541658639907837 0.106574073433876038
0.526762485504150391 -0.201960325241088867 -0.0797046422958374023
0.450289547443389893 -0.308529019355773926 -0.292576104402542114
0.527320325374603271 -0.275607168674468994 -0.315385192632675171
0.50038599967956543 -0.32507556676864624 -0.312384903430938721
0.475706607103347778 -0.305236846208572388 -0.297093808650970459
-0.127357587218284607 0.246467798948287964 0.139217957854270935
-0.649171710014343262 0.281893998384475708 0.0945169106125831604
-0.198969349265098572 0.286478042602539062 0.336092740297317505
0.498593628406524658 -0.0868714600801467896 0.136990532279014587
0.201211065053939819 -0.359507620334625244 -0.0905689150094985962
0.505963027477264404 -0.367914080619812012 -0.0223938953131437302
0.527832508087158203 -0.242889955639839172 0.173244595527648926
-0.586171090602874756 0.379216045141220093 0.170915871858596802
0.445507347583770752 -0.315125584602355957 -0.28745153546333313
0.499170869588851929 -0.111243568360805511 0.112503722310066223
-0.655926227569580078 0.175334066152572632 -0.103424116969108582
-0.201960429549217224 0.308635145425796509 0.0894125401973724365
0.201789334416389465 -0.0137873999774456024 0.295507967472076416
0.16046924889087677 -0.0623544305562973022 -0.0437586605548858643
-0.579750955104827881 0.302100688219070435 0.36889195442199707
0.275595217943191528 0.0983344241976737976 -0.0287449061870574951
-0.435389071702957153 0.155217930674552917 -0.085723578929901123
0.535004138946533203 -0.333266764879226685 0.0130516728386282921
-0.568905353546142578 0.197221726179122925 -0.228747114539146423
-0.497755050659179688 0.0447409935295581818 -0.0865713357925415039
0.0317396111786365509 -0.104289241135120392 0.0332629792392253876
0.534572839736938477 -0.264641404151916504 -0.316029936075210571
0.0100646736100316048 0.197563201189041138 0.0278983116149902344
0.302701115608215332 0.0388279110193252563 -0.0841064676642417908
-0.332176476716995239 -0.0162833575159311295 -0.107458643615245819
0.236996263265609741 0.0142901502549648285 0.322069406509399414
0.125475749373435974 0.0127885937690734863 0.299181282520294189
0.528089165687561035 -0.355402469635009766 0.0666375979781150818
0.467603534460067749 -0.31002160906791687 -0.232816189527511597
-0.652152061462402344 0.285235047340393066 0.10462062805891037
0.54717099666595459 -0.220151916146278381 0.163807779550552368
0.528599262237548828 -0.323584198951721191 -0.0157331526279449463
-0.383012592792510986 -0.0567565932869911194 0.0764313638210296631
0.457410335540771484 -0.311009824275970459 -0.292274057865142822
0.505458712577819824 -0.34000086784362793 -0.317624688148498535
0.479322433471679688 -0.314486891031265259 -0.299220383167266846
0.520862042903900146 -0.301459580659866333 -0.317048043012619019
-0.00196998938918113708 -0.140300139784812927 -0.0245603471994400024
0.398121923208236694 -0.273377925157546997 0.323745489120483398
0.401792913675308228 -0.271803379058837891 0.324051171541213989
0.506685793399810791 -0.332209646701812744 0.106163002550601959
-0.467611610889434814 0.0421593561768531799 0.170864388346672058
0.410643100738525391 -0.346127688884735107 0.156893044710159302
-0.36077582836151123 -0.0355739332735538483 -0.147851854562759399
-0.127981096506118774 -0.268145322799682617 0.112572900950908661
0.513181686401367188 -0.369253009557723999 -0.0143392318859696388
-0.213595420122146606 0.312434017658233643 0.0979397669434547424
0.251125633716583252 -0.28739166259765625 0.323143750429153442
0.209481015801429749 0.00932342186570167542 -0.0457539409399032593
0.0703769326210021973 -0.151802420616149902 -0.0169606395065784454
-0.169585734605789185 0.304668515920639038 0.119131907820701599
0.471717387437820435 -0.36456829309463501 0.00738204875960946083
-0.290831983089447021 -0.0997802093625068665 -0.102962933480739594
0.0368352346122264862 -0.149976089596748352 -0.021435324102640152
0.232741311192512512 0.056124173104763031 0.309496372938156128
0.253934144973754883 -0.288952678442001343 0.320926666259765625
-0.471709936857223511 0.000834093487355858088 0.168873056769371033
0.241566434502601624 0.0625876039266586304 0.313399165868759155
0.50957101583480835 -0.352245688438415527 0.0642898008227348328
0.227942138910293579 -0.315123587846755981 0.314817816019058228
-0.375308036804199219 -0.0935217365622520447 0.0863937884569168091
-0.0624136067926883698 -0.24202430248260498 0.302713751792907715
-0.22250637412071228 -0.128011107444763184 -0.0528785251080989838
-0.409821391105651855 -0.0657889768481254578 0.0987408086657524109
-0.444952696561813354 -0.0450453720986843109 0.132955491542816162
0.239511176943778992 -0.2943459153175354 0.314697265625
0.15438312292098999 -0.324697166681289673 0.320334464311599731
0.425932437181472778 -0.256275832653045654 0.328901290893554688
0.438781917095184326 -0.343083202838897705 -0.292349457740783691
0.506878018379211426 -0.334701180458068848 -0.317769259214401245
0.445632517337799072 -0.352431565523147583 -0.28640708327293396
0.238830775022506714 0.065651237964630127 0.312678277492523193
0.403866738080978394 -0.287736564874649048 0.326212972402572632
-0.494740933179855347 0.00642449967563152313 0.188603177666664124
0.486444652080535889 -0.0632921755313873291 0.132125452160835266
0.0129334842786192894 -0.171048641204833984 0.0101146697998046875
0.532174348831176758 -0.307772725820541382 -0.0618761628866195679
0.315412402153015137 -0.302465885877609253 -0.126483052968978882
0.446478307247161865 -0.291457235813140869 -0.28530806303024292
-0.336789458990097046 0.224530905485153198 0.125993818044662476
-0.400742083787918091 -0.0284608006477355957 -0.00164089386817067862
0.403778791427612305 -0.271945774555206299 0.324434638023376465
-0.133000358939170837 0.195639610290527344 0.168031603097915649
0.399828076362609863 -0.271883487701416016 0.324247539043426514
-0.44641837477684021 -0.0252326857298612595 0.0216853655874729156
-0.137690067291259766 0.244717687368392944 0.191982030868530273
-0.612720966339111328 0.29393613338470459 0.18404032289981842
0.12509174644947052 0.11597616970539093 0.316990435123443604
-0.120606794953346252 0.250468850135803223 0.162132710218429565
-0.583229899406433105 0.348102718591690063 0.0584941878914833069
0.427552461624145508 -0.348296642303466797 0.153379246592521667
-0.566653013229370117 0.295030862092971802 -0.0685914978384971619
0.252536267042160034 0.0267194956541061401 -0.0791744217276573181
0.248337700963020325 0.100436016917228699 -0.0479326285421848297
-0.357245862483978271 -0.0559404566884040833 -0.141595169901847839
0.199370428919792175 0.120236858725547791 0.0361589305102825165
0.546299517154693604 -0.131575241684913635 0.112366549670696259
-0.581541836261749268 0.321726232767105103 -0.0224581006914377213
0.206819996237754822 0.0246132314205169678 0.177190333604812622
-0.595255434513092041 0.375090807676315308 0.172330737113952637
0.445530503988265991 -0.319365143775939941 0.127722322940826416
0.255739063024520874 -0.278913676738739014 0.316774100065231323
0.23621329665184021 0.0237322207540273666 0.316917479038238525
-0.362694799900054932 -0.049984905868768692 -0.0235074665397405624
-0.182334661483764648 0.118027627468109131 0.0426217131316661835
0.255452334880828857 -0.288356214761734009 0.319588124752044678
0.242653116583824158 0.0331157371401786804 0.322185128927230835
0.40060955286026001 0.0234031882137060165 0.115584969520568848
-0.340272217988967896 -0.0662976205348968506 -0.147045299410820007
0.0763077884912490845 -0.333231151103973389 0.299179524183273315
-0.386538416147232056 -0.0610131844878196716 0.0940577238798141479
-0.447986990213394165 -0.0415166132152080536 0.127967715263366699
0.440077424049377441 -0.279407590627670288 0.333970338106155396
0.0349851697683334351 -0.123009048402309418 -0.0253348927944898605
0.415042847394943237 -0.280866324901580811 0.327313423156738281
0.43375059962272644 -0.296164453029632568 0.33347049355506897
0.368623942136764526 -0.278730928897857666 -0.129933685064315796
-0.477236449718475342 0.00126514455769211054 0.188525870442390442
-0.291245579719543457 -0.0964862555265426636 -0.104293078184127808
0.242065459489822388 -0.313140243291854858 0.309942930936813354
0.473939985036849976 -0.354288220405578613 0.00738904625177383423
-0.29607805609703064 -0.0967331752181053162 -0.106744334101676941
0.245422571897506714 -0.288710534572601318 0.320337444543838501
0.0628316774964332581 -0.329938113689422607 0.297261357307434082
0.158642977476119995 -0.267879188060760498 -0.105246245861053467
0.250868916511535645 0.0634026452898979187 0.315827667713165283
-0.482316792011260986 -0.00808250065892934799 0.178169667720794678
0.23700028657913208 0.06656675785779953 0.315178960561752319
0.239399760961532593 -0.331952840089797974 0.321665793657302856
-0.381993263959884644 -0.0921879410743713379 0.036973852664232254
-0.215764090418815613 -0.140253663063049316 -0.0541166476905345917
-0.38243943452835083 -0.0638214871287345886 0.083775646984577179
0.150588378310203552 -0.331810057163238525 0.332119554281234741
0.446598142385482788 -0.279938489198684692 0.333894222974777222
0.408154696226119995 -0.280579239130020142 0.325425893068313599
-0.501828908920288086 0.00640835100784897804 0.188920438289642334
-0.321652799844741821 0.0971536040306091309 -0.0699559450149536133
0.533271670341491699 -0.207500085234642029 -0.0522847697138786316
0.451669603586196899 -0.29389488697052002 -0.290197610855102539
0.488119632005691528 -0.325246840715408325 -0.310625702142715454
0.447112053632736206 -0.309744656085968018 -0.290565162897109985
-0.577598989009857178 0.269091665744781494 0.366077989339828491
-0.461225897073745728 0.105752184987068176 -0.230673536658287048
0.375604301691055298 -0.318791061639785767 0.199395284056663513
-0.589619338512420654 0.366850018501281738 0.131566092371940613
0.393278807401657104 -0.353484898805618286 -0.21719852089881897
0.441809147596359253 -0.310288548469543457 -0.288774400949478149
-0.200342178344726562 0.305360198020935059 0.0952708348631858826
-0.155144646763801575 0.267836868762969971 0.151946097612380981
0.530573129653930664 -0.338524013757705688 0.0721297189593315125
0.464542776346206665 -0.266141891479492188 -0.217373430728912354
-0.633332490921020508 0.275623112916946411 0.107371069490909576
0.439131408929824829 -0.308581143617630005 -0.286944806575775146
0.516168355941772461 -0.2771930992603302 -0.316582858562469482
0.517279267311096191 -0.340354710817337036 -0.320507794618606567
0.455073744058609009 -0.307057291269302368 -0.293000400066375732
0.491673111915588379 -0.322010517120361328 0.0946958884596824646
0.0211510546505451202 -0.276044309139251709 -0.0183418355882167816
-0.6538582444190979 0.171869724988937378 -0.10770869255065918
-0.224400773644447327 0.318450897932052612 0.121653072535991669
0.466112822294235229 -0.364175170660018921 0.0062196836806833744
0.481840431690216064 -0.336892962455749512 0.0505867525935173035
0.512182712554931641 -0.339414715766906738 -0.319165945053100586
0.440888345241546631 -0.356583893299102783 -0.297362595796585083
-0.269749075174331665 0.321932047605514526 0.04220624640583992
0.424854964017868042 -0.313307642936706543 -0.281639218330383301
0.416242122650146484 -0.29532778263092041 0.328757345676422119
-0.325818240642547607 -0.0756418034434318542 0.123693488538265228
-0.366626381874084473 -0.0669663920998573303 0.154895305633544922
-0.338042140007019043 0.214691072702407837 0.133126169443130493
0.0106029482558369637 0.119328506290912628 0.105464190244674683
0.542780280113220215 -0.309245198965072632 -0.0459100492298603058
0.0141736874356865883 -0.2620353102684021 0.0397407524287700653
-0.00302746542729437351 -0.236817166209220886 0.0944861918687820435
0.00073460571002215147 -0.219844639301300049 0.081753171980381012
0.465692192316055298 -0.361036747694015503 0.0306166466325521469
-0.269079208374023438 -0.138304248452186584 0.177685678005218506
-0.344819337129592896 -0.0661346092820167542 0.141487687826156616
0.12409498542547226 -0.276907235383987427 0.12922242283821106
-0.133477985858917236 0.0786659941077232361 0.0905709192156791687
0.464272528886795044 -0.0543692037463188171 0.0179439540952444077
-0.0136155169457197189 -0.2171611487865448 0.0805914774537086487
-0.554598391056060791 0.391550779342651367 0.148073852062225342
0.497373968362808228 -0.366900116205215454 0.00554569670930504799
-0.6105499267578125 0.29393315315246582 0.186842665076255798
0.530700325965881348 -0.27525600790977478 -0.317421913146972656
0.37111547589302063 -0.264732420444488525 0.181825727224349976
0.421107232570648193 -0.34461250901222229 0.15114612877368927
0.252677857875823975 0.0392226390540599823 -0.0663041695952415466
0.55019766092300415 -0.149980142712593079 0.124548278748989105
-0.570401847362518311 0.283996343612670898 -0.00594351720064878464
0.50164109468460083 -0.362749576568603516 -0.000986208324320614338
0.208902493119239807 0.11570507287979126 -0.0100742531940340996
-0.288896292448043823 -0.085863947868347168 -0.0661397427320480347
0.159851282835006714 -0.0833342298865318298 -0.0358483865857124329
-0.339677631855010986 -0.10572843998670578 0.141520187258720398
0.511710286140441895 -0.281422793865203857 -0.312935471534729004
-0.339005142450332642 -0.0798853635787963867 0.0388752855360507965
-0.369158536195755005 0.280670076608657837 -0.0622120611369609833
0.510596036911010742 -0.341096043586730957 0.0654149800539016724
0.302983850240707397 -0.206061214208602905 0.248182028532028198
0.543517231941223145 -0.312129825353622437 -0.060459967702627182
0.142113402485847473 0.0694092884659767151 0.336636513471603394
-0.594708919525146484 0.26745152473449707 0.0125896427780389786
0.222632557153701782 -0.0071773892268538475 0.295851558446884155
0.231490775942802429 0.0342678315937519073 0.313052356243133545
0.534236311912536621 -0.319748073816299438 -0.0125018041580915451
-0.389072179794311523 -0.064228348433971405 0.106018848717212677
-0.447329998016357422 -0.0403679460287094116 0.126819834113121033
0.496696382761001587 -0.0913861542940139771 0.154781132936477661
0.251536458730697632 0.0630798488855361938 0.316945523023605347
-0.291061639785766602 -0.0930247083306312561 0.307901203632354736
-0.366279959678649902 -0.115034975111484528 0.104301139712333679
-0.563232243061065674 0.127183780074119568 -0.0780380964279174805
-0.501294255256652832 0.0232622940093278885 0.186971291899681091
0.518765568733215332 -0.297448456287384033 -0.313776135444641113
0.473228365182876587 -0.328362107276916504 -0.299626827239990234
-0.574131548404693604 0.268756210803985596 0.363003939390182495
-0.571033775806427002 0.354826986789703369 0.167400315403938293
-0.19141639769077301 0.304611474275588989 0.101630069315433502
-0.661888480186462402 0.239702343940734863 0.0420705452561378479
-0.504723787307739258 0.144238933920860291 0.353610485792160034
0.50776594877243042 -0.347284704446792603 -0.318063020706176758
-0.200252160429954529 0.304942071437835693 0.102288484573364258
0.475839406251907349 -0.357815593481063843 0.00497589400038123131
0.510483622550964355 -0.330910205841064453 0.0666915625333786011
-0.610561788082122803 0.367542773485183716 0.0881931111216545105
-0.562349140644073486 0.288245320320129395 -0.0554994866251945496
0.220562547445297241 0.0101904422044754028 0.309379339218139648
0.24113832414150238 0.00503040570765733719 0.321844369173049927
-0.359297752380371094 -0.0570871196687221527 -0.137591391801834106
0.399961233139038086 -0.252946406602859497 0.322179645299911499
0.400262981653213501 -0.263322561979293823 0.324929565191268921
0.224660083651542664 -0.324415683746337891 0.320891231298446655
0.411747902631759644 -0.268062829971313477 0.325349748134613037
-0.508935689926147461 0.0492408424615859985 0.19556814432144165
-0.631029188632965088 0.156412854790687561 -0.0522088557481765747
-0.501695394515991211 0.146804735064506531 0.3455849289894104
0.521566510200500488 -0.350845038890838623 -0.322809547185897827
0.496014863252639771 -0.348535329103469849 0.000492336635943502188
-0.197563081979751587 0.0159760750830173492 -0.0496529676020145416
-0.55760425329208374 0.341742634773254395 -0.00528648775070905685
0.489231854677200317 -0.360678404569625854 0.0413120724260807037
0.449871629476547241 -0.0743032768368721008 0.00226133875548839569
-0.556130111217498779 0.38515588641166687 0.158189564943313599
0.375280380249023438 -0.0812646523118019104 -0.119616135954856873
-0.389509886503219604 0.319486737251281738 0.169119715690612793
-0.384472459554672241 0.328047424554824829 0.197805970907211304
-0.363944560289382935 0.23792603611946106 -0.0831204131245613098
-0.407089740037918091 0.199384883046150208 0.0412439145147800446
-0.644281089305877686 0.286764144897460938 0.0940238237380981445
0.409273087978363037 -0.347487539052963257 0.13666851818561554
0.222983419895172119 0.0828504785895347595 -0.0332108177244663239
0.499272525310516357 -0.161434009671211243 0.124084480106830597
0.501033663749694824 -0.0929918065667152405 0.135016083717346191
0.215972721576690674 0.00173984025605022907 0.299710333347320557
-0.35288161039352417 -0.0684131309390068054 -0.00881252065300941467
-0.385201573371887207 0.265922904014587402 -0.0712981969118118286
0.507160544395446777 -0.347317814826965332 0.05516834557056427
-0.356717199087142944 -0.0565480738878250122 -0.145182833075523376
0.132735148072242737 0.072466626763343811 0.322363108396530151
-0.0991699621081352234 -0.265951722860336304 0.00630179373547434807
0.243051573634147644 0.0231805425137281418 0.322154760360717773
-0.480181396007537842 -0.0120108872652053833 0.185545757412910461
0.243087902665138245 0.04817972332239151 0.317341834306716919
-0.277921944856643677 0.332606375217437744 0.040991075336933136
0.370506852865219116 -0.0309539381414651871 -0.0396506860852241516
0.520834207534790039 -0.348215579986572266 -0.0360805802047252655
0.293973445892333984 -0.0120782377198338509 0.0373008660972118378
-0.643967926502227783 0.284681916236877441 0.0928713232278823853
0.036220695823431015 0.136571541428565979 0.0853883177042007446
-0.397203117609024048 -0.0579342730343341827 0.126113995909690857
-0.441186130046844482 -0.03852120041847229 0.131559804081916809
0.52450251579284668 -0.317789912223815918 -0.0652237236499786377
0.423103243112564087 -0.28025442361831665 0.331412971019744873
0.510325610637664795 -0.345212340354919434 0.0573358237743377686
0.404519021511077881 -0.259124815464019775 0.323825687170028687
-0.480090230703353882 0.0177611261606216431 0.176947638392448425
0.236126959323883057 0.0683696717023849487 0.314741045236587524
-0.479240894317626953 -0.00865953601896762848 0.16759134829044342
0.239753827452659607 0.0673800185322761536 0.315143942832946777
0.388855010271072388 0.0258697774261236191 0.106271378695964813
0.220182120800018311 -0.316417008638381958 0.310549706220626831
0.383673816919326782 0.0427922159433364868 0.069323219358921051
0.463382244110107422 0.0105958571657538414 0.175314813852310181
0.400142699480056763 -0.258917123079299927 0.327398508787155151
-0.499404609203338623 0.0208409745246171951 0.181174278259277344
-0.573322832584381104 0.266029238700866699 0.360226422548294067
-0.664351224899291992 0.229765027761459351 0.0222253594547510147
-0.148905113339424133 0.275201082229614258 0.0793387666344642639
0.522609233856201172 -0.335264027118682861 -0.322423398494720459
-0.220085024833679199 0.315504342317581177 0.097013816237449646
0.500551581382751465 -0.346808850765228271 0.0672262907028198242
-0.189409196376800537 0.302586913108825684 0.115024097263813019
0.314278572797775269 -0.130419269204139709 0.300916135311126709
0.225700929760932922 -0.0354795455932617188 0.30534672737121582
0.0578776821494102478 -0.331214100122451782 0.29150739312171936
0.4358978271484375 -0.28028753399848938 0.33292582631111145
0.409620672464370728 -0.286091715097427368 0.331090271472930908
0.386328130960464478 -0.266122877597808838 0.318972647190093994
0.398018062114715576 -0.384932577610015869 -0.225494742393493652
-0.161898747086524963 0.278209686279296875 0.12886500358581543
0.381314933300018311 0.0438131652772426605 0.0772636532783508301
0.39145505428314209 -0.256075918674468994 0.318982422351837158
-0.500124633312225342 0.0241237115114927292 0.186010703444480896
0.500167965888977051 -0.326144814491271973 -0.313046842813491821
0.381201446056365967 -0.376227825880050659 -0.216105729341506958
0.521672606468200684 -0.349490880966186523 -0.324825972318649292
0.521233320236206055 -0.348630011081695557 -0.321764498949050903
0.513858973979949951 -0.319870114326477051 -0.318387597799301147
0.255595803260803223 -0.222681373357772827 0.0576653517782688141
0.186539307236671448 -0.142571732401847839 -0.105431519448757172
0.508444547653198242 -0.320490449666976929 0.0293869972229003906
-0.469272583723068237 -0.0122651886194944382 0.181240811944007874
0.49675673246383667 -0.349189132452011108 -0.309716522693634033
0.522016704082489014 -0.327746033668518066 -0.321895748376846313
0.476569205522537231 -0.320467084646224976 -0.302992135286331177
-0.340956538915634155 0.229690819978713989 -0.0440337322652339935
0.202298730611801147 0.132673934102058411 0.112434409558773041
-0.172267839312553406 0.0219337791204452515 0.0258001741021871567
0.266214817762374878 -0.166087552905082703 0.00621747272089123726
0.545326769351959229 -0.328562825918197632 -0.0477143749594688416
-0.456100404262542725 -0.0534798987209796906 0.162358179688453674
0.470259279012680054 -0.356289476156234741 -0.30704963207244873
