ply
format ascii 1.0
element vertex 738
property float x
property float y
property float z
end_header
-0.556527853012084961 0.376472979784011841 0.186494365334510803
-0.176347583532333374 0.309104204177856445 0.118511758744716644
-0.390703290700912476 0.275879621505737305 -0.0851761400699615479
0.365303784608840942 0.0518370456993579865 0.0249645020812749863
0.129037663340568542 0.115706101059913635 0.319120615720748901
-0.287430137395858765 -0.100847147405147552 -0.0921151116490364075
0.258105278015136719 0.100885182619094849 -0.0617040954530239105
-0.362227410078048706 -0.0600784048438072205 -0.144310876727104187
0.133995905518531799 0.113671593368053436 0.338066577911376953
-0.564142107963562012 0.19913521409034729 -0.229333236813545227
-0.277259081602096558 0.287895113229751587 -0.000884354754816740751
0.454726517200469971 -0.246651291847229004 -0.2881908118724823
0.460063070058822632 -0.275619417428970337 -0.290732741355895996
-0.635845661163330078 0.308127760887145996 0.170070916414260864
0.512341141700744629 -0.317570596933364868 -0.0383847318589687347
0.46876293420791626 -0.266013622283935547 -0.297861397266387939
0.477964550256729126 -0.295236647129058838 -0.300158202648162842
0.457981705665588379 -0.246434122323989868 -0.289763361215591431
0.380978882312774658 -0.361211031675338745 -0.213778302073478699
-0.480442225933074951 -0.0127286603674292564 0.185669839382171631
-0.517475008964538574 0.365724414587020874 0.17382301390171051
-0.619539797306060791 0.201907053589820862 -0.0874834656715393066
-0.238087430596351624 0.018619045615196228 -0.0725704729557037354
-0.383529186248779297 -0.0592527687549591064 0.0235699266195297241
0.474757730960845947 -0.368445366621017456 0.0220092590898275375
-0.650238513946533203 0.23668140172958374 0.0319109261035919189
0.412428826093673706 -0.346933692693710327 -0.2215576171875
0.525934755802154541 -0.337215512990951538 0.0802770480513572693
0.505841553211212158 -0.239206820726394653 -0.307972431182861328
0.249473065137863159 -0.282342463731765747 0.318418920040130615
0.239202782511711121 0.0665971115231513977 0.314945787191390991
0.539398610591888428 -0.301936924457550049 -0.0934872403740882874
-0.448848813772201538 -0.0415793508291244507 0.126358166337013245
-0.0442557297646999359 0.104422025382518768 0.317958950996398926
0.247967898845672607 0.021045902743935585 0.322497427463531494
-0.285750538110733032 -0.0999818220734596252 -0.0991379544138908386
-0.138390928506851196 -0.0152691993862390518 -0.0487747341394424438
-0.278696447610855103 0.337796717882156372 0.0469875633716583252
-0.255508840084075928 0.289808094501495361 -0.00321794836781919003
-0.219652757048606873 0.321836352348327637 0.0698905959725379944
-0.574253439903259277 0.152108773589134216 -0.0747706890106201172
-0.290790140628814697 0.292606592178344727 0.0160370133817195892
0.525499105453491211 -0.320734292268753052 0.0273916758596897125
0.346131771802902222 -0.0305464509874582291 -0.0341550707817077637
0.522116601467132568 -0.362983375787734985 0.089600004255771637
-0.0838275402784347534 -0.111991956830024719 0.0785526782274246216
-0.404918700456619263 0.325968831777572632 0.121105007827281952
0.504623830318450928 -0.367170333862304688 -0.00429786602035164833
-0.119291238486766815 0.266060113906860352 0.121078677475452423
0.518594741821289062 -0.343033134937286377 0.0360518395900726318
0.130082130432128906 -0.3348255455493927 0.301325887441635132
0.466552793979644775 -0.311131268739700317 0.0727033093571662903
0.482755333185195923 -0.374096453189849854 0.0525292567908763885
0.421140372753143311 -0.0260508153587579727 0.0652124211192131042
0.494024157524108887 -0.363636314868927002 -0.0153452940285205841
-0.233717992901802063 0.287088125944137573 0.0841758847236633301
0.531077206134796143 -0.331840038299560547 -0.00702498387545347214
-0.272763460874557495 0.315341353416442871 0.11396683007478714
0.308283627033233643 0.00256644492037594318 0.0466354340314865112
0.467246800661087036 -0.263621240854263306 -0.295930385589599609
0.473757892847061157 -0.304396480321884155 0.114485897123813629
0.51102137565612793 -0.313754081726074219 -0.104207918047904968
0.508985579013824463 -0.245554715394973755 -0.308296322822570801
0.447775393724441528 -0.292727887630462646 -0.292634725570678711
0.466211676597595215 -0.283487468957901001 -0.297148197889328003
0.138234227895736694 0.11279083788394928 0.337008953094482422
-0.65307086706161499 0.285708457231521606 0.097669944167137146
-0.639276266098022461 0.244741901755332947 -0.0385111793875694275
0.136214122176170349 0.0692630484700202942 0.338117003440856934
-0.578070521354675293 0.303723275661468506 -0.0558415204286575317
0.262488424777984619 0.0304158534854650497 -0.0731584876775741577
0.541860997676849365 -0.216750532388687134 0.111841611564159393
-0.361016541719436646 -0.0360570996999740601 -0.134501352906227112
-0.575709700584411621 0.327422142028808594 -0.0298521164804697037
-0.36270257830619812 -0.0712057128548622131 -0.0341393053531646729
-0.131176874041557312 -0.267852902412414551 0.119038306176662445
0.495000839233398438 -0.365927696228027344 -0.000177670401171781123
0.373671889305114746 -0.359609633684158325 -0.209942281246185303
-0.379318922758102417 -0.107147254049777985 0.101159229874610901
-0.0675472691655158997 -0.264262616634368896 0.296464443206787109
0.519659042358398438 -0.243502631783485413 -0.309318244457244873
0.509332358837127686 -0.330648362636566162 0.0154816387221217155
-0.594321131706237793 0.368984580039978027 0.120287410914897919
-0.656344592571258545 0.175554588437080383 -0.103355154395103455
-0.223797857761383057 -0.144446194171905518 -0.0538155511021614075
-0.191947579383850098 0.316611051559448242 0.10077454149723053
0.256581157445907593 -0.283630818128585815 0.319855839014053345
0.239170476794242859 0.0322320722043514252 0.319404751062393188
-0.120709776878356934 -0.0462825186550617218 0.00734745291993021965
-0.642516911029815674 0.30863344669342041 0.101555302739143372
0.364557355642318726 -0.374158620834350586 -0.206865176558494568
0.537653326988220215 -0.217768684029579163 0.162125691771507263
-0.553720474243164062 0.382466018199920654 0.157707348465919495
-0.123078726232051849 0.259272128343582153 0.11520954966545105
0.119311049580574036 0.102431386709213257 0.0897067412734031677
-0.376360267400741577 0.265720784664154053 -0.0897024422883987427
0.516760110855102539 -0.349131494760513306 0.0989753976464271545
-0.294404029846191406 -0.107465147972106934 -0.109443046152591705
0.275035709142684937 0.102944143116474152 -0.0573370084166526794
-0.576101303100585938 0.219400078058242798 -0.21294867992401123
-0.11611165851354599 0.268567472696304321 0.179898038506507874
0.235918521881103516 -0.288121163845062256 0.314529538154602051
0.310138136148452759 -0.187412545084953308 0.241279125213623047
0.541598677635192871 -0.32592347264289856 -0.0207243915647268295
0.0786983445286750793 -0.337938189506530762 0.282245516777038574
-0.00684721488505601883 -0.172077476978302002 0.00432484922930598259
-0.283068329095840454 0.261646240949630737 0.00701360870152711868
0.51291888952255249 -0.237274989485740662 -0.309308320283889771
-0.647877275943756104 0.278244584798812866 0.0792219564318656921
-0.647275090217590332 0.183069780468940735 -0.0911967456340789795
0.513969600200653076 -0.322602599859237671 0.02449767105281353
-0.407883346080780029 -0.0638537630438804626 0.113347560167312622
0.516666233539581299 -0.355806708335876465 -0.0204412732273340225
-0.567533016204833984 0.374338805675506592 0.152204230427742004
0.235923856496810913 0.0430459789931774139 0.313955187797546387
-0.665759444236755371 0.227076351642608643 0.0227871499955654144
-0.449056923389434814 -0.038680199533700943 0.126867786049842834
0.502823591232299805 -0.302416890859603882 -0.178720667958259583
-0.59006732702255249 0.361035436391830444 0.0857879742980003357
-0.194792762398719788 0.314884275197982788 0.104890435934066772
0.246950969099998474 0.0239504184573888779 0.324091464281082153
0.530745387077331543 -0.323901474475860596 -0.0578966997563838959
-0.183525532484054565 0.3069877028465271 0.12851269543170929
0.247196435928344727 0.00701995566487312317 0.324218124151229858
0.0584166795015335083 0.139658302068710327 0.345919519662857056
-0.506635904312133789 0.149303779006004333 0.356705516576766968
0.270639568567276001 -0.311380952596664429 0.326391905546188354
-0.254539430141448975 0.0233554523438215256 -0.0707928910851478577
0.240969762206077576 -0.295433610677719116 0.322629541158676147
0.248987644910812378 0.0438364185392856598 0.314689397811889648
0.46836969256401062 -0.101981170475482941 0.0349279157817363739
-0.125325620174407959 0.195050731301307678 0.115484058856964111
0.239851385354995728 -0.326764196157455444 0.318065494298934937
0.500119268894195557 -0.36668667197227478 0.0748431980609893799
0.523292303085327148 -0.32480350136756897 0.02641313336789608
0.444562852382659912 -0.253321319818496704 0.332594364881515503
0.321448713541030884 -0.13157227635383606 -0.106423124670982361
0.0631295442581176758 -0.010814727284014225 0.321833521127700806
0.511156618595123291 -0.360986977815628052 0.0477007031440734863
0.135515287518501282 -0.100812338292598724 0.0407146885991096497
0.049266323447227478 0.0114544723182916641 0.0298683494329452515
0.0204837005585432053 0.0481511242687702179 0.0427217409014701843
0.0879266262054443359 -0.0661531016230583191 0.289774328470230103
-0.162755906581878662 -0.265947490930557251 0.147905483841896057
0.264969140291213989 -0.0202094092965126038 0.0618237368762493134
-0.0292949732393026352 -0.0291344206780195236 0.295627772808074951
0.501997768878936768 -0.24052312970161438 -0.301888108253479004
0.475757032632827759 -0.315179884433746338 -0.301870763301849365
-0.631826579570770264 0.306275159120559692 0.167057648301124573
0.475388288497924805 -0.320916742086410522 0.121237412095069885
0.508937716484069824 -0.300978392362594604 -0.105362102389335632
0.52800828218460083 -0.275103658437728882 -0.317103117704391479
0.49335026741027832 -0.33264729380607605 -0.310642093420028687
0.503410518169403076 -0.320229858160018921 0.09822845458984375
0.474010944366455078 -0.306011438369750977 -0.298014461994171143
-0.56023859977722168 0.268057852983474731 0.364296764135360718
0.124896124005317688 0.11683567613363266 0.314420402050018311
-0.634469747543334961 0.28219941258430481 0.053970634937286377
-0.588257551193237305 0.362793952226638794 0.102125562727451324
0.371393680572509766 -0.374311149120330811 -0.212644040584564209
0.438394725322723389 -0.348109722137451172 0.154548048973083496
0.0579045340418815613 0.121274359524250031 0.321293830871582031
-0.575490653514862061 0.368825137615203857 0.215255230665206909
0.264749109745025635 0.0245276428759098053 -0.0583599917590618134
0.36876446008682251 -0.336944639682769775 0.160827159881591797
0.51037752628326416 -0.301699787378311157 -0.111814305186271667
0.133409768342971802 -0.320912480354309082 -0.0977244600653648376
0.516447186470031738 -0.348930418491363525 -0.0200941618531942368
0.389185875654220581 -0.347026944160461426 -0.213984966278076172
-0.577913761138916016 0.31903153657913208 0.0405112989246845245
0.535817146301269531 -0.278072953224182129 -0.320512920618057251
0.467722028493881226 -0.311151325702667236 -0.299154698848724365
0.507085144519805908 -0.347263932228088379 0.0181368179619312286
-0.556809723377227783 0.309677839279174805 0.101991452276706696
0.193756073713302612 -0.339644908905029297 -0.0590661987662315369
0.0698304027318954468 -0.282554268836975098 -0.0778624564409255981
0.252456545829772949 -0.250474929809570312 0.320334285497665405
0.23996560275554657 0.030873885378241539 0.317183047533035278
-0.121572345495223999 -0.0480822324752807617 0.00820090901106595993
0.178707018494606018 -0.10037347674369812 -0.0145647609606385231
0.532336294651031494 -0.332447707653045654 -0.0129658607766032219
0.370262891054153442 -0.349757879972457886 -0.208766847848892212
0.534902870655059814 -0.245941370725631714 0.177524164319038391
0.56091606616973877 -0.316030502319335938 -0.330880165100097656
0.554470658302307129 -0.211808949708938599 0.134193196892738342
-0.544185519218444824 0.380764782428741455 0.164254277944564819
0.122810602188110352 0.117099173367023468 0.133379712700843811
-0.583138465881347656 0.351906716823577881 0.0975242629647254944
-0.48250269889831543 0.185735717415809631 -0.0917141065001487732
0.515539944171905518 -0.339329987764358521 0.0390477366745471954
0.253460556268692017 -0.279405742883682251 0.322140216827392578
0.278438419103622437 -0.356259733438491821 -0.125938385725021362
0.507745683193206787 -0.286896616220474243 -0.313575565814971924
-0.433035910129547119 -0.0575293749570846558 0.116553895175457001
0.202010035514831543 0.0904144197702407837 0.223657563328742981
0.244348987936973572 0.104436784982681274 -0.0569171495735645294
-0.196295425295829773 0.201413005590438843 0.349359333515167236
0.250536024570465088 0.0248391591012477875 0.323617786169052124
0.239884987473487854 0.0189252104610204697 0.321303278207778931
-0.0317524336278438568 0.162615790963172913 0.382804602384567261
-0.483428001403808594 -0.015941208228468895 0.180017903447151184
0.483753323554992676 -0.369264483451843262 0.0462850145995616913
-0.644398987293243408 0.287063330411911011 0.0859375596046447754
0.275960624217987061 -0.166062697768211365 -0.0702410563826560974
-0.412690401077270508 -0.0572076067328453064 0.0787820667028427124
-0.643934428691864014 0.175532490015029907 -0.0822764039039611816
-0.226640090346336365 -0.134335190057754517 -0.0522709079086780548
0.254967004060745239 -0.26581236720085144 0.321309924125671387
-0.346177756786346436 0.0169627424329519272 -0.117014601826667786
-0.287921249866485596 -0.0919653773307800293 -0.106584876775741577
-0.58600229024887085 0.209610596299171448 -0.21826307475566864
0.267626464366912842 -0.297277063131332397 0.315379887819290161
-0.0259905606508255005 -0.187653020024299622 -0.043413553386926651
-0.618953466415405273 0.276826471090316772 0.0311562679708003998
-0.609730839729309082 0.298165827989578247 0.0922342091798782349
-0.398418515920639038 -0.0632050409913063049 0.118775829672813416
-0.452596157789230347 -0.0385100878775119781 0.119348287582397461
0.431144267320632935 -0.27196231484413147 0.329458355903625488
-0.0527935139834880829 0.140632942318916321 0.0918798148632049561
-0.503901898860931396 0.150927603244781494 0.355322718620300293
0.240815609693527222 -0.319585859775543213 0.322966635227203369
0.497125089168548584 -0.371079832315444946 0.0576012358069419861
0.399356216192245483 -0.257085740566253662 0.322737574577331543
-0.158889919519424438 -0.263930827379226685 0.181541532278060913
-0.500086128711700439 0.0137238604947924614 0.157930254936218262
0.417624980211257935 -0.29760405421257019 0.328991353511810303
0.535254597663879395 -0.340439766645431519 -0.0182020757347345352
0.344294250011444092 -0.267730236053466797 -0.127628430724143982
-0.497381478548049927 0.071705251932144165 0.203844636678695679
0.443680465221405029 -0.27240365743637085 0.333686918020248413
0.522014379501342773 -0.335642188787460327 0.0330504029989242554
0.4532909095287323 -0.320290654897689819 -0.292898625135421753
0.474273651838302612 -0.311926931142807007 0.11698276549577713
0.51712113618850708 -0.278778493404388428 -0.312684327363967896
0.502554833889007568 -0.326327919960021973 -0.314207851886749268
0.518118858337402344 -0.327352583408355713 0.102183610200881958
0.479233622550964355 -0.311813533306121826 -0.30203932523727417
0.114480584859848022 0.118432670831680298 0.289278358221054077
-0.122433096170425415 0.268505573272705078 0.15890936553478241
-0.61570441722869873 0.265299171209335327 0.0518620759248733521
-0.480328738689422607 0.00273049552924931049 0.181202992796897888
0.426734387874603271 -0.355307221412658691 0.1588248610496521
-0.293099254369735718 -0.11104930192232132 -0.105866305530071259
0.130454614758491516 0.0653349459171295166 0.321479946374893188
0.253805756568908691 0.0384459011256694794 -0.0774769708514213562
0.235564708709716797 0.0936583131551742554 -0.0527457296848297119
0.417675405740737915 -0.261907577514648438 -0.202133551239967346
0.521652936935424805 -0.354928433895111084 -0.019223993644118309
-0.609777450561523438 0.381006389856338501 0.181001529097557068
0.517471075057983398 -0.279679954051971436 -0.314608454704284668
0.499114722013473511 -0.350276529788970947 0.0243300553411245346
-0.588741540908813477 0.369171380996704102 0.112810924649238586
0.506067037582397461 -0.104898281395435333 0.147644519805908203
-0.198657497763633728 0.311417073011398315 0.113006047904491425
0.264075160026550293 -0.28686147928237915 0.31997111439704895
0.236998289823532104 0.0619910508394241333 0.310854613780975342
-0.145051956176757812 -0.0438295081257820129 0.00425251666456460953
-0.658674776554107666 0.214461103081703186 -0.046434648334980011
-0.289370059967041016 -0.0763972699642181396 -0.0686794891953468323
0.227304950356483459 0.0419262759387493134 -0.047835376113653183
0.551579892635345459 -0.144665956497192383 0.132371708750724792
0.519770026206970215 -0.295613229274749756 0.0751714184880256653
0.517526865005493164 -0.284382879734039307 -0.180978268384933472
-0.358911454677581787 -0.0174957104027271271 -0.0280293133109807968
0.091399073600769043 0.0880029201507568359 0.0860513895750045776
0.466651320457458496 -0.362196058034896851 -0.010424712672829628
-0.433809280395507812 0.157414376735687256 -0.0665993392467498779
0.523783743381500244 -0.335905462503433228 0.0691535547375679016
0.262934505939483643 -0.286230772733688354 0.318694323301315308
0.00904969871044158936 -0.0913245975971221924 -0.025977596640586853
0.0322758220136165619 -0.130727410316467285 0.022015860304236412
-0.631614744663238525 0.264811038970947266 0.0288133621215820312
0.242207139730453491 0.0741679370403289795 0.319127023220062256
0.240273371338844299 0.0293986964970827103 0.319195568561553955
-0.175415873527526855 0.300697296857833862 0.116401828825473785
0.304704666137695312 -0.151529595255851746 0.308078378438949585
0.261966705322265625 -0.291033536195755005 0.321176230907440186
-0.477129101753234863 -0.00853884685784578323 0.16607646644115448
0.242844045162200928 0.0816069021821022034 0.31248927116394043
0.520205914974212646 -0.351562052965164185 0.0821820273995399475
-0.0352961011230945587 -0.237989574670791626 0.124152369797229767
-0.639216125011444092 0.289844393730163574 0.0985697358846664429
-0.234967038035392761 -0.133311748504638672 -0.0580636970698833466
-0.380162924528121948 -0.109231717884540558 0.105422765016555786
-0.237181037664413452 -0.148343577980995178 -0.0579203665256500244
-0.658885180950164795 0.214158952236175537 -0.0341393575072288513
0.528836727142333984 -0.352892816066741943 0.0781214088201522827
-0.622060894966125488 0.270079255104064941 0.0522544421255588531
-0.4050445556640625 -0.0647505819797515869 0.111943908035755157
-0.447252780199050903 -0.041898876428604126 0.121856227517127991
0.268040239810943604 -0.285920828580856323 0.323656797409057617
0.127501994371414185 -0.326981097459793091 0.312657803297042847
0.152184680104255676 -0.343466490507125854 0.317938655614852905
0.447618067264556885 -0.336056053638458252 -0.292881757020950317
0.515677690505981445 -0.303275406360626221 -0.107735246419906616
0.515094459056854248 -0.280651718378067017 -0.312703251838684082
0.484733611345291138 -0.328100651502609253 -0.309685260057449341
0.4642200767993927 -0.346319794654846191 -0.302565425634384155
0.549453556537628174 -0.210581645369529724 -0.31582292914390564
0.523944675922393799 -0.300444066524505615 -0.322373688220977783
0.517815589904785156 -0.3012562096118927 -0.318266510963439941
0.246930301189422607 0.0568828098475933075 0.316718190908432007
0.241411551833152771 0.087361946702003479 0.313057392835617065
-0.292554795742034912 -0.101047269999980927 -0.101976431906223297
-0.454516291618347168 -0.0523851476609706879 0.116941913962364197
0.404821693897247314 -0.272511541843414307 0.322775214910507202
-0.503352999687194824 0.00341993640176951885 0.188972309231758118
0.401111394166946411 -0.287496805191040039 0.325082093477249146
0.399263858795166016 -0.273808956146240234 0.323568731546401978
0.342277586460113525 -0.259253561496734619 0.090381138026714325
-0.0191713180392980576 -0.244779467582702637 0.128731697797775269
-0.465432614088058472 0.0356367453932762146 0.18942733108997345
-0.195039600133895874 0.221383482217788696 0.172140315175056458
0.366831362247467041 -0.32960084080696106 -0.0232807472348213196
0.323328614234924316 -0.390510022640228271 -0.158748447895050049
0.535335540771484375 -0.323907822370529175 -0.0579990595579147339
-0.442684918642044067 -0.00510156713426113129 0.152581840753555298
-0.0194759499281644821 -0.0598097071051597595 0.141875281929969788
-0.000590675044804811478 -0.236508473753929138 0.106470495462417603
0.526157259941101074 -0.202053815126419067 -0.079751133918762207
0.449683487415313721 -0.308733254671096802 -0.292748421430587769
0.52668154239654541 -0.275806248188018799 -0.315557211637496948
0.499752908945083618 -0.325278043746948242 -0.312575489282608032
0.475090742111206055 -0.305440187454223633 -0.297266274690628052
-0.128000184893608093 0.246454641222953796 0.139093652367591858
-0.649915933609008789 0.281877219676971436 0.0939388275146484375
-0.199612870812416077 0.286508560180664062 0.335974514484405518
0.498063087463378906 -0.0869090557098388672 0.137020856142044067
0.200612962245941162 -0.359580725431442261 -0.090703137218952179
0.505333602428436279 -0.36796078085899353 -0.0224862657487392426
0.527228474617004395 -0.242888182401657104 0.173231765627861023
-0.586908459663391113 0.379217773675918579 0.170395120978355408
0.444901973009109497 -0.315327227115631104 -0.28762519359588623
0.49863162636756897 -0.111282341182231903 0.11252787709236145
-0.656723558902740479 0.175238341093063354 -0.104052253067493439
-0.202635511755943298 0.308608382940292358 0.0892208293080329895
0.201326742768287659 -0.0137913459911942482 0.295538425445556641
0.159944310784339905 -0.0624475590884685516 -0.0438075028359889984
-0.580469250679016113 0.302128911018371582 0.368488132953643799
0.275142431259155273 0.0981860905885696411 -0.0287597477436065674
-0.436184316873550415 0.155111134052276611 -0.0861292779445648193
0.534367501735687256 -0.3332977294921875 0.0129809873178601265
-0.569721996784210205 0.197051569819450378 -0.229346334934234619
-0.49860033392906189 0.0446581132709980011 -0.0870341658592224121
0.0311451386660337448 -0.104313850402832031 0.0331801660358905792
0.533932507038116455 -0.264839470386505127 -0.316198438405990601
0.00949709117412567139 0.197487905621528625 0.0278076138347387314
0.302239537239074707 0.0386634469032287598 -0.0841345861554145813
-0.333004146814346313 -0.0163628868758678436 -0.107773669064044952
0.236542701721191406 0.0142797073349356651 0.322105169296264648
0.124984875321388245 0.0127948829904198647 0.299193203449249268
0.527453362941741943 -0.355413258075714111 0.0665669292211532593
0.466993242502212524 -0.310188531875610352 -0.232963815331459045
-0.652895450592041016 0.28522220253944397 0.104043185710906982
0.54655832052230835 -0.220152780413627625 0.163799300789833069
0.527966976165771484 -0.323629081249237061 -0.0158058516681194305
-0.3838462233543396 -0.0567438825964927673 0.0761394724249839783
0.456801056861877441 -0.311212778091430664 -0.292447417974472046
0.504820406436920166 -0.340204089879989624 -0.317825049161911011
0.478702545166015625 -0.314689040184020996 -0.299398869276046753
0.5202217698097229 -0.301659703254699707 -0.317231357097625732
-0.00260902708396315575 -0.140335991978645325 -0.02468087337911129
0.397598534822463989 -0.27336728572845459 0.323743641376495361
0.401268124580383301 -0.271792590618133545 0.32405012845993042
0.506071150302886963 -0.332214534282684326 0.106111228466033936
-0.468427151441574097 0.0421754084527492523 0.170538067817687988
0.410076737403869629 -0.346129119396209717 0.156849682331085205
-0.361630856990814209 -0.0356703884899616241 -0.1482105553150177
-0.128709152340888977 -0.26809227466583252 0.112403169274330139
0.512548327445983887 -0.369294732809066772 -0.0144305238500237465
-0.214274495840072632 0.312409341335296631 0.0977417975664138794
0.250627994537353516 -0.287377864122390747 0.323109328746795654
0.208991274237632751 0.00920251291245222092 -0.0457832291722297668
0.0697843730449676514 -0.151845142245292664 -0.0170480385422706604
-0.170249849557876587 0.304653167724609375 0.118967436254024506
0.471111297607421875 -0.36460798978805542 0.0073038879781961441
-0.29167407751083374 -0.099837377667427063 -0.103232733905315399
0.0362204238772392273 -0.150015249848365784 -0.0215389430522918701
0.232289612293243408 0.0561045892536640167 0.309535115957260132
0.253436058759689331 -0.288939088582992554 0.320892512798309326
-0.47254568338394165 0.000857337843626737595 0.168546333909034729
0.2411174476146698 0.0625661984086036682 0.313439726829528809
0.508947551250457764 -0.352260500192642212 0.0642226040363311768
0.227435395121574402 -0.315104752779006958 0.314768284559249878
-0.376160323619842529 -0.0934814810752868652 0.0861160233616828918
-0.0630244314670562744 -0.241973906755447388 0.302593827247619629
-0.223301336169242859 -0.128044530749320984 -0.0531112141907215118
-0.410665631294250488 -0.0657672509551048279 0.0984323546290397644
-0.445795923471450806 -0.0450214073061943054 0.132630452513694763
0.239010035991668701 -0.29433014988899231 0.31465795636177063
0.153863206505775452 -0.324666738510131836 0.320260494947433472
0.425399154424667358 -0.256264150142669678 0.328907519578933716
0.438173562288284302 -0.343287527561187744 -0.292539209127426147
0.506239712238311768 -0.334904193878173828 -0.317967206239700317
0.445020884275436401 -0.352632015943527222 -0.286599338054656982
0.238381460309028625 0.0656295716762542725 0.312718689441680908
0.403337806463241577 -0.287724763154983521 0.326206475496292114
-0.495576828718185425 0.00645134458318352699 0.18826352059841156
0.485928565263748169 -0.0633389279246330261 0.132158041000366211
0.0123010743409395218 -0.171062320470809937 0.0100103132426738739
0.53154069185256958 -0.307839453220367432 -0.0619558282196521759
0.314843088388442993 -0.302581787109375 -0.126588508486747742
0.445878058671951294 -0.291659653186798096 -0.285469383001327515
-0.337523907423019409 0.224508807063102722 0.125737443566322327
-0.401584059000015259 -0.0284856054931879044 -0.00197287509217858315
0.403253018856048584 -0.271934866905212402 0.324433743953704834
-0.133641019463539124 0.195633828639984131 0.167925238609313965
0.399304181337356567 -0.271872818470001221 0.324246376752853394
-0.447266727685928345 -0.0252505727112293243 0.0213163327425718307
-0.138334229588508606 0.244719162583351135 0.191870346665382385
-0.61347275972366333 0.293937891721725464 0.183538883924484253
0.124609477818012238 0.11596786230802536 0.317008554935455322
-0.121245414018630981 0.250462591648101807 0.162018552422523499
-0.583962023258209229 0.348059803247451782 0.0579482465982437134
0.426977932453155518 -0.348297595977783203 0.153333500027656555
-0.567402839660644531 0.294924139976501465 -0.0691565051674842834
0.252062022686004639 0.0265695396810770035 -0.0792066082358360291
0.247875392436981201 0.100285179913043976 -0.0479575358331203461
-0.358104914426803589 -0.0560287013649940491 -0.141950532793998718
0.198897495865821838 0.120128512382507324 0.0361494310200214386
0.545718908309936523 -0.131604209542274475 0.112379953265190125
-0.582281172275543213 0.321645736694335938 -0.0230258125811815262
0.206348851323127747 0.0245739314705133438 0.17721615731716156
-0.595992445945739746 0.375093609094619751 0.171807676553726196
0.444953709840774536 -0.319372713565826416 0.127684265375137329
0.255242586135864258 -0.27890092134475708 0.316744089126586914
0.235760092735290527 0.0237193536013364792 0.316953986883163452
-0.363532602787017822 -0.0500143803656101227 -0.0238174833357334137
-0.183019965887069702 0.11798829585313797 0.0424555428326129913
0.254954278469085693 -0.288342803716659546 0.319554656744003296
0.242202326655387878 0.0331011489033699036 0.32222333550453186
0.400150835514068604 0.0233198795467615128 0.115616552531719208
-0.341127723455429077 -0.0663873329758644104 -0.147390738129615784
0.0757554024457931519 -0.333185374736785889 0.299078613519668579
-0.387373358011245728 -0.0609929151833057404 0.0937688499689102173
-0.448830217123031616 -0.0414948016405105591 0.127638682723045349
0.439532756805419922 -0.279393553733825684 0.333969414234161377
0.0343771763145923615 -0.123055346310138702 -0.0254371929913759232
0.414510011672973633 -0.280854135751724243 0.327310144901275635
0.43320542573928833 -0.296149969100952148 0.333462983369827271
0.368057340383529663 -0.278852760791778564 -0.130024686455726624
-0.478111952543258667 0.00129578681662678719 0.188233658671379089
-0.292086333036422729 -0.096545100212097168 -0.104564972221851349
0.241559222340583801 -0.313123345375061035 0.309897750616073608
0.47333294153213501 -0.354328811168670654 0.00731353648006916046
-0.296919018030166626 -0.0967944934964179993 -0.107028715312480927
0.244923904538154602 -0.288695961236953735 0.320301264524459839
0.0622733607888221741 -0.32989075779914856 0.297156870365142822
0.158051282167434692 -0.26796373724937439 -0.105364657938480377
0.250422030687332153 0.0633801370859146118 0.315869688987731934
-0.483160495758056641 -0.00805523432791233063 0.177839696407318115
0.236550852656364441 0.0665457099676132202 0.31521916389465332
0.238890990614891052 -0.331934422254562378 0.321612626314163208
-0.382844865322113037 -0.0921801254153251648 0.0366644524037837982
-0.216559380292892456 -0.140285611152648926 -0.0543479695916175842
-0.383275032043457031 -0.0638035610318183899 0.0834864526987075806
0.150068938732147217 -0.331779330968856812 0.332040876150131226
0.446050077676773071 -0.279923856258392334 0.333893418312072754
0.4076252281665802 -0.280567556619644165 0.325422227382659912
-0.502662956714630127 0.00643514469265937805 0.188572123646736145
-0.32243049144744873 0.0970685631036758423 -0.0702473372220993042
0.532663345336914062 -0.207579255104064941 -0.0523254014551639557
0.451066583395004272 -0.294099271297454834 -0.290361732244491577
0.487492650747299194 -0.325451642274856567 -0.310814768075942993
0.446507036685943604 -0.309948146343231201 -0.290737360715866089
-0.578323483467102051 0.269116997718811035 0.365686386823654175
-0.462070614099502563 0.105582579970359802 -0.231160625815391541
0.375064671039581299 -0.318787753582000732 0.199368491768836975
-0.590352475643157959 0.366837620735168457 0.13103717565536499
0.392684906721115112 -0.353649258613586426 -0.217361569404602051
0.441206067800521851 -0.310491710901260376 -0.288946270942687988
-0.201016739010810852 0.305336177349090576 0.0950840190052986145
-0.155801489949226379 0.267828971147537231 0.151808217167854309
0.529940128326416016 -0.338534682989120483 0.0720669776201248169
0.463944882154464722 -0.266304612159729004 -0.217494428157806396
-0.634082555770874023 0.275604575872421265 0.106826819479465485
0.438529878854751587 -0.308783769607543945 -0.287115156650543213
0.515535354614257812 -0.277395874261856079 -0.316754609346389771
0.516634643077850342 -0.340555906295776367 -0.320710480213165283
0.454466193914413452 -0.307261347770690918 -0.29317203164100647
0.491070151329040527 -0.322021067142486572 0.0946494042873382568
0.0204910356551408768 -0.276050537824630737 -0.0184815991669893265
-0.65465843677520752 0.171772286295890808 -0.108330421149730682
-0.225083932280540466 0.318433970212936401 0.121453367173671722
0.465508490800857544 -0.364216208457946777 0.00614112429320812225
0.481235206127166748 -0.336918085813522339 0.0505264215171337128
0.51154094934463501 -0.339616745710372925 -0.319367140531539917
0.440276950597763062 -0.356790870428085327 -0.297561198472976685
-0.2704448401927948 0.321880042552947998 0.0419502221047878265
0.424257814884185791 -0.313508987426757812 -0.281810075044631958
0.415705561637878418 -0.295314699411392212 0.328748852014541626
-0.326621443033218384 -0.0756139233708381653 0.123458944261074066
-0.367445677518844604 -0.0669314712285995483 0.154639348387718201
-0.338778764009475708 0.214671596884727478 0.13287353515625
0.0100451996549963951 0.119291447103023529 0.105406381189823151
0.542141556739807129 -0.309302657842636108 -0.0459862835705280304
0.0135263260453939438 -0.262020289897918701 0.0396188870072364807
-0.00366537435911595821 -0.236786410212516785 0.0943790450692176819
9.96001544990576804e-05 -0.21982090175151825 0.0816509947180747986
0.465087950229644775 -0.361068964004516602 0.0305431950837373734
-0.269853502511978149 -0.138257592916488647 0.177488192915916443
-0.345627576112747192 -0.0661041140556335449 0.141244649887084961
0.123528264462947845 -0.276885956525802612 0.129154235124588013
-0.134133994579315186 0.0786500498652458191 0.0904470086097717285
0.463764786720275879 -0.0544656291604042053 0.0179496705532073975
-0.0142600554972887039 -0.217136487364768982 0.0804836153984069824
-0.555329680442810059 0.391542613506317139 0.147574380040168762
0.496752411127090454 -0.366936624050140381 0.00546277966350317001
-0.61130213737487793 0.29393535852432251 0.186343833804130554
0.530059516429901123 -0.275455057621002197 -0.317595034837722778
0.370591074228286743 -0.264736741781234741 0.181817814707756042
0.420536190271377563 -0.344614624977111816 0.151101961731910706
0.25220605731010437 0.039076048880815506 -0.0663328841328620911
0.549607455730438232 -0.150001630187034607 0.124557279050350189
-0.571118175983428955 0.283915519714355469 -0.00652836961671710014
0.501017093658447266 -0.362788528203964233 -0.0010697533143684268
0.2084321528673172 0.115576528012752533 -0.0100924279540777206
-0.289719074964523315 -0.085908159613609314 -0.0664084702730178833
0.159321948885917664 -0.0834186747670173645 -0.0358967185020446777
-0.340496212244033813 -0.105689667165279388 0.141273379325866699
0.511079192161560059 -0.281624943017959595 -0.313107132911682129
-0.33983120322227478 -0.0798823386430740356 0.0386030860245227814
-0.369899719953536987 0.280564159154891968 -0.0625708103179931641
0.50997459888458252 -0.341111630201339722 0.0653526186943054199
0.302490592002868652 -0.206061080098152161 0.248186320066452026
0.542876482009887695 -0.312193304300308228 -0.0605418942868709564
0.141637980937957764 0.0694083273410797119 0.336656898260116577
-0.595457971096038818 0.267389506101608276 0.0120366513729095459
0.222172632813453674 -0.00718631641939282417 0.295883893966674805
0.2310371994972229 0.0342531017959117889 0.313088983297348022
0.533601582050323486 -0.319790929555892944 -0.0125722289085388184
-0.389907866716384888 -0.0642037242650985718 0.105731382966041565
-0.448172777891159058 -0.040346682071685791 0.126491084694862366
0.49616667628288269 -0.0914176255464553833 0.154813945293426514
0.251089721918106079 0.0630575120449066162 0.316987603902816772
-0.291791409254074097 -0.0929736942052841187 0.307723969221115112
-0.367125481367111206 -0.114997431635856628 0.104023993015289307
-0.56404191255569458 0.127093911170959473 -0.0785721614956855774
-0.502120852470397949 0.0232857372611761093 0.186621338129043579
0.51812744140625 -0.29764789342880249 -0.313956111669540405
0.472608625888824463 -0.328564763069152832 -0.299812406301498413
-0.574857115745544434 0.268781423568725586 0.362614095211029053
-0.571775376796722412 0.3548240065574646 0.166900500655174255
-0.192087873816490173 0.304590791463851929 0.10145144909620285
-0.662650406360626221 0.239662706851959229 0.0414987169206142426
-0.505478382110595703 0.1442689448595047 0.35330730676651001
0.507125377655029297 -0.347487419843673706 -0.318267315626144409
-0.200926780700683594 0.304920613765716553 0.102104052901268005
0.475231260061264038 -0.357856482267379761 0.00489868782460689545
0.509864747524261475 -0.33092653751373291 0.0666338279843330383
-0.611291587352752686 0.367517143487930298 0.0876316875219345093
-0.563100099563598633 0.288145989179611206 -0.0560525432229042053
0.220104768872261047 0.0101811634376645088 0.309412598609924316
0.240684628486633301 0.00502089131623506546 0.321879982948303223
-0.360157400369644165 -0.0571727678179740906 -0.13794669508934021
0.399440348148345947 -0.252936661243438721 0.322184890508651733
0.399740308523178101 -0.263312250375747681 0.324931412935256958
0.224152088165283203 -0.324395865201950073 0.320837140083312988
0.411219090223312378 -0.268051594495773315 0.325350761413574219
-0.509751856327056885 0.0492621399462223053 0.195212423801422119
-0.631825506687164307 0.156338617205619812 -0.0527871698141098022
-0.502451479434967041 0.146833911538124084 0.345281004905700684
0.520918011665344238 -0.351045876741409302 -0.32301861047744751
0.495396673679351807 -0.348576158285140991 0.000415520480601117015
-0.198294743895530701 0.0159152671694755554 -0.0498629733920097351
-0.558336198329925537 0.341667652130126953 -0.00583601091057062149
0.488616526126861572 -0.360703408718109131 0.0412391200661659241
0.44936332106590271 -0.0744021758437156677 0.00226289615966379642
-0.556864619255065918 0.385150998830795288 0.157691672444343567
0.374783456325531006 -0.0814230740070343018 -0.119653038680553436
-0.39024922251701355 0.319479614496231079 0.168801695108413696
-0.385208934545516968 0.328050017356872559 0.19749903678894043
-0.364697664976119995 0.237811490893363953 -0.0834731385111808777
-0.407851904630661011 0.199331417679786682 0.0409039109945297241
-0.645026087760925293 0.286744773387908936 0.0934547334909439087
0.408704698085784912 -0.347493380308151245 0.136621981859207153
0.222511813044548035 0.0827157124876976013 -0.0332340262830257416
0.498711943626403809 -0.161460056900978088 0.124095827341079712
0.500499486923217773 -0.0930282250046730042 0.135045036673545837
0.215513348579406738 0.0017312648706138134 0.299743056297302246
-0.353719264268875122 -0.068430975079536438 -0.00911068171262741089
-0.38595205545425415 0.265812397003173828 -0.0716711506247520447
0.506539046764373779 -0.347336739301681519 0.0551018863916397095
-0.357576847076416016 -0.0566381886601448059 -0.145539537072181702
0.132254645228385925 0.0724646002054214478 0.322381347417831421
-0.0999135598540306091 -0.265930920839309692 0.00612343661487102509
0.242600008845329285 0.0231676679104566574 0.322192251682281494
-0.481028825044631958 -0.0119809843599796295 0.185223102569580078
0.242638155817985535 0.0481614656746387482 0.317381381988525391
-0.278618872165679932 0.33255380392074585 0.0407260805368423462
0.370029270648956299 -0.031086944043636322 -0.0396650731563568115
0.520200014114379883 -0.348267853260040283 -0.0361695066094398499
0.29350551962852478 -0.0121737336739897728 0.0373058207333087921
-0.644713461399078369 0.284661978483200073 0.0923029184341430664
0.0356738641858100891 0.136518955230712891 0.0853330716490745544
-0.398036390542984009 -0.0579075217247009277 0.125826090574264526
-0.442026048898696899 -0.038499005138874054 0.131238296627998352
0.523870944976806641 -0.317858308553695679 -0.0653082653880119324
0.422566771507263184 -0.280241608619689941 0.331410676240921021
0.509702920913696289 -0.345230281352996826 0.057270292192697525
0.40399518609046936 -0.259114503860473633 0.323829233646392822
-0.480920106172561646 0.0177831947803497314 0.176616132259368896
0.23567749559879303 0.0683483630418777466 0.314781278371810913
-0.480080276727676392 -0.00863498542457818985 0.167256057262420654
0.239305019378662109 0.0673583745956420898 0.315184593200683594
0.388401061296463013 0.0257821138948202133 0.106301054358482361
0.219673752784729004 -0.316396862268447876 0.310498088598251343
0.383219271898269653 0.0426864661276340485 0.0693405866622924805
0.462901324033737183 0.0105383452028036118 0.175366058945655823
0.399620890617370605 -0.258906930685043335 0.327401995658874512
-0.500232696533203125 0.0208634678274393082 0.180824115872383118
-0.574049949645996094 0.266054749488830566 0.35983741283416748
-0.665116786956787109 0.229718863964080811 0.0216446314007043839
-0.149561047554016113 0.275169730186462402 0.0791777372360229492
0.521962463855743408 -0.335464686155319214 -0.322624862194061279
-0.220766171813011169 0.315478742122650146 0.0968102589249610901
0.499935001134872437 -0.346824556589126587 0.0671631321310997009
-0.19008028507232666 0.302570134401321411 0.114849992096424103
0.313805043697357178 -0.130420684814453125 0.300944387912750244
0.225237533450126648 -0.0354830101132392883 0.305375128984451294
0.0573151595890522003 -0.331165403127670288 0.291401028633117676
0.435355097055435181 -0.280273735523223877 0.33292427659034729
0.409089565277099609 -0.286079555749893188 0.331085026264190674
0.385810971260070801 -0.266113340854644775 0.318972080945968628
0.397416412830352783 -0.385100662708282471 -0.22567671537399292
-0.162559092044830322 0.278195649385452271 0.128714099526405334
0.380861788988113403 0.0437103211879730225 0.0772833451628684998
0.390937179327011108 -0.256066590547561646 0.318985730409622192
-0.500950932502746582 0.0241467747837305069 0.18566150963306427
0.499534726142883301 -0.326347619295120239 -0.313238173723220825
0.380606770515441895 -0.376391589641571045 -0.216279610991477966
0.521024048328399658 -0.349692642688751221 -0.325035154819488525
0.520585358142852783 -0.348830461502075195 -0.321972042322158813
0.513219296932220459 -0.320071935653686523 -0.318579226732254028
0.255066424608230591 -0.222717240452766418 0.0576355829834938049
0.185996562242507935 -0.142683312296867371 -0.105504445731639862
0.507827222347259521 -0.320521324872970581 0.0293274540454149246
-0.470116019248962402 -0.0122362831607460976 0.180924102663993835
0.4961223304271698 -0.349391013383865356 -0.309917867183685303
0.521371304988861084 -0.327946871519088745 -0.322093337774276733
0.475949078798294067 -0.320671141147613525 -0.303175121545791626
-0.341698616743087769 0.229596778750419617 -0.0443511977791786194
0.201832100749015808 0.132590383291244507 0.112444430589675903
-0.17297053337097168 0.0219040457159280777 0.0256306231021881104
0.265696495771408081 -0.166155830025672913 0.00619480013847351074
0.54468303918838501 -0.328618317842483521 -0.0477998927235603333
-0.456947863101959229 -0.0534471683204174042 0.162033200263977051
0.469636768102645874 -0.356497108936309814 -0.30725252628326416
0.478404700756072998 -0.270214766263961792 -0.301626980304718018
0.467249125242233276 -0.362308025360107422 -0.308345526456832886
-0.32067456841468811 0.26641547679901123 0.0114816967397928238
0.0330520682036876678 0.098328910768032074 0.128656819462776184
-0.285149812698364258 -0.100484393537044525 -0.0874254405498504639
-0.617366492748260498 0.216749325394630432 -0.104996353387832642
0.244525611400604248 0.104250282049179077 -0.0295317564159631729
0.466258823871612549 -0.235482752323150635 -0.228532791137695312
-0.29440152645111084 -0.0889368355274200439 -0.0959912538528442383
0.249194324016571045 -0.276248127222061157 0.322645485401153564
0.222131893038749695 0.0666061639785766602 -0.027703654021024704
-0.251361727714538574 -0.130619615316390991 -0.0555752702057361603
-0.211988732218742371 0.301812171936035156 0.148737087845802307
0.339945971965789795 -0.140857845544815063 0.318496108055114746
0.529688656330108643 -0.356863737106323242 0.0697332620620727539
-0.600420117378234863 0.356471508741378784 0.0602209195494651794
-0.34688141942024231 -0.0561637356877326965 -0.143769264221191406
-0.43334650993347168 0.157272383570671082 -0.0847330912947654724
0.526584267616271973 -0.331993550062179565 0.0204461254179477692
0.528146862983703613 -0.288258105516433716 -0.0700939521193504333
-0.499483853578567505 0.142348825931549072 -0.25407823920249939
0.146546855568885803 0.156533718109130859 0.0590034089982509613
0.253371298313140869 -0.00789530202746391296 0.327856391668319702
0.350088596343994141 -0.147441387176513672 0.320732831954956055
0.44225609302520752 -0.322880387306213379 -0.229393228888511658
-0.2245606929063797 -0.140432074666023254 -0.0538776963949203491
0.522522687911987305 -0.350497901439666748 0.09700794517993927
-0.646620750427246094 0.253284186124801636 0.023684527724981308
0.393297851085662842 -0.280384689569473267 0.322417169809341431
-0.475285202264785767 -0.0101805785670876503 0.164704173803329468
0.224440142512321472 -0.325398266315460205 0.319094002246856689
-0.364213049411773682 -0.121559686958789825 0.130256250500679016
-0.239023879170417786 -0.141060411930084229 -0.0540169142186641693
-0.11429113894701004 -0.00947385001927614212 -0.0166223347187042236
0.389525324106216431 -0.278656572103500366 0.320748358964920044
-0.507597982883453369 0.0109672900289297104 0.201777935028076172
0.462581783533096313 -0.297270089387893677 -0.294355183839797974
0.351431876420974731 -0.148399144411087036 0.321589022874832153
0.4578513503074646 -0.304042071104049683 -0.228848710656166077
0.0243108440190553665 -0.144115418195724487 -0.0200983732938766479
0.369067162275314331 -0.328063488006591797 0.318862974643707275
0.391750901937484741 -0.281809896230697632 0.317009866237640381
0.128461986780166626 -0.31958460807800293 -0.0970999151468276978
-0.13480532169342041 0.278268963098526001 0.117593236267566681
-0.333845525979995728 0.0942049697041511536 -0.102435238659381866
0.374043911695480347 -0.376256555318832397 -0.214833065867424011
0.519803881645202637 -0.346080094575881958 -0.322648495435714722
0.523363292217254639 -0.358346909284591675 -0.326516658067703247
-0.0686152353882789612 -0.255185723304748535 0.098897300660610199
0.325885981321334839 -0.131102725863456726 0.314917087554931641
0.42441248893737793 -0.26003187894821167 0.328434020280838013
-0.480529487133026123 0.0316129401326179504 0.19655221700668335
0.526558220386505127 -0.299930751323699951 -0.322087854146957397
0.537987887859344482 -0.292776197195053101 -0.324501663446426392
0.377840876579284668 -0.37449219822883606 -0.213541239500045776
0.371348679065704346 -0.357430577278137207 -0.213539749383926392
0.523987710475921631 -0.351943641901016235 -0.324894636869430542
0.525290906429290771 -0.363721340894699097 -0.322988361120223999
0.515472829341888428 -0.327489495277404785 -0.319956779479980469
0.479435741901397705 -0.352652877569198608 -0.312096238136291504
0.478399574756622314 -0.365925788879394531 -0.312819123268127441
-0.362368792295455933 0.310269445180892944 0.239713892340660095
-0.321354866027832031 0.103842101991176605 0.0222152899950742722
-0.448210090398788452 0.204037606716156006 -0.0404323451220989227
-0.378302544355392456 0.27916523814201355 -0.00730628101155161858
-0.0227886810898780823 -0.26108965277671814 0.143881738185882568
-0.59252697229385376 0.361343473196029663 0.0640205591917037964
0.367545872926712036 -0.373823374509811401 -0.212334901094436646
-0.124441109597682953 -0.0109200878068804741 0.00806800369173288345
0.396614879369735718 -0.353698104619979858 -0.218145042657852173
0.507466316223144531 -0.159714281558990479 0.125481516122817993
0.195545360445976257 0.124595202505588531 0.00670840078964829445
-0.0271088667213916779 0.166706949472427368 0.383166640996932983
-0.334673792123794556 -0.121404051780700684 0.100273624062538147
-0.325769573450088501 0.302735060453414917 -0.0367074981331825256
0.534118890762329102 -0.347024917602539062 0.0380227416753768921
0.525377333164215088 -0.332057029008865356 0.0347035638988018036
-0.596352756023406982 0.382007867097854614 0.113189823925495148
-0.0113410567864775658 -0.144546046853065491 -0.026744842529296875
-0.235732004046440125 0.171836987137794495 -0.00157489243429154158
-0.48618239164352417 -0.0108661400154232979 0.177118599414825439
-0.278539419174194336 0.335967332124710083 0.0422753989696502686
0.513483047485351562 -0.349287807941436768 0.0972736775875091553
-0.449277102947235107 -0.0360302142798900604 0.117332667112350464
0.434490442276000977 -0.253474593162536621 0.332037955522537231
0.414978235960006714 -0.278598606586456299 0.32749512791633606
-0.469565659761428833 0.0342264287173748016 0.193496569991111755
0.502308547496795654 -0.339793115854263306 0.00815876293927431107
-0.482149660587310791 -0.0030259846244007349 0.17745305597782135
-0.378113716840744019 -0.106970906257629395 0.0928548946976661682
