ply
format ascii 1.0
element vertex 737
property float x
property float y
property float z
end_header
-0.65624469518661499 0.171566486358642578 -0.112148575484752655
0.254164665937423706 -0.00921176746487617493 0.250630050897598267
0.250913649797439575 -0.178749322891235352 0.303366810083389282
-0.263301640748977661 -0.137319624423980713 -0.0671709552407264709
-0.200644388794898987 0.314732849597930908 0.0994825884699821472
0.258368074893951416 -0.278034716844558716 0.323680281639099121
0.179451599717140198 -0.0540662333369255066 -0.050326131284236908
-0.443541795015335083 -0.0667277872562408447 0.129492789506912231
-0.503989100456237793 0.0301721654832363129 0.247513636946678162
-0.497296631336212158 0.0364946722984313965 -0.0112785641103982925
0.233475208282470703 0.0231218580156564713 0.314710438251495361
-0.37157711386680603 -0.0457965955138206482 0.143810644745826721
-0.349021375179290771 0.106674171984195709 0.0664572417736053467
0.308290451765060425 -0.198728799819946289 0.243610188364982605
0.309281885623931885 -0.00525924097746610641 0.220273584127426147
-0.442930132150650024 0.266780614852905273 -0.0368216633796691895
0.517698764801025391 -0.326666295528411865 -0.0805474668741226196
-0.539020419120788574 0.138494506478309631 -0.0967830643057823181
0.466557949781417847 -0.124344117939472198 0.00274898367933928967
-0.385421127080917358 0.255577445030212402 0.0332338623702526093
0.494623392820358276 -0.301910310983657837 0.121869981288909912
0.466144382953643799 -0.106036894023418427 0.0603433214128017426
0.204450234770774841 0.0152964266017079353 -0.0415338091552257538
-0.224431648850440979 0.296115964651107788 0.159199506044387817
-0.125049576163291931 -0.0490364022552967072 0.0114487884566187859
-0.231596231460571289 0.228747263550758362 0.348640024662017822
-0.380978554487228394 -0.0543669983744621277 0.145919263362884521
0.342027813196182251 -0.0736447200179100037 0.0484293252229690552
-0.436171144247055054 -0.012282220646739006 0.0344971083104610443
0.206168487668037415 0.0168071240186691284 0.0710977613925933838
0.0566942691802978516 -0.0858828648924827576 0.239895328879356384
-0.384077340364456177 -0.0595759227871894836 0.117033325135707855
-0.136846914887428284 -0.265177249908447266 -0.000644821906462311745
-0.243713021278381348 0.0637168437242507935 0.245319932699203491
-0.542200624942779541 0.211121648550033569 0.163118675351142883
-0.590851187705993652 0.287412703037261963 -0.00691483821719884872
0.307839930057525635 0.0178246702998876572 0.0436129309237003326
0.478967905044555664 -0.31503826379776001 -0.304602622985839844
0.504349052906036377 -0.34563031792640686 -0.0629567652940750122
0.472363710403442383 -0.305139929056167603 0.115885287523269653
0.527710139751434326 -0.302986323833465576 -0.10854203999042511
-0.402886658906936646 0.311824768781661987 0.135159015655517578
0.518437743186950684 -0.251476883888244629 -0.30657997727394104
0.508069932460784912 -0.329308569431304932 -0.313963800668716431
0.519512653350830078 -0.331357002258300781 0.0924317017197608948
0.477859765291213989 -0.304506152868270874 -0.30223807692527771
0.528179049491882324 -0.285716325044631958 -0.10715571790933609
-0.559990525245666504 0.267579317092895508 0.365955889225006104
-0.640220880508422852 0.289880692958831787 0.0855083540081977844
0.371883749961853027 -0.401458680629730225 -0.216734588146209717
-0.44991689920425415 -0.000985111459158360958 0.175526946783065796
0.177208185195922852 0.0731481164693832397 0.00734870042651891708
-0.453785985708236694 0.134609237313270569 -0.213176265358924866
0.403809905052185059 -0.335905849933624268 0.129792481660842896
-0.599019527435302734 0.207563921809196472 0.00118928926531225443
0.248215198516845703 -0.114574059844017029 -0.0700503140687942505
-0.48337167501449585 0.182706192135810852 -0.209593668580055237
-0.376254081726074219 -0.063142046332359314 0.092175118625164032
0.52360159158706665 -0.320969969034194946 0.0367256775498390198
0.543175101280212402 -0.217291519045829773 0.1091112419962883
0.526451408863067627 -0.273497313261032104 0.0561662502586841583
0.111896045506000519 0.0843708068132400513 0.317927926778793335
-0.351011872291564941 -0.0479619428515434265 0.0454993657767772675
0.105798900127410889 0.0724966675043106079 0.296166300773620605
-0.165061146020889282 0.133255511522293091 0.151912495493888855
0.503423690795898438 -0.256548941135406494 -0.101626105606555939
0.429663777351379395 -0.303858637809753418 0.136774778366088867
-0.355821311473846436 -0.101485215127468109 0.159521743655204773
0.4993172287940979 -0.201655000448226929 -0.107082433998584747
-0.578461229801177979 0.348428845405578613 0.152501016855239868
0.105654828250408173 -0.0114224869757890701 0.0218557287007570267
-0.341326504945755005 -0.123481467366218567 0.105086244642734528
-0.120627343654632568 -0.275832921266555786 0.174626991152763367
-0.160875320434570312 0.167592987418174744 0.325714826583862305
0.515684604644775391 -0.358631819486618042 0.0276547912508249283
0.521749436855316162 -0.287592917680740356 -0.0108195114880800247
0.479735612869262695 -0.139821812510490417 0.108495339751243591
-0.180738165974617004 0.0293514039367437363 0.0264822784811258316
-0.342042297124862671 -0.121700838208198547 0.104229293763637543
-0.600161850452423096 0.377167701721191406 0.188737347722053528
-0.119604267179965973 -0.266915559768676758 0.218871504068374634
0.524105548858642578 -0.308887273073196411 -0.0739330872893333435
0.516882121562957764 -0.252293854951858521 -0.308703869581222534
0.455517172813415527 -0.308466136455535889 -0.293652504682540894
0.241392597556114197 -0.095849551260471344 0.159424036741256714
-0.620208919048309326 0.272505134344100952 0.037548113614320755
-0.429985612630844116 -0.00373237673193216324 0.177775055170059204
-0.250494509935379028 -0.137092992663383484 -0.0705483481287956238
0.3180103600025177 -0.319034695625305176 0.123357132077217102
0.5400848388671875 -0.249636918306350708 0.107492119073867798
0.453545987606048584 -0.139689207077026367 0.0162955243140459061
0.430088430643081665 -0.321024924516677856 0.12456195056438446
0.413865774869918823 -0.331020712852478027 -0.208977356553077698
0.474687248468399048 -0.12838919460773468 0.110380329191684723
-0.54890817403793335 0.378960639238357544 0.172980740666389465
0.191039830446243286 -0.340006142854690552 -0.0125711951404809952
-0.201724514365196228 -0.135603860020637512 -0.067872956395149231
-0.185256406664848328 0.312460809946060181 0.118478380143642426
0.104077525436878204 0.108045458793640137 0.175170928239822388
-0.444394528865814209 -0.0542989447712898254 0.0923126488924026489
-0.489436805248260498 0.0301396679133176804 0.017306232824921608
0.232238531112670898 0.0113147683441638947 0.315787166357040405
-0.0242011267691850662 0.113493792712688446 0.313085317611694336
0.244090110063552856 -0.038405146449804306 0.205448061227798462
-0.38477015495300293 0.245586439967155457 0.0348253063857555389
-0.654081344604492188 0.216931134462356567 -0.0388511940836906433
0.48385283350944519 -0.116093561053276062 0.0243227649480104446
0.122938945889472961 0.0797997266054153442 0.139299407601356506
-0.381965667009353638 -0.0725834071636199951 0.0961192026734352112
0.320557087659835815 -0.0722036361694335938 0.063249737024307251
-0.440729975700378418 -0.0116261905059218407 0.00734489131718873978
-0.502198398113250732 0.233863234519958496 -0.0706210657954216003
-0.547271370887756348 0.203607529401779175 -0.0680519863963127136
0.0892979130148887634 0.091973230242729187 0.0807660222053527832
-0.519888639450073242 0.204723864793777466 -0.0466920323669910431
-0.167970955371856689 0.0726282969117164612 0.233076944947242737
-0.0571128502488136292 -0.186950922012329102 0.0274586975574493408
-0.212238505482673645 0.291137844324111938 0.109723508358001709
0.250481963157653809 -0.00523189734667539597 0.0231717079877853394
-0.555736899375915527 0.204634010791778564 0.118774332106113434
-0.45728108286857605 0.216660946607589722 0.0250328145921230316
-0.462577760219573975 0.266721665859222412 -0.00222286791540682316
-0.575456500053405762 0.24778313934803009 -0.0759933963418006897
-0.389332354068756104 0.275330275297164917 -0.0835687816143035889
0.344612270593643188 -0.134466245770454407 0.319636017084121704
-0.498586952686309814 0.20703183114528656 -0.0111287599429488182
-0.345910727977752686 0.293071240186691284 -0.0495690628886222839
0.526688039302825928 -0.361046344041824341 0.0425563938915729523
-0.539898693561553955 0.215429171919822693 0.201481953263282776
-0.569263577461242676 0.29465639591217041 -0.0027182877529412508
0.317528039216995239 0.0239599831402301788 0.0495999529957771301
0.482592493295669556 -0.307178139686584473 -0.302908033132553101
0.480453640222549438 -0.326266080141067505 0.126158416271209717
0.523862302303314209 -0.307036906480789185 -0.0979284942150115967
0.490941286087036133 -0.310942322015762329 -0.306670308113098145
0.516968786716461182 -0.324975043535232544 0.120622873306274414
0.445128411054611206 -0.30038568377494812 -0.289889752864837646
0.523881375789642334 -0.304585933685302734 -0.0965907201170921326
0.135028138756752014 0.116720221936702728 0.337785124778747559
-0.642403542995452881 0.242826715111732483 -0.00904346443712711334
-0.292741894721984863 -0.11407751590013504 -0.105132997035980225
0.540016055107116699 -0.255384594202041626 0.0929909646511077881
0.129874959588050842 0.0979119837284088135 0.318059980869293213
-0.235282719135284424 -0.143740370869636536 -0.0707765519618988037
0.253262579441070557 0.0301851779222488403 -0.0851198434829711914
0.531671106815338135 -0.323124855756759644 0.00761324213817715645
-0.59931105375289917 0.307667315006256104 0.104888215661048889
0.532876789569854736 -0.244556441903114319 0.0873453766107559204
-0.374136805534362793 -0.0608358196914196014 0.0928360745310783386
0.52723228931427002 -0.275346666574478149 -0.122468046844005585
-0.501148879528045654 0.148988008499145508 0.353448003530502319
0.385920077562332153 -0.297620803117752075 0.13261549174785614
0.133118212223052979 -0.332259476184844971 -0.0997583866119384766
0.52344357967376709 -0.35487973690032959 -0.0141561077907681465
-0.436534255743026733 0.15059998631477356 -0.0844816640019416809
0.516513288021087646 -0.300059795379638672 0.0654941871762275696
0.393674463033676147 -0.368092447519302368 -0.212937936186790466
0.501368820667266846 -0.171304911375045776 0.130850672721862793
0.533944308757781982 -0.333988010883331299 0.0291700530797243118
-0.579895079135894775 0.34916454553604126 0.0407030545175075531
0.520570039749145508 -0.241042494773864746 -0.307944059371948242
-0.600977182388305664 0.37098267674446106 0.105042323470115662
-0.500650525093078613 0.147358298301696777 0.355652362108230591
0.234620794653892517 -0.277828425168991089 0.318063855171203613
-0.181337922811508179 -0.137213930487632751 -0.0550254620611667633
-0.228425800800323486 -0.138177409768104553 -0.0529391765594482422
-0.204030811786651611 0.298750877380371094 0.127304613590240479
0.263197958469390869 -0.289632260799407959 0.324366897344589233
-0.36232796311378479 -0.0304905194789171219 0.120057471096515656
-0.500214874744415283 0.0194815788418054581 0.0323328413069248199
0.243725836277008057 0.000388089974876493216 0.323030829429626465
0.141876906156539917 -0.290454328060150146 0.312354534864425659
0.308860838413238525 -0.207448616623878479 0.248945102095603943
-0.386079251766204834 0.255118101835250854 0.0348778516054153442
0.531887471675872803 -0.262178152799606323 0.103716082870960236
0.224936395883560181 0.0230413991957902908 0.306185632944107056
0.531247377395629883 -0.147432476282119751 -0.307442277669906616
-0.644933938980102539 0.23157954216003418 -0.0470790155231952667
0.541956603527069092 -0.310937315225601196 -0.0436678528785705566
0.508391797542572021 -0.267889797687530518 -0.310732007026672363
0.514861047267913818 -0.31624719500541687 -0.294335901737213135
0.459424912929534912 -0.291058659553527832 -0.295819669961929321
-0.543211162090301514 0.268291682004928589 -0.188865780830383301
-0.621434152126312256 0.28928077220916748 0.0670584440231323242
0.364032506942749023 -0.384442895650863647 -0.205360308289527893
-0.0920611917972564697 0.26766735315322876 0.189966678619384766
-0.448599070310592651 0.131323873996734619 -0.208278834819793701
-0.575551152229309082 0.203929722309112549 -0.126635059714317322
-0.630148410797119141 0.191911950707435608 -0.0395020022988319397
-0.469913840293884277 0.138967335224151611 -0.230594903230667114
0.258466273546218872 -0.0169308949261903763 -0.0713177025318145752
0.231356829404830933 0.0540826134383678436 -0.0443965941667556763
0.113812811672687531 0.110120043158531189 0.302320539951324463
-0.584241926670074463 0.218507856130599976 -0.22099652886390686
-0.598260402679443359 0.235483676195144653 -0.0103659136220812798
-0.367105066776275635 -0.0917261391878128052 0.123300023376941681
-0.330080568790435791 -0.125390961766242981 0.137757167220115662
-0.634675264358520508 0.199837341904640198 -0.0379204452037811279
-0.425796419382095337 -0.0548675768077373505 0.0996832847595214844
-0.478221923112869263 0.0201960094273090363 -0.0360970944166183472
0.209499001502990723 0.00889948662370443344 0.301559299230575562
-0.63422924280166626 0.248360425233840942 -0.00561287440359592438
-0.127692282199859619 0.270295500755310059 0.132836297154426575
0.271734058856964111 -0.330278694629669189 0.18081115186214447
0.533751070499420166 -0.210049048066139221 -0.0980780348181724548
-0.126389026641845703 -0.112730205059051514 -0.0542211085557937622
0.454706072807312012 -0.339044898748397827 -0.297352045774459839
-0.212569683790206909 0.0363195985555648804 -0.0591121874749660492
-0.553246378898620605 0.176012590527534485 0.0132143916562199593
-0.198367059230804443 0.139881551265716553 0.0217195618897676468
-0.0122632551938295364 -0.102526307106018066 -0.0423293784260749817
0.265441000461578369 -0.274848729372024536 0.203163996338844299
0.349362343549728394 -0.321119576692581177 0.000716266978997737169
-0.155756816267967224 0.0699967145919799805 0.0281138289719820023
-0.249145179986953735 0.130989372730255127 -0.0338733270764350891
0.199923142790794373 0.00190488074440509081 0.0198160167783498764
0.0769910886883735657 0.0811553522944450378 0.0246274806559085846
-0.283362805843353271 0.288632512092590332 -0.00535845058038830757
0.477500319480895996 -0.289938658475875854 -0.300980538129806519
-0.556928157806396484 0.266051679849624634 -0.0168321263045072556
-0.237336188554763794 0.0978093817830085754 -0.0318890251219272614
0.138372823596000671 -0.280861139297485352 0.15071752667427063
0.297061383724212646 -0.297377079725265503 0.0576572977006435394
-0.285960197448730469 0.257582545280456543 0.00110386894084513187
-0.0206797234714031219 -0.0401946492493152618 0.0896110683679580688
0.205341577529907227 0.0430587939918041229 0.0664368495345115662
-0.143593698740005493 -0.0851188749074935913 0.0922757610678672791
0.373396426439285278 -0.0731547623872756958 0.0323380418121814728
0.522063791751861572 -0.198986843228340149 -0.0977667570114135742
0.487635403871536255 -0.297932326793670654 -0.304640054702758789
0.481183707714080811 -0.314720034599304199 0.123057059943675995
0.514239192008972168 -0.307156980037689209 -0.101677000522613525
0.496548473834991455 -0.309561431407928467 -0.309011697769165039
0.506847083568572998 -0.327755272388458252 -0.00338704534806311131
0.51247096061706543 -0.324413299560546875 0.119087032973766327
0.466433137655258179 -0.288845628499984741 -0.295833975076675415
0.438598722219467163 -0.263468086719512939 -0.19355618953704834
0.135837122797966003 0.11736828088760376 0.337701410055160522
0.397304892539978027 -0.244146540760993958 0.319477200508117676
-0.601660072803497314 0.354719251394271851 0.0659312456846237183
-0.505229592323303223 0.357642531394958496 0.178730562329292297
0.543380856513977051 -0.282349824905395508 0.0986566990613937378
0.257221609354019165 0.0371628329157829285 -0.0713195428252220154
-0.233105316758155823 0.156233310699462891 -0.00472172675654292107
0.506835997104644775 -0.331924080848693848 -0.00181030400563031435
0.445394635200500488 -0.250063061714172363 -0.227277219295501709
-0.639214694499969482 0.25487905740737915 0.0549416989088058472
0.533363223075866699 -0.262515813112258911 0.0939762070775032043
-0.393324375152587891 -0.0592019371688365936 0.100884407758712769
0.524553179740905762 -0.289599806070327759 -0.0913703590631484985
0.028214694932103157 -0.274329066276550293 -0.0347132720053195953
0.385882318019866943 -0.305966973304748535 0.119541727006435394
-0.582328140735626221 0.367293566465377808 0.132110863924026489
0.241041272878646851 0.0032871500588953495 0.181847348809242249
-0.112764790654182434 0.165920957922935486 0.348065435886383057
0.482835143804550171 -0.368335753679275513 -0.0213335826992988586
0.412794560194015503 -0.321260541677474976 -0.210311427712440491
0.508102893829345703 -0.155253663659095764 0.124767802655696869
0.529489278793334961 -0.334631234407424927 0.0135430553928017616
-0.584299921989440918 0.336835891008377075 0.0345268361270427704
-0.590900838375091553 0.382399380207061768 0.131664514541625977
0.526859045028686523 -0.244399517774581909 -0.309921085834503174
0.47497132420539856 -0.290862977504730225 -0.298732012510299683
-0.597373843193054199 0.35417523980140686 0.170055791735649109
-0.587496936321258545 0.371932417154312134 0.101512916386127472
-0.212221220135688782 -0.129677638411521912 -0.0571565441787242889
0.234942823648452759 -0.292933613061904907 0.3156299889087677
0.238874390721321106 0.067583039402961731 0.320781975984573364
0.542502403259277344 -0.313784599304199219 -0.0573908239603042603
-0.444936394691467285 -0.048303406685590744 0.127504453063011169
0.360062092542648315 -0.388525277376174927 -0.208308577537536621
-0.556820690631866455 0.211402967572212219 -0.113197803497314453
0.521420657634735107 -0.279549658298492432 -0.176390931010246277
0.242720514535903931 0.0351983793079853058 0.315260857343673706
0.243536457419395447 0.000758531270548701286 0.0243992861360311508
0.381590098142623901 0.0392565689980983734 0.0126733025535941124
0.527338743209838867 -0.230688020586967468 -0.309423595666885376
0.327876836061477661 0.0966150239109992981 -0.0351348705589771271
-0.374561429023742676 -0.0603572167456150055 -0.132414758205413818
0.513719141483306885 -0.167258501052856445 0.136657595634460449
-0.574668228626251221 0.322435468435287476 0.0498995780944824219
-0.559173703193664551 0.283906906843185425 0.364495515823364258
0.225162684917449951 0.0322600230574607849 -0.0574534833431243896
-0.574629127979278564 0.214819058775901794 -0.220627158880233765
-0.0439465902745723724 0.157005399465560913 0.0818322896957397461
0.114713601768016815 0.110470205545425415 0.0261477809399366379
0.343361347913742065 -0.246988430619239807 -0.0961473211646080017
-0.285140544176101685 0.300840318202972412 -0.00226702680811285973
0.15392032265663147 -0.00409709801897406578 -0.0028638180810958147
0.0696225538849830627 0.139290764927864075 0.0763348489999771118
-0.270116895437240601 0.280583083629608154 0.00226688641123473644
0.503963589668273926 -0.292607545852661133 -0.158629134297370911
0.137548372149467468 -0.0255465712398290634 0.013810337521135807
-0.339258402585983276 -0.0319253243505954742 0.0232957322150468826
0.374201059341430664 -0.0915614068508148193 0.0450495816767215729
0.200718790292739868 0.101681336760520935 -0.00107213086448609829
-0.29745212197303772 -0.0249342843890190125 0.0364479273557662964
0.132329091429710388 -0.0175575744360685349 -0.0253967978060245514
0.101982757449150085 0.0164089016616344452 0.0919043123722076416
0.176412686705589294 0.119813703000545502 0.0387566611170768738
-0.230605214834213257 -0.0635702833533287048 0.105177946388721466
0.486621350049972534 -0.296795427799224854 -0.302867859601974487
-0.603353142738342285 0.289957135915756226 0.185506239533424377
0.467909753322601318 -0.308601230382919312 0.120815761387348175
0.379135340452194214 -0.0141015304252505302 0.00714942486956715584
0.514993786811828613 -0.295284688472747803 -0.102767057716846466
0.51940453052520752 -0.239790081977844238 -0.306925207376480103
0.478451281785964966 -0.309870541095733643 -0.299624502658843994
0.483938992023468018 -0.27463608980178833 -0.299243897199630737
0.117868758738040924 0.119253545999526978 0.298269063234329224
-0.58436131477355957 0.356786608695983887 0.0661585181951522827
0.384409576654434204 -0.337274909019470215 0.126224711537361145
-0.574676811695098877 0.318056017160415649 -0.0261826273053884506
-0.604696094989776611 0.217395782470703125 -0.0865259021520614624
0.268502086400985718 0.0395571775734424591 -0.0855100750923156738
-0.356708437204360962 -0.0222140327095985413 -0.13068796694278717
-0.564476072788238525 0.314695924520492554 -0.0075372280552983284
0.191071584820747375 -0.340980738401412964 -0.0741257742047309875
0.404698431491851807 -0.357780724763870239 -0.223374605178833008
-0.50039970874786377 0.145941004157066345 0.354996055364608765
0.510406613349914551 -0.151212900876998901 0.115741372108459473
0.497402876615524292 -0.264025419950485229 -0.303724676370620728
0.458522707223892212 -0.281013071537017822 -0.289080142974853516
0.441492021083831787 -0.265084445476531982 -0.283030867576599121
-0.588179469108581543 0.35788920521736145 0.0620709843933582306
0.506032764911651611 -0.126506611704826355 0.125163853168487549
-0.206136003136634827 0.312916874885559082 0.109290577471256256
0.26879572868347168 -0.283939957618713379 0.319830894470214844
0.233314812183380127 0.0039273151196539402 0.318552613258361816
0.513870835304260254 -0.175674557685852051 -0.281062036752700806
-0.115129902958869934 0.0100705586373806 0.0064617721363902092
0.404429048299789429 -0.35981103777885437 -0.223998501896858215
0.418315082788467407 -0.313170969486236572 0.144487693905830383
-0.555646359920501709 0.376973003149032593 0.187126860022544861
-0.175507053732872009 0.309598416090011597 0.118982665240764618
-0.38992995023727417 0.276302188634872437 -0.0845700129866600037
0.366156846284866333 0.0522052906453609467 0.0253770500421524048
0.129855036735534668 0.116152465343475342 0.319499194622039795
-0.286821573972702026 -0.100739710032939911 -0.0915534421801567078
0.258922845125198364 0.101253814995288849 -0.0612790547311306
-0.361568748950958252 -0.059923708438873291 -0.143672481179237366
0.134812593460083008 0.114116601645946503 0.338443994522094727
-0.563404083251953125 0.199455782771110535 -0.228601187467575073
-0.276463150978088379 0.288362681865692139 -0.000356344593456014991
0.455456167459487915 -0.246557101607322693 -0.287614345550537109
0.460788488388061523 -0.275539994239807129 -0.290146172046661377
-0.635009229183197021 0.308591395616531372 0.170699164271354675
0.513141095638275146 -0.317426860332489014 -0.0378586947917938232
0.46949458122253418 -0.265928298234939575 -0.297273904085159302
0.478695422410964966 -0.295161694288253784 -0.299558699131011963
0.458712965250015259 -0.246339529752731323 -0.289186090230941772
0.381664663553237915 -0.361154943704605103 -0.213187903165817261
-0.47964787483215332 -0.0123954359441995621 0.186230912804603577
-0.516602098941802979 0.366220086812973022 0.174425765872001648
-0.618782401084899902 0.202279090881347656 -0.0867956951260566711
-0.23741401731967926 0.0188788529485464096 -0.0720215588808059692
-0.382817536592483521 -0.0590243451297283173 0.0241576377302408218
0.475537806749343872 -0.368313401937484741 0.022539190948009491
-0.649444878101348877 0.237097606062889099 0.0325702503323554993
0.413131445646286011 -0.346866786479949951 -0.220968514680862427
0.526762902736663818 -0.337048202753067017 0.0807910338044166565
0.506600320339202881 -0.239101111888885498 -0.307384192943572998
0.250132948160171509 -0.282130450010299683 0.318878918886184692
0.240030989050865173 0.0670120343565940857 0.315328240394592285
0.540207028388977051 -0.301795303821563721 -0.0929509252309799194
-0.448089480400085449 -0.0412971414625644684 0.126936167478561401
-0.0434950180351734161 0.104856096208095551 0.318357646465301514
0.248773887753486633 0.0214336737990379333 0.322889775037765503
-0.285141736268997192 -0.0998746603727340698 -0.0985721424221992493
-0.137729361653327942 -0.0150208091363310814 -0.0482584275305271149
-0.277875661849975586 0.338277548551559448 0.0475095100700855255
-0.254716485738754272 0.290262579917907715 -0.00269318814389407635
-0.218826189637184143 0.322320342063903809 0.0703865289688110352
-0.573496878147125244 0.152467876672744751 -0.074097752571105957
-0.289987146854400635 0.293071627616882324 0.0165684632956981659
0.526320934295654297 -0.320572823286056519 0.0279071405529975891
0.346929609775543213 -0.0302530676126480103 -0.033719141036272049
0.522939026355743408 -0.362823992967605591 0.0901227220892906189
-0.0831751376390457153 -0.111777804791927338 0.0790406987071037292
-0.404058367013931274 0.326463967561721802 0.121666617691516876
0.505417227745056152 -0.367037087678909302 -0.00375930010341107845
-0.118456080555915833 0.266546845436096191 0.121531151235103607
0.519409120082855225 -0.342878967523574829 0.0365743115544319153
0.130684316158294678 -0.334661871194839478 0.301808416843414307
0.467345863580703735 -0.31096649169921875 0.0731985419988632202
0.48354339599609375 -0.373956501483917236 0.0530567727982997894
0.421993464231491089 -0.0257230270653963089 0.0656288042664527893
0.494809508323669434 -0.363507062196731567 -0.0148071078583598137
-0.232894659042358398 0.287567704916000366 0.0846701189875602722
0.531893372535705566 -0.331689298152923584 -0.00649772537872195244
-0.271924197673797607 0.315833389759063721 0.114469684660434723
0.309097319841384888 0.00290227984078228474 0.0470492094755172729
0.467978417873382568 -0.263534635305404663 -0.295344531536102295
0.474560588598251343 -0.30421823263168335 0.114971615374088287
0.511806249618530273 -0.313626587390899658 -0.103666909039020538
0.50974506139755249 -0.245450735092163086 -0.307705283164978027
0.448491901159286499 -0.292654603719711304 -0.292040705680847168
0.466937392950057983 -0.283412754535675049 -0.296556532382965088
0.139051944017410278 0.113235265016555786 0.337386339902877808
-0.65225064754486084 0.286166936159133911 0.0983304902911186218
-0.638501942157745361 0.245143473148345947 -0.0378351621329784393
0.137009799480438232 0.0696805045008659363 0.3385029137134552
-0.577290773391723633 0.304151207208633423 -0.0551728904247283936
0.263272911310195923 0.0307347103953361511 -0.0727224349975585938
0.542731106281280518 -0.216522201895713806 0.112308502197265625
-0.360348403453826904 -0.0358738899230957031 -0.133871689438819885
-0.574918806552886963 0.327865540981292725 -0.0291920695453882217
-0.362019598484039307 -0.0710142329335212708 -0.0335395783185958862
-0.130585342645645142 -0.267757326364517212 0.119577027857303619
0.49578973650932312 -0.365795791149139404 0.000358122430043295026
0.374355047941207886 -0.3595542311668396 -0.209354385733604431
-0.378597348928451538 -0.106940701603889465 0.101729437708854675
-0.0669870749115943909 -0.264103591442108154 0.296956002712249756
0.520425617694854736 -0.243395239114761353 -0.308725804090499878
0.51013946533203125 -0.330496788024902344 0.0160012915730476379
-0.593476295471191406 0.369464963674545288 0.120924375951290131
-0.655599415302276611 0.175907433032989502 -0.10265330970287323
-0.223180890083312988 -0.144334450364112854 -0.0532446727156639099
-0.19111044704914093 0.31710362434387207 0.101254366338253021
0.257243037223815918 -0.283418416976928711 0.320315748453140259
0.239979967474937439 0.0326265916228294373 0.319795012474060059
-0.120043985545635223 -0.046037968248128891 0.00784871634095907211
-0.641694128513336182 0.309088855981826782 0.102202989161014557
0.365234225988388062 -0.374109148979187012 -0.206272631883621216
0.538520753383636475 -0.217531964182853699 0.162584900856018066
-0.552855789661407471 0.382958173751831055 0.158327147364616394
-0.122247911989688873 0.259755194187164307 0.115663744509220123
0.120120197534561157 0.10284847766160965 0.090109802782535553
-0.375592023134231567 0.266135990619659424 -0.0891009122133255005
0.517581820487976074 -0.348966270685195923 0.0994898080825805664
-0.293777316808700562 -0.107349857687950134 -0.108843207359313965
0.275860369205474854 0.103316366672515869 -0.0569133982062339783
-0.575359463691711426 0.219735920429229736 -0.212221577763557434
-0.1152692511677742 0.269065767526626587 0.180335119366645813
0.236571982502937317 -0.287913978099822998 0.314991980791091919
0.310868054628372192 -0.187163740396499634 0.2417135089635849
0.54241943359375 -0.325771480798721313 -0.0201955251395702362
0.0792827010154724121 -0.337792307138442993 0.282734960317611694
-0.00622541597113013268 -0.171936661005020142 0.0048254476860165596
-0.28227582573890686 0.26209607720375061 0.00754380133002996445
0.513682365417480469 -0.237166911363601685 -0.308719098567962646
-0.647063612937927246 0.278689920902252197 0.0798765644431114197
-0.646525323390960693 0.18343159556388855 -0.0905004963278770447
0.514783024787902832 -0.322444945573806763 0.0250128842890262604
-0.407143682241439819 -0.0635991171002388 0.11391846090555191
0.517465591430664062 -0.355670273303985596 -0.0199025198817253113
-0.566673040390014648 0.374827563762664795 0.152829110622406006
0.236738502979278564 0.0434469059109687805 0.314343303442001343
-0.664972066879272461 0.227482974529266357 0.0234509464353322983
-0.44829636812210083 -0.0383950099349021912 0.127445101737976074
0.503590106964111328 -0.302306860685348511 -0.17816103994846344
-0.589230775833129883 0.3615131676197052 0.0864325091242790222
-0.193955257534980774 0.315377265214920044 0.105369940400123596
0.247758090496063232 0.0243399720638990402 0.324483126401901245
0.531550765037536621 -0.323760181665420532 -0.0573610924184322357
-0.182684525847434998 0.307482540607452393 0.128983065485954285
0.247994452714920044 0.0073991650715470314 0.324613481760025024
0.0592206679284572601 0.140118822455406189 0.346299231052398682
-0.50582432746887207 0.149746552109718323 0.357195734977722168
0.271299213171005249 -0.311178505420684814 0.326858222484588623
-0.253861039876937866 0.0236196331679821014 -0.0702396184206008911
0.241622403264045715 -0.295227915048599243 0.323093295097351074
0.249806895852088928 0.0442375577986240387 0.315076738595962524
0.46921306848526001 -0.101708084344863892 0.035364396870136261
-0.124521903693675995 0.1955098956823349 0.115933597087860107
0.240496173501014709 -0.326573431491851807 0.318538367748260498
0.500923573970794678 -0.366535991430282593 0.0753657370805740356
0.524111688137054443 -0.324644178152084351 0.0269301850348711014
0.445335119962692261 -0.253085732460021973 0.333027839660644531
0.322181284427642822 -0.131383582949638367 -0.10594901442527771
0.0638609379529953003 -0.010457226075232029 0.322242677211761475
0.511964738368988037 -0.360837817192077637 0.048227701336145401
0.136222541332244873 -0.100570708513259888 0.0411618240177631378
0.0499986149370670319 0.0117791434749960899 0.0303130839020013809
0.0212287753820419312 0.0485062859952449799 0.0431655086576938629
0.0886370912194252014 -0.0658377408981323242 0.290194571018218994
-0.162163704633712769 -0.265844732522964478 0.148447334766387939
0.265760481357574463 -0.0198887959122657776 0.0622395835816860199
-0.0285996459424495697 -0.0288005322217941284 0.296053946018218994
0.502754747867584229 -0.240417718887329102 -0.301302462816238403
0.47648504376411438 -0.315106987953186035 -0.301260620355606079
-0.630989491939544678 0.306739240884780884 0.167685762047767639
0.476188153028488159 -0.32074284553527832 0.121730394661426544
0.509723305702209473 -0.300848066806793213 -0.104826807975769043
0.528773248195648193 -0.275006890296936035 -0.316494733095169067
0.494085550308227539 -0.332573980093002319 -0.310018092393875122
0.504228532314300537 -0.320056378841400146 0.098728567361831665
0.474739104509353638 -0.305937796831130981 -0.297410815954208374
-0.559408366680145264 0.268544465303421021 0.364820480346679688
0.125713109970092773 0.117282867431640625 0.314799308776855469
-0.633661389350891113 0.282640129327774048 0.0546244904398918152
-0.587414920330047607 0.363275647163391113 0.102768048644065857
0.372072845697402954 -0.374261051416397095 -0.212048918008804321
0.439163625240325928 -0.347943902015686035 0.155043110251426697
0.0587017126381397247 0.121723175048828125 0.321678400039672852
-0.574625670909881592 0.369315445423126221 0.215868055820465088
0.265535324811935425 0.0248472914099693298 -0.0579269304871559143
0.369492083787918091 -0.336782187223434448 0.161312058568000793
0.51116257905960083 -0.30157056450843811 -0.111276291310787201
0.134016275405883789 -0.320872068405151367 -0.0971759185194969177
0.51724773645401001 -0.348791718482971191 -0.0195584502071142197
0.389877915382385254 -0.346964627504348755 -0.213400155305862427
-0.577096045017242432 0.319491773843765259 0.0411566123366355896
0.536586225032806396 -0.277975738048553467 -0.319900751113891602
0.468446135520935059 -0.311079561710357666 -0.298548519611358643
0.507888078689575195 -0.34711793065071106 0.0186627954244613647
-0.555962741374969482 0.310156434774398804 0.102622255682945251
0.194392427802085876 -0.339584231376647949 -0.0585319064557552338
0.0704224631190299988 -0.282505005598068237 -0.0773216485977172852
0.253128409385681152 -0.250247687101364136 0.320785194635391235
0.240774720907211304 0.0312675274908542633 0.317573696374893188
-0.120907187461853027 -0.0478392429649829865 0.0087025640532374382
0.179419428110122681 -0.100145697593688965 -0.0141175752505660057
0.533151686191558838 -0.332298219203948975 -0.0124369421973824501
0.370946288108825684 -0.349700063467025757 -0.208183690905570984
0.53576129674911499 -0.245716288685798645 0.177990511059761047
0.561691701412200928 -0.315938085317611694 -0.330246508121490479
0.555350244045257568 -0.211572438478469849 0.134656742215156555
-0.543317914009094238 0.381258457899093628 0.164869636297225952
0.123630449175834656 0.117530867457389832 0.133777245879173279
-0.582297563552856445 0.352385878562927246 0.0981646180152893066
-0.481738626956939697 0.18613116443157196 -0.0910712629556655884
0.516353607177734375 -0.339174479246139526 0.0395677164196968079
0.254122555255889893 -0.279191434383392334 0.322598934173583984
0.279094785451889038 -0.356206208467483521 -0.12538301944732666
0.50849604606628418 -0.28680884838104248 -0.312967658042907715
-0.432287335395812988 -0.0572661831974983215 0.117132522165775299
0.202844023704528809 0.0908413603901863098 0.22404007613658905
0.245165258646011353 0.104808442294597626 -0.0564931146800518036
-0.195508629083633423 0.201897040009498596 0.349763453006744385
0.251344829797744751 0.025229213759303093 0.324009120464324951
0.240687340497970581 0.0193117335438728333 0.321696490049362183
-0.0309663228690624237 0.163090124726295471 0.383185654878616333
-0.482641786336898804 -0.0156173277646303177 0.180583208799362183
0.484542012214660645 -0.369124144315719604 0.046811908483505249
-0.643581688404083252 0.287513941526412964 0.0865912362933158875
0.276669859886169434 -0.165895268321037292 -0.069767482578754425
-0.411954194307327271 -0.0569558888673782349 0.0793642997741699219
-0.643182098865509033 0.175891831517219543 -0.0815848559141159058
-0.226018711924552917 -0.13421332836151123 -0.051702253520488739
0.255634188652038574 -0.265591830015182495 0.321764826774597168
-0.345492273569107056 0.0172029715031385422 -0.116406284272670746
-0.287295550107955933 -0.0918387696146965027 -0.105998143553733826
-0.585262417793273926 0.209938928484916687 -0.217531710863113403
0.268288403749465942 -0.297070175409317017 0.315843403339385986
-0.0253870598971843719 -0.187545120716094971 -0.0428885295987129211
-0.618150293827056885 0.277264177799224854 0.0318117253482341766
-0.608902156352996826 0.298626214265823364 0.0928775295615196228
-0.397680371999740601 -0.0629488527774810791 0.119341097772121429
-0.451835483312606812 -0.0382259748876094818 0.119929477572441101
0.431902557611465454 -0.271735608577728271 0.329898744821548462
-0.0520095750689506531 0.141060680150985718 0.0923202335834503174
-0.503089308738708496 0.151371508836746216 0.355812758207321167
0.241462007164955139 -0.319391012191772461 0.323437154293060303
0.497923761606216431 -0.370934784412384033 0.0581285394728183746
0.400098741054534912 -0.256854534149169922 0.323176473379135132
-0.158304288983345032 -0.263815134763717651 0.18207511305809021
-0.499296993017196655 0.0140631739050149918 0.158506259322166443
0.418367475271224976 -0.297388523817062378 0.329440683126449585
0.536069035530090332 -0.340293467044830322 -0.0176683012396097183
0.344994217157363892 -0.267627596855163574 -0.127106830477714539
-0.496571451425552368 0.0720965489745140076 0.204396963119506836
0.44444650411605835 -0.272176265716552734 0.334126055240631104
0.522831857204437256 -0.33548542857170105 0.0335707217454910278
0.454007148742675781 -0.320222318172454834 -0.292291700839996338
0.475074797868728638 -0.311750799417495728 0.117472045123577118
0.517879188060760498 -0.278685152530670166 -0.312078207731246948
0.503296017646789551 -0.32625126838684082 -0.313584059476852417
0.518945991992950439 -0.327178418636322021 0.10268876701593399
0.479964017868041992 -0.311739265918731689 -0.301430314779281616
0.115297310054302216 0.118881575763225555 0.289658874273300171
-0.121594071388244629 0.268998384475708008 0.159353375434875488
-0.614894568920135498 0.265738815069198608 0.052511945366859436
-0.479524523019790649 0.00307990028522908688 0.181763142347335815
0.427493810653686523 -0.355144798755645752 0.159320637583732605
-0.292473495006561279 -0.110936135053634644 -0.105267800390720367
0.131247624754905701 0.0657495409250259399 0.321867913007736206
0.254590243101119995 0.0387681461870670319 -0.077040456235408783
0.236374720931053162 0.0940246060490608215 -0.052321847528219223
0.418397247791290283 -0.261807262897491455 -0.20158684253692627
0.522455871105194092 -0.354790210723876953 -0.0186853278428316116
-0.608925282955169678 0.381486892700195312 0.181627929210662842
0.518228888511657715 -0.279587149620056152 -0.314001172780990601
0.499913185834884644 -0.350131869316101074 0.0248551256954669952
-0.587896108627319336 0.369654357433319092 0.113450594246387482
0.506943583488464355 -0.104600332677364349 0.148065105080604553
-0.197819322347640991 0.311910539865493774 0.113484501838684082
0.264738649129867554 -0.286649644374847412 0.320431530475616455
0.237823650240898132 0.0624032318592071533 0.311238378286361694
-0.14438629150390625 -0.0435867086052894592 0.00476048747077584267
-0.657908022403717041 0.214844301342964172 -0.0457532592117786407
-0.288721382617950439 -0.0762310326099395752 -0.0680995956063270569
0.228090107440948486 0.04225931316614151 -0.0474061630666255951
0.552472531795501709 -0.144391581416130066 0.132811993360519409
0.520602524280548096 -0.295432239770889282 0.0756682530045509338
0.51830589771270752 -0.284262657165527344 -0.18042309582233429
-0.358206301927566528 -0.0172464177012443542 -0.0274437982589006424
0.0921964645385742188 0.0884185582399368286 0.0864548236131668091
0.467421919107437134 -0.362071871757507324 -0.00989143364131450653
-0.433048993349075317 0.157784953713417053 -0.0659826025366783142
0.524608850479125977 -0.335740387439727783 0.0696683675050735474
0.263597756624221802 -0.286018967628479004 0.319154709577560425
0.00970495492219924927 -0.0911171659827232361 -0.0254913456737995148
0.0329322703182697296 -0.130532711744308472 0.0224950239062309265
-0.630815863609313965 0.265241384506225586 0.0294713322073221207
0.243039980530738831 0.0745872780680656433 0.31950753927230835
0.241081669926643372 0.0297914948314428329 0.319586455821990967
-0.174577489495277405 0.301190614700317383 0.11687188595533371
0.30544087290763855 -0.151250630617141724 0.308500826358795166
0.262628227472305298 -0.290823668241500854 0.321637809276580811
-0.47634473443031311 -0.00821331515908241272 0.166643977165222168
0.243681371212005615 0.0820305421948432922 0.312868416309356689
0.521027743816375732 -0.351400524377822876 0.0827007368206977844
-0.034688897430896759 -0.237853780388832092 0.12465512752532959
-0.638394415378570557 0.290297925472259521 0.0992185994982719421
-0.234345316886901855 -0.133192136883735657 -0.0574907958507537842
-0.37944379448890686 -0.109025396406650543 0.105994194746017456
-0.23656386137008667 -0.148238301277160645 -0.0573427267372608185
-0.658114790916442871 0.21454639732837677 -0.0334612131118774414
0.529663920402526855 -0.352730929851531982 0.0786428600549697876
-0.621251761913299561 0.270518898963928223 0.0529057271778583527
-0.404306113719940186 -0.0644973665475845337 0.112514249980449677
-0.446494430303573608 -0.041618049144744873 0.122435219585895538
0.2687053382396698 -0.285707622766494751 0.324116408824920654
0.128103509545326233 -0.326812118291854858 0.313138008117675781
0.152791380882263184 -0.343298614025115967 0.318421334028244019
0.448329329490661621 -0.335992276668548584 -0.29226800799369812
0.516466736793518066 -0.303144097328186035 -0.107197031378746033
0.51585078239440918 -0.280559569597244263 -0.312096774578094482
0.485464394092559814 -0.328028678894042969 -0.3090648353099823
0.464937895536422729 -0.346255868673324585 -0.301941543817520142
0.550244987010955811 -0.210455924272537231 -0.315234273672103882
0.524702012538909912 -0.30035671591758728 -0.321754187345504761
0.518569469451904297 -0.301170051097869873 -0.317649304866790771
0.247755765914916992 0.057291768491268158 0.317102521657943726
0.24225124716758728 0.0877889916300773621 0.313435405492782593
-0.291931480169296265 -0.100928954780101776 -0.101389728486537933
-0.453760594129562378 -0.0521152913570404053 0.117527574300765991
0.405562549829483032 -0.272286713123321533 0.323218464851379395
-0.502563178539276123 0.00375766283832490444 0.189538553357124329
0.401845306158065796 -0.287278085947036743 0.325529873371124268
0.400000542402267456 -0.27358478307723999 0.324012607336044312
0.343013495206832886 -0.259079307317733765 0.0908496305346488953
-0.0185637753456830978 -0.244643628597259521 0.12923140823841095
-0.464637696743011475 0.0359996110200881958 0.189976349472999573
-0.194222912192344666 0.221861958503723145 0.172592133283615112
0.36755138635635376 -0.329488813877105713 -0.022764960303902626
0.323992282152175903 -0.390463322401046753 -0.158167079091072083
0.536143720149993896 -0.323765397071838379 -0.0574628971517086029
-0.441910773515701294 -0.0047800801694393158 0.153141602873802185
-0.0187825970351696014 -0.0595233216881752014 0.142329037189483643
2.45324845309369266e-05 -0.236371323466300964 0.106967128813266754
0.52698051929473877 -0.201867595314979553 -0.0792551785707473755
0.450399011373519897 -0.308663338422775269 -0.292147189378738403
0.527445852756500244 -0.275709807872772217 -0.314949393272399902
0.500492751598358154 -0.325201690196990967 -0.311953186988830566
0.475819647312164307 -0.305366277694702148 -0.296663135290145874
-0.127172961831092834 0.246936649084091187 0.139541834592819214
-0.649097263813018799 0.282331168651580811 0.0945959389209747314
-0.198792695999145508 0.287014424800872803 0.336390972137451172
0.498940914869308472 -0.086601942777633667 0.137437686324119568
0.201242133975028992 -0.359538227319717407 -0.0901545733213424683
0.506123185157775879 -0.367831438779830933 -0.0219431463629007339
0.528081953525543213 -0.242663145065307617 0.173696532845497131
-0.586046397686004639 0.379705697298049927 0.171025365591049194
0.445615112781524658 -0.315258562564849854 -0.287023156881332397
0.499500155448913574 -0.110995598137378693 0.112953275442123413
-0.65597844123840332 0.17559051513671875 -0.103350214660167694
-0.201803743839263916 0.309097498655319214 0.0897054746747016907
0.202100843191146851 -0.0134216062724590302 0.295942038297653198
0.160659238696098328 -0.0622010603547096252 -0.0433544553816318512
-0.579639256000518799 0.302618533372879028 0.369022011756896973
0.275971949100494385 0.0985657274723052979 -0.0283431485295295715
-0.435430794954299927 0.155472233891487122 -0.0855043902993202209
0.535189628601074219 -0.333142191171646118 0.0135053414851427078
-0.568984329700469971 0.197370812296867371 -0.228613093495368958
-0.497871249914169312 0.0449444316327571869 -0.0863776654005050659
0.0318155102431774139 -0.10409187525510788 0.0336509309709072113
0.534703254699707031 -0.264737546443939209 -0.315593242645263672
0.0103083346039056778 0.197937279939651489 0.0282456260174512863
0.303038537502288818 0.0389876067638397217 -0.0836964696645736694
-0.332332015037536621 -0.0161504726856946945 -0.107170075178146362
0.237341448664665222 0.01466344203799963 0.322499483823776245
0.125750809907913208 0.0131740216165781021 0.29959338903427124
0.528276979923248291 -0.355254888534545898 0.0670909807085990906
0.467728734016418457 -0.310101032257080078 -0.232382804155349731
-0.652074754238128662 0.28567814826965332 0.104698941111564636
0.547431468963623047 -0.219916105270385742 0.164260387420654297
0.528780817985534668 -0.323478281497955322 -0.0152805689722299576
-0.38311767578125 -0.0564942285418510437 0.0767105817794799805
0.457520157098770142 -0.311142086982727051 -0.291844695806503296
0.505560517311096191 -0.34013029932975769 -0.317193418741226196
0.479432731866836548 -0.314614951610565186 -0.29878959059715271
0.520977258682250977 -0.301572799682617188 -0.316614031791687012
-0.00197696289978921413 -0.140174850821495056 -0.0241796653717756271
0.398334294557571411 -0.273142963647842407 0.324187487363815308
0.402006775140762329 -0.271567434072494507 0.324493229389190674
0.506889045238494873 -0.332043379545211792 0.106615707278251648
-0.467630982398986816 0.0425399802625179291 0.171094745397567749
0.410827338695526123 -0.34596601128578186 0.157340750098228455
-0.36096489429473877 -0.0354929044842720032 -0.147574767470359802
-0.128117576241493225 -0.267999142408370972 0.11294247955083847
0.513343930244445801 -0.369162231683731079 -0.0138878151774406433
-0.213440954685211182 0.312898993492126465 0.0982286259531974792
0.251286447048187256 -0.28716731071472168 0.323570340871810913
0.209756404161453247 0.00951192900538444519 -0.0453495904803276062
0.0704345405101776123 -0.151677802205085754 -0.0165635440498590469
-0.169409781694412231 0.305146783590316772 0.119436196982860565
0.471888095140457153 -0.364480078220367432 0.00783442705869674683
-0.291050970554351807 -0.0997185856103897095 -0.102646328508853912
0.0368597656488418579 -0.149854168295860291 -0.0210454892367124557
0.233110427856445312 0.0565133616328239441 0.309920459985733032
0.254095196723937988 -0.288729280233383179 0.321353942155838013
-0.47175675630569458 0.00119272107258439064 0.169109746813774109
0.241944238543510437 0.0629786401987075806 0.313823103904724121
0.509758591651916504 -0.352105200290679932 0.0647427067160606384
0.228078439831733704 -0.314910948276519775 0.315238595008850098
-0.375436604022979736 -0.0932670459151268005 0.0866848081350326538
-0.0624532811343669891 -0.241799026727676392 0.303077369928359985
-0.222678691148757935 -0.127916797995567322 -0.0525450706481933594
-0.409928381443023682 -0.0655184239149093628 0.099009387195110321
-0.445037931203842163 -0.044741462916135788 0.13320586085319519
0.239662900567054749 -0.29412543773651123 0.315121978521347046
0.154474809765815735 -0.324489355087280273 0.320737719535827637
0.426158487796783447 -0.25603097677230835 0.329343527555465698
0.438878804445266724 -0.34322771430015564 -0.291923195123672485
0.506981432437896729 -0.334828943014144897 -0.317337691783905029
0.445729762315750122 -0.352571427822113037 -0.285980373620986938
0.239209026098251343 0.0660439133644104004 0.313101500272750854
0.404073148965835571 -0.287505984306335449 0.326653987169265747
-0.494783103466033936 0.00679426779970526695 0.188826695084571838
0.486808240413665771 -0.0630180686712265015 0.132570132613182068
0.0129301799461245537 -0.170913457870483398 0.0105053959414362907
0.532348990440368652 -0.307693600654602051 -0.0614258646965026855
0.315523892641067505 -0.302500337362289429 -0.126054361462593079
0.446594953536987305 -0.291584908962249756 -0.284878581762313843
-0.336694061756134033 0.224975124001502991 0.126255571842193604
