ply
format ascii 1.0
element vertex 738
property float x
property float y
property float z
end_header
-0.469609737396240234 0.13896411657333374 -0.231015503406524658
0.257853239774703979 -0.0171765703707933426 -0.0719140022993087769
0.230695977807044983 0.0537759996950626373 -0.0449820458889007568
0.113252885639667511 0.1097254678606987 0.301915943622589111
-0.583960652351379395 0.218470573425292969 -0.221434727311134338
-0.598088204860687256 0.235326007008552551 -0.0107498038560152054
-0.366864621639251709 -0.0917518064379692078 0.123038105666637421
-0.329839020967483521 -0.125380143523216248 0.137504994869232178
-0.634470760822296143 0.199705719947814941 -0.0383064486086368561
-0.425549924373626709 -0.0549256205558776855 0.0994013920426368713
-0.477943927049636841 0.0201351363211870193 -0.036452319473028183
0.208865746855735779 0.00853297021239995956 0.301112055778503418
-0.63405841588973999 0.24819791316986084 -0.00599120836704969406
-0.127937912940979004 0.26996004581451416 0.132449239492416382
0.271310716867446899 -0.330355316400527954 0.180368557572364807
0.533173859119415283 -0.210260987281799316 -0.0986492931842803955
-0.126275211572647095 -0.112713634967803955 -0.0546230562031269073
0.454340159893035889 -0.339034348726272583 -0.297940701246261597
-0.212461099028587341 0.0362183712422847748 -0.0595198012888431549
-0.553074657917022705 0.175853505730628967 0.0128379287198185921
-0.198402807116508484 0.139662072062492371 0.0213170759379863739
-0.0123508013784885406 -0.102577582001686096 -0.0427848100662231445
0.264985710382461548 -0.274958759546279907 0.202719658613204956
0.348894685506820679 -0.321204304695129395 0.000173508014995604753
-0.155806317925453186 0.0697938874363899231 0.0277076046913862228
-0.249081671237945557 0.130828708410263062 -0.0342750176787376404
0.19930441677570343 0.00160609208978712559 0.0192618668079376221
0.0765154287219047546 0.0808419361710548401 0.0241216495633125305
-0.283350527286529541 0.288412779569625854 -0.00576319592073559761
0.47710534930229187 -0.289955615997314453 -0.301579773426055908
-0.556770503520965576 0.26588776707649231 -0.0172243360430002213
-0.237263992428779602 0.0976587384939193726 -0.0322894155979156494
0.1381053626537323 -0.280887633562088013 0.15032157301902771
0.296598285436630249 -0.297464668750762939 0.0571417398750782013
-0.285948216915130615 0.257372468709945679 0.000712684995960444212
-0.0208847448229789734 -0.0403847508132457733 0.089190952479839325
0.204670578241348267 0.0427112020552158356 0.065898209810256958
-0.143552929162979126 -0.0852012410759925842 0.0919216498732566833
0.372682780027389526 -0.0734639093279838562 0.0317491479218006134
0.521481871604919434 -0.199200347065925598 -0.0983443930745124817
0.487241625785827637 -0.297951579093933105 -0.305234670639038086
0.480598628520965576 -0.314922094345092773 0.122555971145629883
0.513734281063079834 -0.307299256324768066 -0.102233938872814178
0.496158599853515625 -0.309579700231552124 -0.309601485729217529
0.506300747394561768 -0.327927619218826294 -0.0039252513088285923
0.511880159378051758 -0.324622780084609985 0.118592739105224609
0.466039597988128662 -0.288858801126480103 -0.296434968709945679
0.438148826360702515 -0.263541519641876221 -0.194149181246757507
0.135243445634841919 0.11696305125951767 0.337294071912765503
0.396743059158325195 -0.244358494877815247 0.319043427705764771
-0.601556539535522461 0.354504883289337158 0.0655877143144607544
-0.505174100399017334 0.357397764921188354 0.178445130586624146
0.542746305465698242 -0.282596707344055176 0.0981553420424461365
0.256558507680892944 0.0368740744888782501 -0.0719208642840385437
-0.233093708753585815 0.156037569046020508 -0.00512296287342905998
0.506291389465332031 -0.332094967365264893 -0.00234755896963179111
0.444949805736541748 -0.250128716230392456 -0.227877512574195862
-0.639072299003601074 0.25468742847442627 0.054587148129940033
0.532725870609283447 -0.262768298387527466 0.0934661105275154114
-0.393089979887008667 -0.05925745889544487 0.100605085492134094
0.524027526378631592 -0.289761513471603394 -0.091925203800201416
0.0281952209770679474 -0.274233996868133545 -0.0351280160248279572
0.385338038206100464 -0.306123942136764526 0.119030147790908813
-0.582248687744140625 0.367055684328079224 0.131796106696128845
0.240348666906356812 0.00292401551268994808 0.18134211003780365
-0.112949788570404053 0.165603816509246826 0.347778260707855225
0.482328653335571289 -0.368470311164855957 -0.0218790601938962936
0.412397235631942749 -0.321280866861343384 -0.210895001888275146
0.507387161254882812 -0.155583098530769348 0.124239072203636169
0.528930008411407471 -0.334818065166473389 0.0130162397399544716
-0.584181606769561768 0.336637228727340698 0.0341672785580158234
-0.590824484825134277 0.382161527872085571 0.131351739168167114
0.526422619819641113 -0.244466140866279602 -0.310521334409713745
0.474576830863952637 -0.290878593921661377 -0.299331635236740112
-0.59728848934173584 0.353932946920394897 0.169756650924682617
-0.587411642074584961 0.37169530987739563 0.101180523633956909
-0.211987778544425964 -0.129608377814292908 -0.0575149953365325928
0.234561547636985779 -0.293016552925109863 0.315262913703918457
0.238157078623771667 0.067166350781917572 0.320320248603820801
0.541964352130889893 -0.313959449529647827 -0.0579312853515148163
-0.444693595170974731 -0.0483733229339122772 0.127234563231468201
0.359727382659912109 -0.388485848903656006 -0.208877801895141602
-0.556587457656860352 0.211313977837562561 -0.113613814115524292
0.520936012268066406 -0.279672503471374512 -0.176961541175842285
0.242026656866073608 0.0348019376397132874 0.314798831939697266
0.242871940135955811 0.000448385748313739896 0.0238336138427257538
0.38076445460319519 0.0388596095144748688 0.0120658669620752335
0.526893496513366699 -0.230762973427772522 -0.310028344392776489
0.327068358659744263 0.096234545111656189 -0.03575119748711586
-0.374215841293334961 -0.0602966248989105225 -0.132766440510749817
0.513012945652008057 -0.167580947279930115 0.136138200759887695
-0.574556231498718262 0.32223057746887207 0.0495438612997531891
-0.559058964252471924 0.283652454614639282 0.364253461360931396
0.224537745118141174 0.0319802649319171906 -0.0580383054912090302
-0.574347019195556641 0.21478348970413208 -0.221065506339073181
-0.0442717261612415314 0.156676113605499268 0.0813916251063346863
0.114146426320075989 0.110123910009860992 0.0256252661347389221
0.342904806137084961 -0.247065275907516479 -0.0967225655913352966
-0.285140424966812134 0.300623029470443726 -0.00266270712018013
0.153403043746948242 -0.00435305433347821236 -0.00340126035735011101
0.0690991654992103577 0.138924270868301392 0.0758489891886711121
-0.27012556791305542 0.280360430479049683 0.00186678813770413399
0.503485023975372314 -0.292722791433334351 -0.159199833869934082
0.137075439095497131 -0.0257824920117855072 0.0132895158603787422
-0.339039772748947144 -0.0319835245609283447 0.0229689162224531174
0.373500823974609375 -0.091859474778175354 0.0444677919149398804
0.199991330504417419 0.101310111582279205 -0.00164362578652799129
-0.297274172306060791 -0.025012606754899025 0.036115601658821106
0.131878644227981567 -0.0177767854183912277 -0.0259283985942602158
0.101478181779384613 0.0160957984626293182 0.0914190039038658142
0.175731047987937927 0.119438134133815765 0.0382142812013626099
-0.230483606457710266 -0.0636469274759292603 0.104863956570625305
0.486226499080657959 -0.296815246343612671 -0.303462952375411987
-0.603252530097961426 0.289719045162200928 0.185207441449165344
0.467326074838638306 -0.308800697326660156 0.120310135185718536
0.378347396850585938 -0.0144677842035889626 0.00653600879013538361
0.514482378959655762 -0.295432627201080322 -0.103326022624969482
0.518966436386108398 -0.239856809377670288 -0.307528555393218994
0.478064149618148804 -0.309882640838623047 -0.300217121839523315
0.48353201150894165 -0.274665892124176025 -0.299845188856124878
0.117294847965240479 0.1188531294465065 0.29785957932472229
-0.584262192249298096 0.356570303440093994 0.0658142194151878357
0.383891463279724121 -0.337411433458328247 0.125724673271179199
-0.574524760246276855 0.317891448736190796 -0.0265699625015258789
-0.604474008083343506 0.217288583517074585 -0.0869321525096893311
0.267830252647399902 0.0392700731754302979 -0.0861199349164962769
-0.356398999691009521 -0.0221907887607812881 -0.13105347752571106
-0.564335465431213379 0.314519315958023071 -0.00792142190039157867
0.190836772322654724 -0.34091457724571228 -0.0746109113097190857
0.404329091310501099 -0.357773780822753906 -0.223953381180763245
-0.500258386135101318 0.145738765597343445 0.354787886142730713
0.509686529636383057 -0.151545718312263489 0.115208536386489868
0.496986299753189087 -0.264067709445953369 -0.304325610399246216
0.458124220371246338 -0.281030476093292236 -0.289682269096374512
0.441087663173675537 -0.265106081962585449 -0.283636093139648438
-0.588078200817108154 0.357675164937973022 0.0617256201803684235
0.505287766456604004 -0.126862436532974243 0.124628148972988129
-0.206278607249259949 0.312616437673568726 0.108923979103565216
0.268366903066635132 -0.284049153327941895 0.319443583488464355
0.232663139700889587 0.00355906505137681961 0.318100273609161377
0.513372123241424561 -0.175795048475265503 -0.281684905290603638
-0.11517990380525589 0.00989982485771179199 0.00604029418900609016
0.404061108827590942 -0.359802782535552979 -0.224577069282531738
0.417762458324432373 -0.313343077898025513 0.143990814685821533
-0.555569052696228027 0.376716822385787964 0.186836212873458862
-0.175690874457359314 0.309282213449478149 0.118608482182025909
-0.389790803194046021 0.27616649866104126 -0.0849660560488700867
0.365325659513473511 0.0518025793135166168 0.0247756186872720718
0.129268467426300049 0.115750297904014587 0.3190898597240448
-0.286448299884796143 -0.100641131401062012 -0.091901339590549469
0.258194267749786377 0.100915268063545227 -0.0618838109076023102
-0.361226260662078857 -0.0598570108413696289 -0.144026994705200195
0.134223192930221558 0.113713659346103668 0.338037788867950439
-0.563112854957580566 0.199428796768188477 -0.229039043188095093
-0.276461273431777954 0.288138657808303833 -0.000760307011660188437
0.455037385225296021 -0.246594056487083435 -0.288224458694458008
0.46038663387298584 -0.275560945272445679 -0.290749520063400269
-0.634906530380249023 0.30835568904876709 0.170394614338874817
0.512605488300323486 -0.317593306303024292 -0.0384036935865879059
0.469087421894073486 -0.265956073999404907 -0.297879040241241455
0.478301703929901123 -0.295178085565567017 -0.300156086683273315
0.45829358696937561 -0.246377527713775635 -0.289796233177185059
0.381303191184997559 -0.36113777756690979 -0.213764458894729614
-0.479422837495803833 -0.0125213293358683586 0.185987606644630432
-0.516544938087463379 0.365975707769393921 0.174137502908706665
-0.618553459644317627 0.20217558741569519 -0.0871990397572517395
-0.237255871295928955 0.0188084021210670471 -0.0724192410707473755
-0.382552832365036011 -0.0590520650148391724 0.0238418839871883392
0.475011855363845825 -0.368460595607757568 0.0220030471682548523
-0.649285733699798584 0.236921578645706177 0.0322083979845046997
0.412751674652099609 -0.346870779991149902 -0.221548676490783691
0.52618032693862915 -0.337251245975494385 0.0802859142422676086
0.506167173385620117 -0.239160463213920593 -0.307991147041320801
0.249725505709648132 -0.282230257987976074 0.318501025438308716
0.23931121826171875 0.0665951967239379883 0.314864397048950195
0.539682626724243164 -0.301958441734313965 -0.0934981256723403931
-0.447850912809371948 -0.0413741767406463623 0.126664429903030396
-0.0437624342739582062 0.104540511965751648 0.318038076162338257
0.248086735606193542 0.0210444554686546326 0.32242855429649353
-0.284772545099258423 -0.0997749343514442444 -0.0989218279719352722
-0.13768748939037323 -0.0151139982044696808 -0.0486816912889480591
-0.277924895286560059 0.338030159473419189 0.0471418164670467377
-0.254745453596115112 0.290038466453552246 -0.00309776398353278637
-0.21894429624080658 0.32204049825668335 0.0700060054659843445
-0.573256611824035645 0.152372747659683228 -0.0744938254356384277
-0.28999173641204834 0.292846471071243286 0.016183050349354744
0.525748074054718018 -0.320769906044006348 0.0273818038403987885
0.346225082874298096 -0.0305531434714794159 -0.0343267098069190979
0.522370636463165283 -0.363014727830886841 0.0896226987242698669
-0.0831955596804618835 -0.111853033304214478 0.0786573588848114014
-0.404040664434432983 0.326218217611312866 0.121358685195446014
0.504893302917480469 -0.367190808057785034 -0.00429513026028871536
-0.118715643882751465 0.266207724809646606 0.121133051812648773
0.51884925365447998 -0.343063890933990479 0.0360526256263256073
0.130480945110321045 -0.334654271602630615 0.301512002944946289
0.46677243709564209 -0.311154454946517944 0.072673894464969635
0.483010411262512207 -0.374113529920578003 0.0525350570678710938
0.421188443899154663 -0.026112087070941925 0.0650437474250793457
0.494292557239532471 -0.363652646541595459 -0.0153485750779509544
-0.232991531491279602 0.287290900945663452 0.0843010172247886658
0.531341075897216797 -0.331871688365936279 -0.00702929077669978142
-0.271996676921844482 0.315559238195419312 0.11413295567035675
0.308348894119262695 0.00255100661888718605 0.0464694686233997345
0.467569321393966675 -0.263564079999923706 -0.295950144529342651
0.473968744277954102 -0.3044242262840271 0.114462420344352722
0.511307060718536377 -0.31376349925994873 -0.104223787784576416
0.509314775466918945 -0.245508238673210144 -0.308309406042098999
0.448104918003082275 -0.292661041021347046 -0.292639940977096558
0.46654123067855835 -0.283428460359573364 -0.29715883731842041
0.138455510139465332 0.11283121258020401 0.336977541446685791
-0.652139902114868164 0.285925745964050293 0.0979827567934989929
-0.638312935829162598 0.245000749826431274 -0.0382227711379528046
0.136451184749603271 0.0693054497241973877 0.338100820779800415
-0.577117621898651123 0.304007023572921753 -0.0555720999836921692
0.262608468532562256 0.0304485205560922623 -0.0733261033892631531
0.542056858539581299 -0.216813996434211731 0.11179795116186142
-0.360026836395263672 -0.0358359590172767639 -0.134233087301254272
-0.574767589569091797 0.327702105045318604 -0.0295777209103107452
-0.36172407865524292 -0.0710007473826408386 -0.033872261643409729
-0.130427747964859009 -0.267652839422225952 0.119285345077514648
0.495263606309890747 -0.36594739556312561 -0.00018065815675072372
0.373995333909988403 -0.359535008668899536 -0.20992983877658844
-0.37833520770072937 -0.10695163905620575 0.101462207734584808
-0.0669173747301101685 -0.264039278030395508 0.296736657619476318
0.519990384578704834 -0.243459463119506836 -0.309327960014343262
0.509584307670593262 -0.33067658543586731 0.0154694933444261551
-0.593393385410308838 0.369229257106781006 0.120604395866394043
-0.655350148677825928 0.175816610455513 -0.103056915104389191
-0.222929462790489197 -0.14424780011177063 -0.0535922609269618988
-0.191271975636482239 0.316797494888305664 0.100877091288566589
0.256827831268310547 -0.283521533012390137 0.319934815168380737
0.239293158054351807 0.0322332419455051422 0.319336086511611938
-0.120035700500011444 -0.0461402125656604767 0.00744161894544959068
-0.641583263874053955 0.308865517377853394 0.101868331432342529
0.364884763956069946 -0.374080270528793335 -0.206845492124557495
0.537849247455596924 -0.21782413125038147 0.162096470594406128
-0.552790462970733643 0.382714539766311646 0.158028602600097656
-0.122497588396072388 0.259421080350875854 0.115264430642127991
0.119518153369426727 0.102472588419914246 0.0896117910742759705
-0.375456392765045166 0.26600298285484314 -0.089500032365322113
0.517005681991577148 -0.34916272759437561 0.0989910438656806946
-0.293449550867080688 -0.107253715395927429 -0.109189458191394806
0.27510678768157959 0.102966532111167908 -0.0575230121612548828
-0.575082957744598389 0.219695329666137695 -0.21265922486782074
-0.115535110235214233 0.268716514110565186 0.179969474673271179
0.236185148358345032 -0.288001269102096558 0.314622193574905396
0.310311287641525269 -0.187372952699661255 0.241243869066238403
0.541866838932037354 -0.325956821441650391 -0.020727943629026413
0.0791631489992141724 -0.337751239538192749 0.282461583614349365
-0.00627722172066569328 -0.171933427453041077 0.00439888704568147659
-0.282272219657897949 0.26187974214553833 0.0071533937007188797
0.513245999813079834 -0.237230703234672546 -0.309325128793716431
-0.646939396858215332 0.278474688529968262 0.0795288607478141785
-0.646285057067871094 0.183332011103630066 -0.0909026488661766052
0.514217138290405273 -0.322634309530258179 0.0244838707149028778
-0.406902462244033813 -0.0636516213417053223 0.113646566867828369
0.516940653324127197 -0.355828642845153809 -0.0204385053366422653
-0.56660085916519165 0.374585151672363281 0.152525901794433594
0.236044645309448242 0.0430473722517490387 0.313883155584335327
-0.664803802967071533 0.227315187454223633 0.0230875629931688309
-0.448060095310211182 -0.0384750515222549438 0.127173110842704773
0.503127574920654297 -0.302406787872314453 -0.178733140230178833
-0.589138448238372803 0.361285984516143799 0.086095273494720459
-0.194113507866859436 0.315071284770965576 0.104995943605899811
0.247069969773292542 0.0239491071552038193 0.324022591114044189
0.531022906303405762 -0.32392457127571106 -0.0579034611582756042
-0.182858750224113464 0.307168543338775635 0.12861768901348114
0.24732188880443573 0.007021311204880476 0.324154943227767944
0.0587510131299495697 0.13973177969455719 0.345931559801101685
-0.505683064460754395 0.149542540311813354 0.356986552476882935
0.270887255668640137 -0.311272472143173218 0.326480656862258911
-0.253690838813781738 0.0235491842031478882 -0.0706316009163856506
0.241235002875328064 -0.295314013957977295 0.322726041078567505
0.249095529317855835 0.0438316576182842255 0.314610332250595093
0.468477427959442139 -0.102044515311717987 0.0347821973264217377
-0.124740049242973328 0.195193365216255188 0.115540400147438049
0.240130499005317688 -0.326639115810394287 0.318178176879882812
0.50036853551864624 -0.366712123155593872 0.0748542025685310364
0.523542702198028564 -0.324837714433670044 0.0264045242220163345
0.444756925106048584 -0.253312081098556519 0.332605838775634766
0.321645766496658325 -0.131532654166221619 -0.106549851596355438
0.0634981468319892883 -0.0107318470254540443 0.32189023494720459
0.511414587497711182 -0.361013710498809814 0.0477096810936927795
0.135821357369422913 -0.100736506283283234 0.040665842592716217
0.0496370233595371246 0.0115322470664978027 0.0298298746347427368
0.0208812858909368515 0.0482331551611423492 0.0426939725875854492
0.0882797986268997192 -0.0660642907023429871 0.289829999208450317
-0.161974042654037476 -0.265732347965240479 0.148184329271316528
0.265073865652084351 -0.0202074460685253143 0.0616803504526615143
-0.0287887491285800934 -0.0290093105286359787 0.295744061470031738
0.502320468425750732 -0.240477636456489563 -0.301908910274505615
0.476101905107498169 -0.315115422010421753 -0.301852226257324219
-0.63088679313659668 0.306504309177398682 0.167380005121231079
0.475609660148620605 -0.320938646793365479 0.12122904509305954
0.509218692779541016 -0.300989240407943726 -0.105386801064014435
0.528357148170471191 -0.275054752826690674 -0.317085832357406616
0.493707180023193359 -0.332581818103790283 -0.310603439807891846
0.503639698028564453 -0.320262312889099121 0.0982225090265274048
0.474350631237030029 -0.305949926376342773 -0.298005074262619019
-0.559292793273925781 0.268295079469680786 0.364582240581512451
0.125131726264953613 0.116881497204303741 0.314390689134597778
-0.633528351783752441 0.282441407442092896 0.0542695261538028717
-0.58732759952545166 0.363041609525680542 0.102436959743499756
0.371722042560577393 -0.374233454465866089 -0.212623268365859985
0.43862345814704895 -0.348108023405075073 0.154558479785919189
0.0582403130829334259 0.121347539126873016 0.321305841207504272
-0.574545979499816895 0.369064390659332275 0.215589120984077454
0.264865785837173462 0.0245554056018590927 -0.058526553213596344
0.368986278772354126 -0.336914181709289551 0.1608305424451828
0.510661065578460693 -0.301709175109863281 -0.111836552619934082
0.133875876665115356 -0.320770174264907837 -0.0976378321647644043
0.516718626022338867 -0.348953187465667725 -0.0200950242578983307
0.389506310224533081 -0.346958041191101074 -0.213978707790374756
-0.576978623867034912 0.319291383028030396 0.0407964736223220825
0.536170482635498047 -0.278024435043334961 -0.320489168167114258
0.468063205480575562 -0.311086088418960571 -0.29914209246635437
0.507342398166656494 -0.347289383411407471 0.0181329715996980667
-0.555875241756439209 0.309927880764007568 0.102286063134670258
0.194144025444984436 -0.339529246091842651 -0.0590169243514537811
0.0703617483377456665 -0.282400131225585938 -0.0777586475014686584
0.252695918083190918 -0.250373274087905884 0.320396572351455688
0.240087568759918213 0.0308747719973325729 0.317113786935806274
-0.120896346867084503 -0.0479393415153026581 0.00829648878425359726
0.178963661193847656 -0.100305534899234772 -0.0146563630551099777
0.532602488994598389 -0.33247867226600647 -0.0129694342613220215
0.370584636926651001 -0.349682867527008057 -0.208758994936943054
0.535111486911773682 -0.245986312627792358 0.177515596151351929
0.561289787292480469 -0.315978199243545532 -0.330819040536880493
0.554667532444000244 -0.211874723434448242 0.134158223867416382
-0.543255209922790527 0.381013959646224976 0.16457483172416687
0.123017042875289917 0.117140829563140869 0.133296802639961243
-0.582207679748535156 0.352155715227127075 0.0978313088417053223
-0.481511771678924561 0.186039596796035767 -0.0914693698287010193
0.515791535377502441 -0.339360564947128296 0.0390458293259143829
0.253708690404891968 -0.279295891523361206 0.322219520807266235
0.278776854276657104 -0.356165498495101929 -0.125918954610824585
0.50809246301651001 -0.286841511726379395 -0.313560724258422852
-0.432040631771087646 -0.0573252402245998383 0.116859704256057739
0.202128797769546509 0.0904253274202346802 0.223561912775039673
0.244449615478515625 0.104470856487751007 -0.0570915080606937408
-0.195595666766166687 0.201605945825576782 0.349506199359893799
0.250651150941848755 0.0248359926044940948 0.323546528816223145
0.240012317895889282 0.0189278926700353622 0.321239233016967773
-0.0312812365591526031 0.16272851824760437 0.382869958877563477
-0.48241347074508667 -0.015732521191239357 0.180335193872451782
0.484008073806762695 -0.369281977415084839 0.0462879128754138947
-0.643463134765625 0.28729286789894104 0.0862458348274230957
0.276194632053375244 -0.166005492210388184 -0.0703405365347862244
-0.411705225706100464 -0.0570063889026641846 0.0790733620524406433
-0.642943739891052246 0.175791695713996887 -0.0819816738367080688
-0.225772053003311157 -0.134138450026512146 -0.0520525239408016205
0.255209267139434814 -0.265707105398178101 0.321380078792572021
-0.34522247314453125 0.0171844828873872757 -0.116781644523143768
-0.286969691514968872 -0.0917570888996124268 -0.106351688504219055
-0.584979057312011719 0.209902673959732056 -0.217968940734863281
0.267868340015411377 -0.297169953584671021 0.315458357334136963
-0.025372607633471489 -0.187494486570358276 -0.0433083623647689819
-0.618008434772491455 0.277076154947280884 0.0314458422362804413
-0.608793079853057861 0.298406928777694702 0.0925367996096611023
-0.397445410490036011 -0.0630034059286117554 0.119072169065475464
-0.451596945524215698 -0.0383054651319980621 0.119653008878231049
0.431342720985412598 -0.271942734718322754 0.329479575157165527
-0.0523124858736991882 0.14073944091796875 0.0918899700045585632
-0.502949774265289307 0.1511668860912323 0.355603247880935669
0.241090953350067139 -0.319461852312088013 0.323076695203781128
0.497381120920181274 -0.371102035045623779 0.0576112009584903717
0.399544596672058105 -0.257058233022689819 0.322748154401779175
-0.158121347427368164 -0.263706862926483154 0.181829378008842468
-0.499084651470184326 0.0139339063316583633 0.158237576484680176
0.417831599712371826 -0.297572493553161621 0.329027146100997925
0.535526156425476074 -0.340469658374786377 -0.0182002037763595581
0.344567000865936279 -0.267676383256912231 -0.127682402729988098
-0.496399581432342529 0.071927092969417572 0.204143643379211426
0.44388166069984436 -0.272388070821762085 0.333710223436355591
0.522267401218414307 -0.335674822330474854 0.0330481342971324921
0.453630924224853516 -0.320221036672592163 -0.292883604764938354
0.474489688873291016 -0.311951607465744019 0.116966411471366882
0.517466843128204346 -0.278727620840072632 -0.312670767307281494
0.502913236618041992 -0.326264798641204834 -0.314168989658355713
0.518355727195739746 -0.327387183904647827 0.102189242839813232
0.479578018188476562 -0.311750739812850952 -0.302022278308868408
0.114725559949874878 0.118481844663619995 0.289248138666152954
-0.121849372982978821 0.268656671047210693 0.158979043364524841
-0.614759147167205811 0.265543848276138306 0.0521545372903347015
-0.479310512542724609 0.00293660955503582954 0.181516140699386597
0.426965028047561646 -0.355298995971679688 0.158838480710983276
-0.292145431041717529 -0.110838145017623901 -0.105612538754940033
0.130698814988136292 0.0653796419501304626 0.321464449167251587
0.253932088613510132 0.0384830012917518616 -0.0776425674557685852
0.235676407814025879 0.0936942398548126221 -0.0529148578643798828
0.41795918345451355 -0.261865139007568359 -0.202182486653327942
0.521927714347839355 -0.354952156543731689 -0.0192197412252426147
-0.60884547233581543 0.381241470575332642 0.181337013840675354
0.517818033695220947 -0.27962830662727356 -0.314593642950057983
0.499369710683822632 -0.350299835205078125 0.0243254359811544418
-0.587812960147857666 0.369417816400527954 0.113125622272491455
0.506175220012664795 -0.104979939758777618 0.147534415125846863
-0.197973087430000305 0.311604857444763184 0.113116465508937836
0.264316529035568237 -0.286754786968231201 0.320047467947006226
0.237109944224357605 0.0619903802871704102 0.310774803161621094
-0.144341960549354553 -0.0436789430677890778 0.00436255848035216331
-0.657702982425689697 0.214715003967285156 -0.0461392737925052643
-0.288445591926574707 -0.0761957839131355286 -0.0684523358941078186
0.227446302771568298 0.0419645346701145172 -0.0479901991784572601
0.551731407642364502 -0.144750267267227173 0.132296204566955566
0.519996583461761475 -0.295654922723770142 0.075153544545173645
0.517827510833740234 -0.284379065036773682 -0.180994346737861633
-0.357957839965820312 -0.0172915980219841003 -0.0277885086834430695
0.0916296541690826416 0.0880442485213279724 0.0859660729765892029
0.466910302639007568 -0.362205773591995239 -0.0104381805285811424
-0.432855606079101562 0.157675653696060181 -0.0663642138242721558
0.524029910564422607 -0.335940569639205933 0.0691584274172782898
0.263176411390304565 -0.286123752593994141 0.318770498037338257
0.00955651048570871353 -0.0912030115723609924 -0.0259581822901964188
0.0327555574476718903 -0.130608350038528442 0.0220467317849397659
-0.630667269229888916 0.265057533979415894 0.029105551540851593
0.242310479283332825 0.0741642490029335022 0.319042712450027466
0.240395963191986084 0.0293996818363666534 0.319127172231674194
-0.174760490655899048 0.300873428583145142 0.116495095193386078
0.304867357015609741 -0.151494339108467102 0.308049917221069336
0.26221168041229248 -0.290924906730651855 0.321256667375564575
-0.476123958826065063 -0.00833050627261400223 0.166387110948562622
0.242942392826080322 0.0816024765372276306 0.312400549650192261
0.520455420017242432 -0.351594269275665283 0.082196354866027832
-0.0346899852156639099 -0.237820684909820557 0.124314740300178528
-0.638279914855957031 0.290074557065963745 0.0988794043660163879
-0.234088525176048279 -0.133112713694572449 -0.057839125394821167
-0.379180431365966797 -0.109032198786735535 0.105728700757026672
-0.23629547655582428 -0.148141339421272278 -0.0576841793954372406
-0.65791630744934082 0.214409440755844116 -0.0338438227772712708
0.529089927673339844 -0.352927207946777344 0.0781393051147460938
-0.621116697788238525 0.270323067903518677 0.0525489524006843567
-0.404065221548080444 -0.0645488500595092773 0.112241901457309723
-0.446255505084991455 -0.041694149374961853 0.122161239385604858
0.268278539180755615 -0.285816043615341187 0.323731660842895508
0.127900287508964539 -0.326808333396911621 0.312846213579177856
0.152559444308280945 -0.343300104141235352 0.318120032548904419
0.447962313890457153 -0.335981935262680054 -0.292857080698013306
0.51596146821975708 -0.303286910057067871 -0.107754729688167572
0.515440285205841064 -0.280599981546401978 -0.312689393758773804
0.485087275505065918 -0.328033685684204102 -0.309652715921401978
0.464572489261627197 -0.346246302127838135 -0.302528619766235352
0.549782395362854004 -0.210552126169204712 -0.315840780735015869
0.524303436279296875 -0.30038788914680481 -0.322340428829193115
0.518171370029449463 -0.301199793815612793 -0.318236500024795532
0.247035399079322815 0.0568779818713665009 0.316636413335800171
0.241509422659873962 0.0873580276966094971 0.312967896461486816
-0.291593968868255615 -0.100838273763656616 -0.101737901568412781
-0.453509777784347534 -0.0521803423762321472 0.117252089083194733
0.405015677213668823 -0.272481530904769897 0.322794705629348755
-0.502342402935028076 0.00363065837882459164 0.189288228750228882
0.401310920715332031 -0.287460863590240479 0.325111180543899536
0.399457752704620361 -0.273776054382324219 0.323589444160461426
0.342475563287734985 -0.259232640266418457 0.0903251394629478455
-0.018586818128824234 -0.244613245129585266 0.128888502717018127
-0.464452862739562988 0.0358515419065952301 0.189725205302238464
-0.194351360201835632 0.221565708518028259 0.172259345650672913
0.367087841033935547 -0.329570591449737549 -0.0233151465654373169
0.323668122291564941 -0.390423119068145752 -0.158718854188919067
0.535614132881164551 -0.323932141065597534 -0.0580039620399475098
-0.441705048084259033 -0.00489450199529528618 0.152878955006599426
-0.0189767442643642426 -0.0597018338739871979 0.141939207911491394
-3.17841877404134721e-05 -0.236352667212486267 0.106601230800151825
0.526387989521026611 -0.202091246843338013 -0.0798271447420120239
0.45001906156539917 -0.30866435170173645 -0.292742133140563965
0.527029693126678467 -0.275757461786270142 -0.315540432929992676
0.500109732151031494 -0.325214862823486328 -0.312538802623748779
0.475430101156234741 -0.305379509925842285 -0.297257333993911743
-0.127410262823104858 0.246605649590492249 0.139159530401229858
-0.648982107639312744 0.282099217176437378 0.094249628484249115
-0.198913440108299255 0.286698251962661743 0.336120694875717163
0.498155385255813599 -0.0869938507676124573 0.136896640062332153
0.201007142663002014 -0.359459578990936279 -0.0906435251235961914
0.505610764026641846 -0.367977678775787354 -0.0224819518625736237
0.527432799339294434 -0.242932587862014771 0.173216477036476135
-0.585968613624572754 0.37945866584777832 0.170729056000709534
0.445237398147583008 -0.31525731086730957 -0.287616103887557983
0.498738616704940796 -0.11136355996131897 0.112405829131603241
-0.655728757381439209 0.175500333309173584 -0.103753738105297089
-0.201946839690208435 0.308799028396606445 0.0893254205584526062
0.201494753360748291 -0.0137684037908911705 0.295499622821807861
0.160221472382545471 -0.0623725615441799164 -0.043894350528717041
-0.579527974128723145 0.302360981702804565 0.368781536817550659
0.275201022624969482 0.0981993228197097778 -0.028945382684469223
-0.435222774744033813 0.155376553535461426 -0.0858911946415901184
0.534627139568328857 -0.333332687616348267 0.012979874387383461
-0.568691730499267578 0.197344020009040833 -0.229050830006599426
-0.497574329376220703 0.0449007861316204071 -0.0867509767413139343
0.0316076502203941345 -0.104203976690769196 0.0331989452242851257
0.534278631210327148 -0.264794290065765381 -0.316185534000396729
0.00987755879759788513 0.197584003210067749 0.0277530085295438766
0.302329719066619873 0.0386837571859359741 -0.0843161642551422119
-0.332051396369934082 -0.0161489434540271759 -0.107537761330604553
0.236675292253494263 0.0142847420647740364 0.322044789791107178
0.125251784920692444 0.0128456009551882744 0.299194365739822388
0.527709364891052246 -0.355446517467498779 0.0665830522775650024
0.467311292886734009 -0.310146749019622803 -0.232967421412467957
-0.651962697505950928 0.285442084074020386 0.104356631636619568
0.546758770942687988 -0.22020973265171051 0.163775920867919922
0.528229594230651855 -0.323659658432006836 -0.015816008672118187
-0.382882028818130493 -0.0565460287034511566 0.0764181539416313171
0.457138180732727051 -0.311146199703216553 -0.292438536882400513
0.505184710025787354 -0.340138107538223267 -0.317775517702102661
0.47904670238494873 -0.314626574516296387 -0.299380630254745483
0.520577669143676758 -0.301604330539703369 -0.317200303077697754
-0.00205635768361389637 -0.140197873115539551 -0.0246231034398078918
0.397792190313339233 -0.273333758115768433 0.323764234781265259
0.401461631059646606 -0.271761208772659302 0.324069708585739136
0.506306111812591553 -0.332244843244552612 0.106115497648715973
-0.467449724674224854 0.0423898771405220032 0.170831993222236633
0.410301417112350464 -0.346116006374359131 0.15685582160949707
-0.360637515783309937 -0.0354469679296016693 -0.147937998175621033
-0.127961277961730957 -0.267894148826599121 0.112646318972110748
0.512825131416320801 -0.369314968585968018 -0.0144228925928473473
-0.213572070002555847 0.312605321407318115 0.0978592336177825928
0.250881552696228027 -0.287264645099639893 0.323195308446884155
0.209165871143341064 0.00924846064299345016 -0.0459231771528720856
0.0702329054474830627 -0.151724979281425476 -0.0170324686914682388
-0.169601112604141235 0.304828047752380371 0.119059495627880096
0.47136235237121582 -0.364623576402664185 0.00729048717767000198
-0.29071393609046936 -0.0996284261345863342 -0.102995358407497406
0.036719299852848053 -0.149885416030883789 -0.0215013474225997925
0.232408091425895691 0.05610647052526474 0.309459418058395386
0.253687620162963867 -0.288827031850814819 0.320976823568344116
-0.471544414758682251 0.0010657220846042037 0.168853700160980225
0.241225287318229675 0.0625636205077171326 0.31335824728012085
0.50919729471206665 -0.352288901805877686 0.0642290040850639343
0.227720662951469421 -0.314975589513778687 0.31488153338432312
-0.375181496143341064 -0.093290671706199646 0.0864075347781181335
-0.0624068006873130798 -0.24175792932510376 0.302850604057312012
-0.22243887186050415 -0.127849474549293518 -0.0528992712497711182
-0.409680366516113281 -0.0655657872557640076 0.0987300500273704529
-0.444798648357391357 -0.0448156632483005524 0.132938459515571594
0.239276319742202759 -0.294210493564605713 0.314752131700515747
0.154228776693344116 -0.324503451585769653 0.320431500673294067
0.425590842962265015 -0.25624731183052063 0.328918814659118652
0.438519001007080078 -0.343209177255630493 -0.292511433362960815
0.506602942943572998 -0.334839373826980591 -0.317920416593551636
0.445367097854614258 -0.352556914091110229 -0.286566346883773804
0.238490626215934753 0.0656280592083930969 0.312637478113174438
0.403537869453430176 -0.287689745426177979 0.326235920190811157
-0.494566857814788818 0.0066615743562579155 0.188577458262443542
0.486002087593078613 -0.0634247586131095886 0.132020533084869385
0.0128393517807126045 -0.170924469828605652 0.0100728338584303856
0.531813621520996094 -0.307864397764205933 -0.0619707927107810974
0.315141081809997559 -0.302509784698486328 -0.126614019274711609
0.446204185485839844 -0.291594862937927246 -0.285477280616760254
-0.336684852838516235 0.224735379219055176 0.125942990183830261
-0.400600194931030273 -0.0282801743596792221 -0.00170751451514661312
0.403446853160858154 -0.271904289722442627 0.324453413486480713
-0.133038982748985291 0.195784494280815125 0.168002963066101074
0.399497568607330322 -0.271840482950210571 0.324266135692596436
-0.44626152515411377 -0.025041140615940094 0.0215989444404840469
-0.137724131345748901 0.244877755641937256 0.191957712173461914
-0.612526416778564453 0.294170379638671875 0.183859318494796753
0.124846182763576508 0.116013795137405396 0.316979885101318359
-0.120663650333881378 0.250611871480941772 0.16208706796169281
-0.583032667636871338 0.348317444324493408 0.0582444146275520325
0.427205413579940796 -0.34829142689704895 0.153341755270957947
-0.566444456577301025 0.295213699340820312 -0.0688942968845367432
0.252195566892623901 0.0266082398593425751 -0.0793693140149116516
0.247970819473266602 0.100315235555171967 -0.0481322035193443298
-0.357109218835830688 -0.0558078475296497345 -0.14167177677154541
0.19901159405708313 0.12015581876039505 0.0359997116029262543
0.545857608318328857 -0.131692796945571899 0.112289153039455414
-0.58133852481842041 0.321921765804290771 -0.0227503497153520584
0.206482812762260437 0.0245816484093666077 0.177120134234428406
-0.595055460929870605 0.375332415103912354 0.17214047908782959
0.445169925689697266 -0.319382458925247192 0.127671018242835999
0.255488425493240356 -0.278792411088943481 0.316820025444030762
0.235888838768005371 0.0237231049686670303 0.316889375448226929
-0.362564563751220703 -0.0498107559978961945 -0.0235603544861078262
-0.182323753833770752 0.118150092661380768 0.0425442047417163849
0.255204170942306519 -0.28823167085647583 0.319637179374694824
0.242322191596031189 0.0331008806824684143 0.322153478860855103
0.400163829326629639 0.0232541300356388092 0.11544334888458252
-0.340141922235488892 -0.0661675184965133667 -0.147114500403404236
0.0762207210063934326 -0.332994997501373291 0.299301296472549438
-0.386406779289245605 -0.0607947595417499542 0.0940541699528694153
-0.447832435369491577 -0.0412895120680332184 0.127945169806480408
0.439736008644104004 -0.279374510049819946 0.33399665355682373
0.0348641425371170044 -0.122931532561779022 -0.0254141390323638916
0.41470906138420105 -0.280825674533843994 0.327335655689239502
0.433414340019226074 -0.296124428510665894 0.333499550819396973
0.368328750133514404 -0.27880859375 -0.13007780909538269
-0.477055668830871582 0.00149246084038168192 0.188554719090461731
-0.291128098964691162 -0.0963361859321594238 -0.104327872395515442
0.241830945014953613 -0.313002079725265503 0.309998929500579834
0.473585724830627441 -0.354343384504318237 0.00729933520779013634
-0.295962661504745483 -0.0965844020247459412 -0.106782786548137665
0.245182886719703674 -0.288579940795898438 0.320390582084655762
0.0627549812197685242 -0.329696953296661377 0.297385573387145996
0.158466756343841553 -0.267833471298217773 -0.105327792465686798
0.250520914793014526 0.063373170793056488 0.315783679485321045
-0.482145845890045166 -0.00784750562161207199 0.178154677152633667
0.236662015318870544 0.0665450394153594971 0.315139293670654297
0.239173069596290588 -0.33180767297744751 0.321729987859725952
-0.381858080625534058 -0.0919789671897888184 0.0369522124528884888
-0.215700432658195496 -0.140089333057403564 -0.0541326329112052917
-0.382309079170227051 -0.0636058524250984192 0.0837690681219100952
0.150440901517868042 -0.331612080335617065 0.332223087549209595
0.4462546706199646 -0.279906928539276123 0.333921521902084351
0.407822906970977783 -0.280536383390426636 0.325447142124176025
-0.501653671264648438 0.00664601102471351624 0.188886970281600952
-0.321536511182785034 0.0972931906580924988 -0.0700607150793075562
0.532887876033782959 -0.207623451948165894 -0.0523971617221832275
0.451395988464355469 -0.294034451246261597 -0.290366619825363159
0.487846523523330688 -0.325385510921478271 -0.310782819986343384
0.446841895580291748 -0.30987858772277832 -0.290731072425842285
-0.577376604080200195 0.269351750612258911 0.365974336862564087
-0.461037814617156982 0.105858691036701202 -0.230870857834815979
0.375274866819381714 -0.318757325410842896 0.199373066425323486
-0.589423418045043945 0.367081731557846069 0.131355494260787964
0.393008232116699219 -0.35357975959777832 -0.217350706458091736
0.441539913415908813 -0.310420781373977661 -0.288940608501434326
-0.20032992959022522 0.305524259805679321 0.0951876342296600342
-0.155169636011123657 0.267995119094848633 0.151897966861724854
0.530188560485839844 -0.33857119083404541 0.0720763951539993286
0.464240759611129761 -0.266273945569992065 -0.217530936002731323
-0.633142530918121338 0.275835484266281128 0.107135333120822906
0.438862085342407227 -0.308712780475616455 -0.287111431360244751
0.515882015228271484 -0.277343183755874634 -0.316741675138473511
0.517002642154693604 -0.340492159128189087 -0.320655286312103271
0.454801887273788452 -0.307194381952285767 -0.293166220188140869
0.491296559572219849 -0.322050154209136963 0.094638429582118988
0.0210703536868095398 -0.27589339017868042 -0.0183563232421875
-0.653661012649536133 0.172034278512001038 -0.108030892908573151
-0.224368050694465637 0.318633913993835449 0.121588028967380524
0.465760797262191772 -0.364228755235671997 0.0061273723840713501
0.481475085020065308 -0.336939424276351929 0.0505130253732204437
0.511907100677490234 -0.339552223682403564 -0.319314956665039062
0.440628230571746826 -0.356709510087966919 -0.297523617744445801
-0.269679069519042969 0.322109580039978027 0.042095039039850235
0.424588233232498169 -0.313433945178985596 -0.281805962324142456
0.415910810232162476 -0.295282930135726929 0.328783243894577026
-0.325707703828811646 -0.0754168853163719177 0.12372715026140213
-0.366498589515686035 -0.0667274221777915955 0.154933944344520569
-0.337936758995056152 0.214897334575653076 0.133081421256065369
0.0104209929704666138 0.119367830455303192 0.105382032692432404
0.542411744594573975 -0.309333622455596924 -0.0459974817931652069
0.01409157644957304 -0.261866778135299683 0.0397429317235946655
-0.00309945642948150635 -0.236630856990814209 0.0945086032152175903
0.000656509597320109606 -0.219670653343200684 0.0817630663514137268
0.465339004993438721 -0.361080437898635864 0.0305344369262456894
-0.268984377384185791 -0.13804277777671814 0.177772104740142822
-0.344701021909713745 -0.0659038424491882324 0.141524210572242737
0.123923525214195251 -0.276758193969726562 0.129233866930007935
-0.133509516716003418 0.0787815749645233154 0.0905220136046409607
0.463844209909439087 -0.0545313097536563873 0.0177865177392959595
-0.0136829148977994919 -0.216982796788215637 0.0806039795279502869
-0.554406464099884033 0.391792774200439453 0.147892802953720093
0.49701496958732605 -0.366957157850265503 0.00546155218034982681
-0.610355019569396973 0.294168323278427124 0.186664357781410217
0.530409276485443115 -0.275406509637832642 -0.317576438188552856
0.370775729417800903 -0.264719724655151367 0.18178422749042511
0.420761376619338989 -0.34460681676864624 0.151106700301170349
0.252330362796783447 0.0391105152666568756 -0.0664976015686988831
0.549762368202209473 -0.150084421038627625 0.124481961131095886
-0.570169985294342041 0.284184962511062622 -0.00629441486671566963
0.50128251314163208 -0.362809121608734131 -0.00107065949123352766
0.208544269204139709 0.115609504282474518 -0.0102551616728305817
-0.288790762424468994 -0.0857061371207237244 -0.0661768242716789246
0.159609481692314148 -0.0833409428596496582 -0.0359749980270862579
-0.339559227228164673 -0.105482921004295349 0.141568779945373535
0.511424660682678223 -0.281571745872497559 -0.313094347715377808
-0.338887721300125122 -0.0796856582164764404 0.0388636030256748199
-0.369016438722610474 0.280839085578918457 -0.0623741000890731812
0.510219752788543701 -0.34114190936088562 0.0653539150953292847
0.302675843238830566 -0.206008866429328918 0.248167470097541809
0.543153047561645508 -0.312220931053161621 -0.0605498664081096649
0.141867086291313171 0.0694485381245613098 0.336636871099472046
-0.594509005546569824 0.267646938562393188 0.0123127670958638191
0.22232230007648468 -0.0071720881387591362 0.295831501483917236
0.23116600513458252 0.034257594496011734 0.313022345304489136
0.533863067626953125 -0.319824457168579102 -0.012582327239215374
-0.388939261436462402 -0.0640044957399368286 0.106021635234355927
-0.447175770998001099 -0.0401415601372718811 0.126796722412109375
0.496262073516845703 -0.0914997905492782593 0.154695421457290649
0.251188337802886963 0.0630502849817276001 0.316901654005050659
-0.290938228368759155 -0.0927333682775497437 0.308033138513565063
-0.366153866052627563 -0.114794708788394928 0.1043272465467453
-0.563036620616912842 0.127354443073272705 -0.0782925933599472046
-0.501120388507843018 0.0234983302652835846 0.186930850148200989
0.518480181694030762 -0.297593832015991211 -0.31392940878868103
0.472956359386444092 -0.32849767804145813 -0.299785792827606201
-0.573910415172576904 0.269016683101654053 0.362902313470840454
-0.570834636688232422 0.355067253112792969 0.167224451899528503
-0.191411882638931274 0.30477374792098999 0.101549677550792694
-0.661699593067169189 0.23989984393119812 0.0418006479740142822
-0.504524350166320801 0.144507229328155518 0.353589326143264771
0.507492363452911377 -0.347420871257781982 -0.318212240934371948
-0.200239956378936768 0.305108010768890381 0.102209813892841339
0.475484669208526611 -0.357871949672698975 0.00488542905077338219
0.510105431079864502 -0.330958425998687744 0.0666298791766166687
-0.610366225242614746 0.367763638496398926 0.0879446640610694885
-0.56214451789855957 0.288429945707321167 -0.0557891093194484711
0.220252245664596558 0.0101935872808098793 0.309359222650527954
0.240816906094551086 0.00502569600939750671 0.321820557117462158
-0.359160482883453369 -0.0569523945450782776 -0.137667462229728699
0.399627268314361572 -0.25291067361831665 0.322192788124084473
0.399931013584136963 -0.263282805681228638 0.324946284294128418
0.224444165825843811 -0.324263036251068115 0.32095983624458313
0.411412656307220459 -0.268025606870651245 0.325368165969848633
-0.50876009464263916 0.0494787245988845825 0.195517852902412415
-0.630835533142089844 0.156589344143867493 -0.0524930506944656372
-0.50149768590927124 0.147072866559028625 0.345563054084777832
0.521290779113769531 -0.350980907678604126 -0.322954535484313965
0.495655626058578491 -0.348596453666687012 0.000406183622544631362
-0.197518274188041687 0.016088046133518219 -0.0497417300939559937
-0.557401418685913086 0.341945946216583252 -0.0055611850693821907
0.488869756460189819 -0.360723227262496948 0.0412386171519756317
0.449458479881286621 -0.074456535279750824 0.00210098689422011375
-0.555934906005859375 0.385399192571640015 0.158014044165611267
0.374928563833236694 -0.0814117491245269775 -0.119812808930873871
-0.389372140169143677 0.319724410772323608 0.169060558080673218
-0.384332984685897827 0.328293204307556152 0.197761863470077515
-0.3638039231300354 0.238081604242324829 -0.0832777246832847595
-0.406950026750564575 0.199576079845428467 0.0411294735968112946
-0.644090950489044189 0.28697165846824646 0.0937645956873893738
0.408930122852325439 -0.347482413053512573 0.136622145771980286
0.222633123397827148 0.0827504098415374756 -0.0333958342671394348
0.498858839273452759 -0.161523371934890747 0.124006576836109161
0.500596523284912109 -0.0931124463677406311 0.134923622012138367
0.215664982795715332 0.00174616253934800625 0.299692213535308838
-0.352755099534988403 -0.0682303905487060547 -0.00885093770921230316
-0.385050714015960693 0.266090244054794312 -0.0714650601148605347
0.506788194179534912 -0.347364544868469238 0.0551033131778240204
-0.356580585241317749 -0.0564168579876422882 -0.145259588956832886
0.1324940025806427 0.072508201003074646 0.32236248254776001
-0.099170982837677002 -0.265746235847473145 0.00632832664996385574
0.242723211646080017 0.023168470710515976 0.322125494480133057
-0.480009108781814575 -0.0117737827822566032 0.185540750622749329
0.242751002311706543 0.0481593608856201172 0.31730496883392334
-0.277846157550811768 0.332787990570068359 0.0408777669072151184
0.37011641263961792 -0.0311021935194730759 -0.0398401878774166107
0.520477652549743652 -0.348288774490356445 -0.0361686386168003082
0.293588489294052124 -0.012180158868432045 0.0371447242796421051
-0.643777787685394287 0.284889161586761475 0.0926122814416885376
