ply
format ascii 1.0
element vertex 738
property float x
property float y
property float z
end_header
-0.575997471809387207 0.213019832968711853 -0.116561055183410645
-0.42499968409538269 0.0310157574713230133 -0.188402131199836731
0.304396241903305054 -0.126230254769325256 -0.108575470745563507
-0.385080158710479736 -0.0553509071469306946 0.10075494647026062
-0.603219330310821533 0.259868085384368896 0.0175909437239170074
-0.46066555380821228 0.306655019521713257 0.0813413858413696289
0.504870295524597168 -0.263787835836410522 -0.109548382461071014
0.534610092639923096 -0.19221159815788269 0.0283524896949529648
-0.616151094436645508 0.210786998271942139 -0.05597672238945961
0.452526718378067017 -0.123445235192775726 0.0890367850661277771
0.0335527248680591583 -0.279171556234359741 -0.035864364355802536
0.401905447244644165 -0.318608731031417847 0.130667433142662048
-0.093907870352268219 0.0743231847882270813 0.293191373348236084
0.243126019835472107 -0.13654501736164093 0.0109018851071596146
0.1612720787525177 -0.271231263875961304 0.0437550842761993408
-0.590541601181030273 0.369445502758026123 0.090374380350112915
0.0269805416464805603 -0.0114181526005268097 0.0278520826250314713
0.195675551891326904 0.0342511571943759918 0.177953943610191345
-0.30612647533416748 -0.0910459384322166443 0.305541455745697021
0.493679463863372803 -0.366660922765731812 0.0195552557706832886
0.521590471267700195 -0.311229884624481201 0.0457514412701129913
0.502608954906463623 -0.153335973620414734 0.118641801178455353
0.0807772204279899597 -0.271721303462982178 -0.0596053674817085266
-0.325398117303848267 -0.102861285209655762 0.0884940475225448608
-0.586153745651245117 0.335116297006607056 0.0187367722392082214
-0.0739204809069633484 -0.235394448041915894 0.301646262407302856
0.194257184863090515 -0.339595794677734375 -0.0624718926846981049
-0.398850023746490479 0.272411465644836426 -0.0544856339693069458
-0.521678745746612549 0.0444573536515235901 -0.0575736947357654572
-0.257809221744537354 0.142576321959495544 0.0913624763488769531
-0.21352580189704895 -0.135388240218162537 -0.0632008835673332214
0.508483171463012695 -0.104512661695480347 0.143953621387481689
0.214046016335487366 -0.279371500015258789 -0.00944708660244941711
0.23802793025970459 -0.0758198872208595276 0.126668483018875122
-0.140449807047843933 0.296862661838531494 0.147855222225189209
-0.655930280685424805 0.171758219599723816 -0.112315982580184937
0.253225266933441162 -0.00921548344194889069 0.249734148383140564
0.25014081597328186 -0.17857004702091217 0.302520275115966797
-0.263027340173721313 -0.136639580130577087 -0.067588023841381073
-0.200812026858329773 0.314692050218582153 0.0990192145109176636
0.257659852504730225 -0.277757376432418823 0.322863191366195679
0.178744614124298096 -0.0537903644144535065 -0.0511599518358707428
-0.44323652982711792 -0.0663053393363952637 0.129202961921691895
-0.503721415996551514 0.0303931050002574921 0.247296720743179321
-0.496966719627380371 0.0368432849645614624 -0.011526862159371376
0.232548892498016357 0.0230764243751764297 0.313848108053207397
-0.371345847845077515 -0.0453991815447807312 0.143464341759681702
-0.348890960216522217 0.106920979917049408 0.0660786554217338562
0.307478547096252441 -0.198550984263420105 0.242693543434143066
0.308279633522033691 -0.00529157696291804314 0.219316497445106506
-0.442742884159088135 0.266925185918807983 -0.0371193923056125641
0.517082333564758301 -0.326353222131729126 -0.0815734639763832092
-0.538699924945831299 0.138770028948783875 -0.0970124378800392151
0.465708255767822266 -0.124229848384857178 0.00167891220189630985
-0.38531377911567688 0.255689620971679688 0.0328875146806240082
0.493873685598373413 -0.301703333854675293 0.1208324134349823
0.465246319770812988 -0.105977453291416168 0.0592679344117641449
0.203630685806274414 0.0154637126252055168 -0.0424061901867389679
-0.224566638469696045 0.29607391357421875 0.158756539225578308
-0.125130683183670044 -0.0486298687756061554 0.0109286699444055557
-0.231709569692611694 0.228708207607269287 0.348217993974685669
-0.380733191967010498 -0.053958602249622345 0.14558093249797821
0.341106414794921875 -0.0735334083437919617 0.0474360734224319458
-0.43586432933807373 -0.0118788350373506546 0.0341956503689289093
0.205274730920791626 0.0168869215995073318 0.0702209323644638062
0.0561431609094142914 -0.0856459438800811768 0.239233210682868958
-0.383818298578262329 -0.0591469109058380127 0.116692505776882172
-0.136745348572731018 -0.2644234299659729 -0.00112981675192713737
-0.243734881281852722 0.0639163106679916382 0.244904443621635437
-0.542028427124023438 0.211157515645027161 0.162905856966972351
-0.590636968612670898 0.287440389394760132 -0.00709420815110206604
0.306853622198104858 0.0178626589477062225 0.0426399596035480499
0.478443682193756104 -0.314557641744613647 -0.305593997240066528
0.503726184368133545 -0.345305174589157104 -0.0639782696962356567
0.471605241298675537 -0.304915100336074829 0.114853262901306152
0.527102112770080566 -0.302680075168609619 -0.109572052955627441
-0.402810990810394287 0.311816692352294922 0.134843766689300537
0.517894148826599121 -0.251071631908416748 -0.307599574327468872
0.507567167282104492 -0.328842669725418091 -0.314951986074447632
0.518802940845489502 -0.331126689910888672 0.0913965106010437012
0.477329522371292114 -0.304029524326324463 -0.303235352039337158
0.527560651302337646 -0.285423189401626587 -0.108190983533859253
-0.559812843799591064 0.267454415559768677 0.365763723850250244
-0.640038132667541504 0.289828062057495117 0.0853654071688652039
0.371336758136749268 -0.400898456573486328 -0.217663183808326721
-0.4496498703956604 -0.000679263263009488583 0.175249844789505005
0.176346495747566223 0.073230743408203125 0.00649639451876282692
-0.453435599803924561 0.135013654828071594 -0.21347278356552124
0.40305599570274353 -0.335610449314117432 0.128811389207839966
-0.598785400390625 0.207666337490081787 0.00100256921723484993
0.247480869293212891 -0.114257089793682098 -0.0709517002105712891
-0.483035147190093994 0.18304617702960968 -0.209874823689460754
-0.37599027156829834 -0.062693469226360321 0.0918247699737548828
0.522913992404937744 -0.32072681188583374 0.0356864780187606812
0.542400777339935303 -0.217187657952308655 0.108037114143371582
0.525725364685058594 -0.27330482006072998 0.0551127195358276367
0.111124031245708466 0.0843450725078582764 0.317204326391220093
-0.350759178400039673 -0.0475027263164520264 0.0451278463006019592
0.105037741363048553 0.0724947154521942139 0.295446276664733887
-0.16525597870349884 0.133368059992790222 0.151411712169647217
0.502771317958831787 -0.256262332201004028 -0.102666623890399933
0.428894490003585815 -0.303614288568496704 0.135769963264465332
-0.355572879314422607 -0.101010143756866455 0.159168437123298645
0.498624891042709351 -0.201407149434089661 -0.108141697943210602
-0.578303635120391846 0.348330676555633545 0.152334272861480713
0.104993961751461029 -0.0112183252349495888 0.0211059208959341049
-0.341064035892486572 -0.122944474220275879 0.104713849723339081
-0.120640918612480164 -0.275191068649291992 0.174125924706459045
-0.161094427108764648 0.167606934905052185 0.325248986482620239
0.515020489692687988 -0.358351469039916992 0.0266260411590337753
0.521068155765533447 -0.287350594997406006 -0.011866007000207901
0.478861123323440552 -0.139762133359909058 0.107419267296791077
-0.180774018168449402 0.0296618752181529999 0.0259950906038284302
-0.341779798269271851 -0.121166221797466278 0.103857181966304779
-0.600001215934753418 0.37702488899230957 0.188596010208129883
-0.119637720286846161 -0.266311347484588623 0.218379408121109009
0.523478448390960693 -0.30859452486038208 -0.0749654322862625122
0.516339480876922607 -0.251885324716567993 -0.309722632169723511
0.454977214336395264 -0.307975202798843384 -0.294641345739364624
0.240536600351333618 -0.0957030430436134338 0.158536449074745178
-0.620005190372467041 0.272514909505844116 0.0373825058341026306
-0.429733872413635254 -0.00341658969409763813 0.177480638027191162
-0.250237017869949341 -0.136414408683776855 -0.0709723308682441711
0.317268639802932739 -0.318684697151184082 0.12243855744600296
0.539330601692199707 -0.24949781596660614 0.106429688632488251
0.452704012393951416 -0.139557480812072754 0.0152364978566765785
0.429331302642822266 -0.320759564638137817 0.123560547828674316
0.413284063339233398 -0.330540627241134644 -0.209950089454650879
0.473796725273132324 -0.128340393304824829 0.109303131699562073
-0.548758268356323242 0.378838777542114258 0.172805100679397583
0.19050946831703186 -0.339440196752548218 -0.0133582288399338722
-0.201543256640434265 -0.134948268532752991 -0.0683261305093765259
-0.185455396771430969 0.312407046556472778 0.118005558848381042
0.10327601432800293 0.10804314911365509 0.174419894814491272
-0.444084852933883667 -0.0538759864866733551 0.0920195430517196655
-0.489121109247207642 0.0304785128682851791 0.0170523952692747116
0.231321856379508972 0.0112816412001848221 0.314927369356155396
-0.0246947426348924637 0.113509394228458405 0.31251254677772522
0.243179336190223694 -0.0383499749004840851 0.204556569457054138
-0.384661316871643066 0.24570775032043457 0.0344773009419441223
-0.653821468353271484 0.217035278677940369 -0.0390154682099819183
0.482989579439163208 -0.116012163460254669 0.023242603987455368
0.122132040560245514 0.0798306465148925781 0.138522729277610779
-0.381691277027130127 -0.0721241384744644165 0.0957725942134857178
0.319636523723602295 -0.0720895826816558838 0.0622731484472751617
-0.440401971340179443 -0.0112051600590348244 0.00704870745539665222
-0.501950919628143311 0.234042584896087646 -0.0708784684538841248
-0.547001361846923828 0.203790083527565002 -0.068278290331363678
0.0885389745235443115 0.092027813196182251 0.0800163000822067261
-0.519639551639556885 0.204906299710273743 -0.0469371192157268524
-0.168133914470672607 0.0727867484092712402 0.232605144381523132
-0.0572428256273269653 -0.186375334858894348 0.0268965810537338257
-0.212388113141059875 0.291115134954452515 0.109260253608226776
0.24957883358001709 -0.0051221577450633049 0.0222529619932174683
-0.555561959743499756 0.204688385128974915 0.118566818535327911
-0.457107126712799072 0.21680884063243866 0.0247403215616941452
-0.462402015924453735 0.266838312149047852 -0.00250612059608101845
-0.575192391872406006 0.247910439968109131 -0.0761981084942817688
-0.389145046472549438 0.275510430335998535 -0.0839088186621665955
0.343743443489074707 -0.13442528247833252 0.318692564964294434
-0.498369008302688599 0.207199081778526306 -0.0113895293325185776
-0.345799028873443604 0.293204933404922485 -0.0499363914132118225
0.526023685932159424 -0.360777735710144043 0.04152660071849823
-0.539727330207824707 0.215445414185523987 0.201271474361419678
-0.569063663482666016 0.294664949178695679 -0.00290137599222362041
0.316528797149658203 0.0239833928644657135 0.0486188270151615143
0.482065290212631226 -0.306704670190811157 -0.303904503583908081
0.479713737964630127 -0.326029300689697266 0.125135049223899841
0.523248553276062012 -0.306731224060058594 -0.0989584028720855713
0.490420490503311157 -0.310473382472991943 -0.307665050029754639
0.516246795654296875 -0.324758589267730713 0.119589246809482574
0.444579720497131348 -0.299893677234649658 -0.290877491235733032
0.523265540599822998 -0.304282695055007935 -0.097621522843837738
0.134204044938087463 0.116640485823154449 0.337035506963729858
-0.64216768741607666 0.242886409163475037 -0.00920651759952306747
-0.292412877082824707 -0.113391607999801636 -0.105533666908740997
0.539269387722015381 -0.255233943462371826 0.0919290408492088318
0.129064217209815979 0.0978610143065452576 0.31731337308883667
-0.235043764114379883 -0.143056049942970276 -0.0712080821394920349
0.252391457557678223 0.0303442981094121933 -0.086046166718006134
0.531005442142486572 -0.322871565818786621 0.00657375482842326164
-0.599142909049987793 0.307612031698226929 0.10472194105386734
0.532121956348419189 -0.24440939724445343 0.0862820371985435486
-0.373876899480819702 -0.0603908821940422058 0.0924842804670333862
0.526614904403686523 -0.275051116943359375 -0.123503878712654114
-0.50095820426940918 0.149040326476097107 0.353217989206314087
0.385138422250747681 -0.297350645065307617 0.131633177399635315
0.132743030786514282 -0.331577301025390625 -0.100463442504405975
0.522805094718933105 -0.354587852954864502 -0.0151849901303648949
-0.436267435550689697 0.150904148817062378 -0.0847938582301139832
0.515793859958648682 -0.299842983484268188 0.0644496753811836243
0.39310261607170105 -0.367571264505386353 -0.213891997933387756
0.500531494617462158 -0.1712350994348526 0.129775434732437134
0.533273935317993164 -0.333738118410110474 0.0281325839459896088
-0.579710781574249268 0.349123984575271606 0.0405335687100887299
0.52002108097076416 -0.240645915269851685 -0.308968067169189453
-0.600813567638397217 0.370879024267196655 0.104894243180751801
-0.500459432601928711 0.14741186797618866 0.355422347784042358
0.23393598198890686 -0.277527749538421631 0.317272424697875977
-0.181198626756668091 -0.136576935648918152 -0.0554929971694946289
-0.228210762143135071 -0.137520313262939453 -0.053378615528345108
-0.204197615385055542 0.298712104558944702 0.126841798424720764
0.262492060661315918 -0.289347231388092041 0.32354813814163208
-0.362109661102294922 -0.03010515496134758 0.119699105620384216
-0.499897539615631104 0.0198166221380233765 0.0320889279246330261
0.242805495858192444 0.000355695810867473483 0.32216218113899231
0.141322940587997437 -0.290054649114608765 0.311671435832977295
0.308056771755218506 -0.207263678312301636 0.248031854629516602
-0.385972112417221069 0.255229473114013672 0.0345321297645568848
0.531137824058532715 -0.262021243572235107 0.10265813022851944
0.224018067121505737 0.0230044443160295486 0.305329829454421997
0.530625522136688232 -0.147125244140625 -0.308508157730102539
-0.644674539566040039 0.231678083539009094 -0.0472473651170730591
0.541319966316223145 -0.310672938823699951 -0.0447059646248817444
0.50785672664642334 -0.267461031675338745 -0.311743766069412231
0.514345407485961914 -0.31580546498298645 -0.295333147048950195
0.458879381418228149 -0.290576070547103882 -0.29681926965713501
-0.542903006076812744 0.268484205007553101 -0.18909589946269989
-0.621246039867401123 0.28925621509552002 0.0668990090489387512
0.36346396803855896 -0.383891433477401733 -0.20629294216632843
-0.0924546718597412109 0.267578810453414917 0.189421311020851135
-0.448251277208328247 0.131731361150741577 -0.208579182624816895
-0.575245022773742676 0.204136118292808533 -0.126847162842750549
-0.629880130290985107 0.192046836018562317 -0.0396764799952507019
-0.46955147385597229 0.139368981122970581 -0.2308788001537323
0.25762060284614563 -0.0167380273342132568 -0.0722437351942062378
0.230472862720489502 0.0541983246803283691 -0.0453017503023147583
0.113019987940788269 0.110072590410709381 0.301589429378509521
-0.583899557590484619 0.218748703598976135 -0.2212076336145401
-0.598028063774108887 0.235568240284919739 -0.0105527341365814209
-0.366842567920684814 -0.091250494122505188 0.12294711172580719
-0.329841107130050659 -0.124868422746658325 0.137381985783576965
-0.634410977363586426 0.199961677193641663 -0.0380926579236984253
-0.425501465797424316 -0.0544428415596485138 0.0993749648332595825
-0.477871119976043701 0.0205942187458276749 -0.0363611765205860138
0.208603233098983765 0.00888657663017511368 0.300717264413833618
-0.633997499942779541 0.248414576053619385 -0.00577848451212048531
-0.128004282712936401 0.270252227783203125 0.132313057780265808
0.271027594804763794 -0.329903632402420044 0.179953500628471375
0.533079206943511963 -0.209826335310935974 -0.0991393998265266418
-0.126372948288917542 -0.112165436148643494 -0.0547269582748413086
0.454179674386978149 -0.338536620140075684 -0.298328518867492676
-0.212496012449264526 0.0367076210677623749 -0.0595753081142902374
-0.55301588773727417 0.176158308982849121 0.012999294325709343
-0.198446124792098999 0.140075236558914185 0.0212327614426612854
-0.0125190857797861099 -0.102058649063110352 -0.0429309718310832977
0.264699339866638184 -0.274533331394195557 0.202299654483795166
0.34866216778755188 -0.320728331804275513 -0.000236248524743132293
-0.155876561999320984 0.0702441781759262085 0.0276048872619867325
-0.2490977942943573 0.13125908374786377 -0.0343250222504138947
0.199068382382392883 0.00203345040790736675 0.0189442727714776993
0.0763203427195549011 0.0812718793749809265 0.0238984152674674988
-0.283337444067001343 0.288717716932296753 -0.00580393662676215172
0.476962834596633911 -0.28946647047996521 -0.301987349987030029
-0.556710124015808105 0.266125530004501343 -0.017039276659488678
-0.237285688519477844 0.0981099680066108704 -0.0323451980948448181
0.137821316719055176 -0.280398547649383545 0.149993240833282471
0.296340048313140869 -0.29699435830116272 0.0567443594336509705
-0.285939633846282959 0.257699429988861084 0.000679005170240998268
-0.0210620183497667313 -0.0399146601557731628 0.0889977365732192993
0.204437777400016785 0.0431173592805862427 0.0655611753463745117
-0.143658816814422607 -0.0847000256180763245 0.0917625129222869873
0.37246975302696228 -0.0730549842119216919 0.0313205048441886902
0.521375536918640137 -0.198765307664871216 -0.0988299772143363953
0.487106531858444214 -0.297466695308685303 -0.305641293525695801
0.480436623096466064 -0.314493507146835327 0.122028537094593048
0.513623058795928955 -0.306841641664505005 -0.102705217897891998
0.496030241250991821 -0.3090972900390625 -0.310007035732269287
0.506177604198455811 -0.327476203441619873 -0.00441997498273849487
0.511746466159820557 -0.32419431209564209 0.118053846061229706
0.465889275074005127 -0.288365989923477173 -0.29684072732925415
0.437979578971862793 -0.263063520193099976 -0.194564282894134521
0.135011330246925354 0.117287427186965942 0.336950749158859253
0.39651450514793396 -0.244014263153076172 0.318522095680236816
-0.601482868194580078 0.35465201735496521 0.0657755434513092041
-0.505095422267913818 0.357558965682983398 0.178509101271629333
0.542649328708648682 -0.282179653644561768 0.0975990071892738342
0.256333380937576294 0.0373015552759170532 -0.0722499415278434753
-0.233118057250976562 0.156445294618606567 -0.0051862914115190506
0.506168007850646973 -0.331642806529998779 -0.00284230802208185196
0.44478529691696167 -0.249650523066520691 -0.228288710117340088
-0.63901054859161377 0.254889786243438721 0.0547848157584667206
0.532617330551147461 -0.262355297803878784 0.0929174274206161499
-0.393051773309707642 -0.0587659589946269989 0.100548744201660156
0.523926258087158203 -0.289310544729232788 -0.0924062281847000122
0.0279881097376346588 -0.273654967546463013 -0.0353242568671703339
0.385104000568389893 -0.305683344602584839 0.118558451533317566
-0.582171320915222168 0.367188245058059692 0.131950676441192627
0.24009336531162262 0.00330691388808190823 0.180948033928871155
-0.11308007687330246 0.16590408980846405 0.347569048404693604
0.482184231281280518 -0.368003129959106445 -0.0223541874438524246
0.412209004163742065 -0.320784449577331543 -0.211286306381225586
0.507255077362060547 -0.155200377106666565 0.123687803745269775
0.528825759887695312 -0.334370791912078857 0.0125067643821239471
-0.584110796451568604 0.336807131767272949 0.0343558080494403839
-0.590744912624359131 0.382283240556716919 0.13151220977306366
0.526316165924072266 -0.24400503933429718 -0.310943454504013062
0.474432706832885742 -0.290387660264968872 -0.299739927053451538
-0.597212612628936768 0.354059278964996338 0.169904083013534546
-0.587334930896759033 0.3718222975730896 0.10136326402425766
-0.212033584713935852 -0.129037052392959595 -0.0576061643660068512
0.234266519546508789 -0.292616546154022217 0.314842075109481812
0.237913638353347778 0.067489132285118103 0.31991150975227356
0.541876554489135742 -0.313511013984680176 -0.058426201343536377
-0.444641351699829102 -0.0479083694517612457 0.127215951681137085
0.359502941370010376 -0.387966066598892212 -0.209234103560447693
-0.556526780128479004 0.211602583527565002 -0.113420441746711731
0.520832538604736328 -0.27921256422996521 -0.177418917417526245
0.241775527596473694 0.0351345986127853394 0.314388036727905273
0.242636725306510925 0.000865828944370150566 0.0234870035201311111
0.380568832159042358 0.0392543114721775055 0.0116430167108774185
0.526786625385284424 -0.230304330587387085 -0.310452312231063843
0.326863735914230347 0.0966325551271438599 -0.0361339151859283447
-0.3741721510887146 -0.0597379244863986969 -0.132759749889373779
0.512884140014648438 -0.167201250791549683 0.135579884052276611
-0.574487686157226562 0.322412252426147461 0.0497184358537197113
-0.558995604515075684 0.283759564161300659 0.364304214715957642
0.224311515688896179 0.0324115417897701263 -0.0583496987819671631
-0.574286103248596191 0.215068772435188293 -0.220843791961669922
-0.0444035343825817108 0.157067641615867615 0.0812229141592979431
0.113944686949253082 0.110537290573120117 0.0253714825958013535
0.342683464288711548 -0.246588766574859619 -0.0971051231026649475
-0.285125166177749634 0.300915509462356567 -0.00268815271556377411
0.153176695108413696 -0.00390912545844912529 -0.00367569061927497387
0.0689130872488021851 0.139320686459541321 0.0756098628044128418
-0.270119577646255493 0.280669152736663818 0.00182750134263187647
0.503365695476531982 -0.292258352041244507 -0.159652963280677795
0.136848375201225281 -0.0253323167562484741 0.0130220651626586914
-0.339014559984207153 -0.0314738340675830841 0.0229148678481578827
0.37328532338142395 -0.0914505943655967712 0.0440322645008563995
0.199766144156455994 0.101720631122589111 -0.00196683709509670734
-0.297270387411117554 -0.0245091971009969711 0.0360378213226795197
0.131657510995864868 -0.0173198170959949493 -0.0261774007230997086
0.101251162588596344 0.01653246209025383 0.0911457836627960205
0.175519078969955444 0.119832821190357208 0.037906792014837265
-0.230531901121139526 -0.0631506294012069702 0.104725569486618042
0.486090749502182007 -0.296329796314239502 -0.303870409727096558
-0.603184759616851807 0.289878278970718384 0.185347810387611389
0.467153340578079224 -0.308371663093566895 0.119789175689220428
0.378138363361358643 -0.0140653364360332489 0.00612705806270241737
0.514372050762176514 -0.294977277517318726 -0.103798724710941315
0.518853724002838135 -0.23939397931098938 -0.307949870824813843
0.477922230958938599 -0.309393823146820068 -0.300619810819625854
0.483393847942352295 -0.274182438850402832 -0.300256252288818359
0.117065936326980591 0.119195379316806793 0.297531604766845703
-0.584187984466552734 0.356721371412277222 0.0659947395324707031
0.383655577898025513 -0.336962699890136719 0.125255793333053589
-0.574457228183746338 0.318084478378295898 -0.0263676140457391739
-0.604413330554962158 0.217548400163650513 -0.0867178589105606079
0.26760566234588623 0.0396981462836265564 -0.086452871561050415
-0.356359928846359253 -0.0216503627598285675 -0.131050184369087219
-0.564269423484802246 0.314716726541519165 -0.00772720342501997948
0.190583080053329468 -0.340370446443557739 -0.0749039351940155029
0.404132962226867676 -0.357267767190933228 -0.224333390593528748
-0.500208020210266113 0.145996496081352234 0.354766130447387695
0.509557485580444336 -0.151160672307014465 0.114659138023853302
0.496857613325119019 -0.263592690229415894 -0.304738640785217285
0.457968235015869141 -0.280539065599441528 -0.290085345506668091
0.440919399261474609 -0.264617562294006348 -0.284030139446258545
-0.588003814220428467 0.357825249433517456 0.0619091503322124481
0.505154669284820557 -0.126481831073760986 0.124078668653964996
-0.206296652555465698 0.312875360250473022 0.108831621706485748
0.268080413341522217 -0.283664077520370483 0.319002449512481689
0.232402846217155457 0.00390020245686173439 0.317693233489990234
0.513253211975097656 -0.175340980291366577 -0.282120227813720703
-0.115273110568523407 0.0103800203651189804 0.00593573087826371193
0.403864592313766479 -0.359296321868896484 -0.224956557154655457
0.417548507452011108 -0.312913000583648682 0.143493473529815674
-0.555484354496002197 0.376825273036956787 0.186969444155693054
-0.175723850727081299 0.309543371200561523 0.118502266705036163
-0.389741092920303345 0.276482254266738892 -0.0849095284938812256
0.365124315023422241 0.05219317227602005 0.0243562664836645126
0.129037290811538696 0.116082683205604553 0.318751931190490723
-0.286451905965805054 -0.100052796304225922 -0.0919835716485977173
0.257978826761245728 0.101324751973152161 -0.0622186921536922455
-0.361187666654586792 -0.0592946372926235199 -0.144025623798370361
0.133989974856376648 0.11403936892747879 0.337694913148880005
-0.563052237033843994 0.199732095003128052 -0.228824317455291748
-0.276450961828231812 0.288442790508270264 -0.000803538598120212555
0.454877346754074097 -0.246111929416656494 -0.28862607479095459
0.460232049226760864 -0.275071203708648682 -0.291153609752655029
-0.634837985038757324 0.30849909782409668 0.170559287071228027
0.512490451335906982 -0.31714099645614624 -0.0388913340866565704
0.468938171863555908 -0.265471398830413818 -0.298284292221069336
0.478160172700881958 -0.294688820838928223 -0.300563693046569824
0.458135694265365601 -0.245896026492118835 -0.290199071168899536
0.38109096884727478 -0.36062660813331604 -0.214135140180587769
-0.47934424877166748 -0.0120940776541829109 0.185982942581176758
-0.516464829444885254 0.366127729415893555 0.174215659499168396
-0.618493020534515381 0.202440500259399414 -0.0869802758097648621
-0.237277120351791382 0.0193121563643217087 -0.0724671557545661926
-0.382511824369430542 -0.0585332512855529785 0.0238090101629495621
0.474856853485107422 -0.367997139692306519 0.0215174350887537003
-0.649225234985351562 0.237137243151664734 0.0324134193360805511
0.412562072277069092 -0.346368908882141113 -0.221934780478477478
0.526064872741699219 -0.336813092231750488 0.0797556117177009583
0.506043672561645508 -0.238693401217460632 -0.308408260345458984
0.249434694647789001 -0.281839638948440552 0.31807100772857666
0.239067837595939636 0.0669196248054504395 0.314455270767211914
0.539597272872924805 -0.301508188247680664 -0.0939852520823478699
-0.44779670238494873 -0.0409134291112422943 0.126650437712669373
-0.0439414083957672119 0.104888930916786194 0.317805469036102295
0.247832715511322021 0.021376458927989006 0.322013795375823975
-0.284776508808135986 -0.099186532199382782 -0.0990006327629089355
-0.137768656015396118 -0.0146099207922816277 -0.0487653836607933044
-0.277906030416488647 0.338282376527786255 0.047108285129070282
-0.254744350910186768 0.290339201688766479 -0.00312990439124405384
-0.218952968716621399 0.322301596403121948 0.069940321147441864
-0.573192775249481201 0.152692645788192749 -0.0743042305111885071
-0.289975941181182861 0.293141812086105347 0.0161501392722129822
0.52563941478729248 -0.320327609777450562 0.026867380365729332
0.346010357141494751 -0.0301334429532289505 -0.0347181186079978943
0.52225029468536377 -0.36256977915763855 0.0890942364931106567
-0.0833440572023391724 -0.111345700919628143 0.0784840807318687439
-0.40398213267326355 0.326451033353805542 0.121354885399341583
0.504767715930938721 -0.366729825735092163 -0.00478556146845221519
-0.118786677718162537 0.266506612300872803 0.120997816324234009
0.518732666969299316 -0.34261631965637207 0.0355415493249893188
0.130175530910491943 -0.334204047918319702 0.301147043704986572
0.466605722904205322 -0.31071355938911438 0.0721700489521026611
0.482858151197433472 -0.373654812574386597 0.0520388036966323853
0.421004801988601685 -0.0257209613919258118 0.0645750239491462708
0.494158327579498291 -0.363189399242401123 -0.0158314593136310577
-0.233002170920372009 0.287575125694274902 0.0842220038175582886
0.531240999698638916 -0.331422924995422363 -0.00753386830911040306
-0.271986544132232666 0.315810799598693848 0.114059075713157654
0.308120161294937134 0.00295156938955187798 0.0460761599242687225
0.467418938875198364 -0.263079822063446045 -0.296355217695236206
0.473801761865615845 -0.303995460271835327 0.113937705755233765
0.511193573474884033 -0.313303977251052856 -0.104692637920379639
0.509194314479827881 -0.245041117072105408 -0.308726698160171509
0.44794154167175293 -0.292167633771896362 -0.293033212423324585
0.466391116380691528 -0.282936841249465942 -0.297564983367919922
0.138221845030784607 0.113156624138355255 0.336631864309310913
-0.652078032493591309 0.286070197820663452 0.0982093140482902527
-0.638251900672912598 0.245223626494407654 -0.0380037799477577209
0.13620440661907196 0.0696466341614723206 0.337754428386688232
-0.577051281929016113 0.304210305213928223 -0.055363137274980545
0.262382417917251587 0.0308767054229974747 -0.0736585110425949097
0.541955232620239258 -0.216420173645019531 0.111234590411186218
-0.359987318515777588 -0.0352883338928222656 -0.134229406714439392
-0.574698209762573242 0.327888518571853638 -0.0293742530047893524
-0.361689269542694092 -0.0704579278826713562 -0.0339021161198616028
-0.130564898252487183 -0.267087578773498535 0.119073197245597839
0.495128601789474487 -0.36548498272895813 -0.000669538567308336496
0.373779207468032837 -0.359022796154022217 -0.210297614336013794
-0.378303289413452148 -0.106434784829616547 0.101377002894878387
-0.0671472251415252686 -0.263579577207565308 0.296450227499008179
0.519878625869750977 -0.242996349930763245 -0.309748589992523193
0.509462118148803711 -0.330227673053741455 0.0149674508720636368
-0.593316435813903809 0.36935850977897644 0.120771601796150208
-0.655292212963104248 0.176082804799079895 -0.102817349135875702
-0.222969785332679749 -0.143668994307518005 -0.0536862239241600037
-0.191295132040977478 0.317056268453598022 0.100785471498966217
0.256538569927215576 -0.283133119344711304 0.319500505924224854
0.23904089629650116 0.0325657911598682404 0.318926483392715454
-0.120135650038719177 -0.0456366539001464844 0.00732551142573356628
-0.641516745090484619 0.309019118547439575 0.102062448859214783
0.364661037921905518 -0.373563557863235474 -0.207208216190338135
0.537738323211669922 -0.217446267604827881 0.161518082022666931
-0.552708089351654053 0.382843077182769775 0.158151417970657349
-0.122568123042583466 0.259726673364639282 0.115131355822086334
0.119303703308105469 0.102876119315624237 0.0893272906541824341
-0.375412523746490479 0.266329407691955566 -0.0894528254866600037
0.516878783702850342 -0.348722875118255615 0.0984599292278289795
-0.293447285890579224 -0.106670409440994263 -0.109244398772716522
0.274892687797546387 0.103372715413570404 -0.057870037853717804
-0.575021803379058838 0.219975724816322327 -0.212437659502029419
-0.115611061453819275 0.268995583057403564 0.179808706045150757
0.235890835523605347 -0.28760334849357605 0.314200490713119507
0.310044914484024048 -0.187000557780265808 0.240790918469429016
0.541777133941650391 -0.325509518384933472 -0.0212332550436258316
0.0788661912083625793 -0.33727794885635376 0.282124191522598267
-0.0064619285985827446 -0.171394377946853638 0.00422226451337337494
-0.282264411449432373 0.262201994657516479 0.0071158483624458313
0.513128101825714111 -0.236766338348388672 -0.309744328260421753
-0.64687657356262207 0.278645724058151245 0.0797357931733131409
-0.646227002143859863 0.18359510600566864 -0.0906677320599555969
0.514098286628723145 -0.322189390659332275 0.0239758547395467758
-0.406861782073974609 -0.0631653293967247009 0.11359599232673645
0.516827940940856934 -0.355370879173278809 -0.020929558202624321
-0.566520512104034424 0.37471383810043335 0.15266166627407074
0.235794931650161743 0.0433796532452106476 0.313475817441940308
-0.664744257926940918 0.22753472626209259 0.0232983101159334183
-0.448005408048629761 -0.0380159467458724976 0.127159655094146729
0.503007948398590088 -0.301937907934188843 -0.17918066680431366
-0.589063525199890137 0.361425846815109253 0.086276322603225708
-0.194136053323745728 0.31533011794090271 0.104902490973472595
0.246816501021385193 0.0242801997810602188 0.323608368635177612
0.530925095081329346 -0.323472142219543457 -0.0583925023674964905
-0.182889565825462341 0.307427853345870972 0.1285085529088974
0.247064292430877686 0.00735589349642395973 0.323740065097808838
0.058538876473903656 0.140054449439048767 0.345640033483505249
-0.505632281303405762 0.14979436993598938 0.356969535350799561
0.270599633455276489 -0.310879111289978027 0.326038390398025513
-0.25370296835899353 0.0240516494959592819 -0.0706760510802268982
0.240941181778907776 -0.294917404651641846 0.322300583124160767
0.248847633600234985 0.0441602915525436401 0.314195752143859863
0.468324422836303711 -0.101639442145824432 0.0342886224389076233
-0.124825604259967804 0.195550590753555298 0.115392692387104034
0.239834785461425781 -0.326228946447372437 0.317755043506622314
0.500228047370910645 -0.366260319948196411 0.0743403732776641846
0.523431956768035889 -0.324393957853317261 0.0258919764310121536
0.444558262825012207 -0.252972215414047241 0.332051515579223633
0.321419686079025269 -0.13107725977897644 -0.106916628777980804
0.0632412508130073547 -0.010351237840950489 0.321587353944778442
0.511289298534393311 -0.360562145709991455 0.0472005307674407959
0.135579332709312439 -0.100271277129650116 0.0403843671083450317
0.0494440570473670959 0.0119860982522368431 0.02962447889149189
0.0207049734890460968 0.0486764796078205109 0.0425033681094646454
0.0880047902464866638 -0.0656664147973060608 0.289508223533630371
-0.162092819809913635 -0.265176534652709961 0.14796823263168335
0.264832198619842529 -0.0197985582053661346 0.0613066293299198151
-0.0290095638483762741 -0.0286100637167692184 0.295492887496948242
0.502194344997406006 -0.240009203553199768 -0.302326679229736328
0.475958317518234253 -0.314625859260559082 -0.302252233028411865
-0.630818307399749756 0.306650936603546143 0.167542994022369385
0.475443392992019653 -0.320507079362869263 0.120705731213092804
0.509103536605834961 -0.300531476736068726 -0.105855971574783325
0.528254032135009766 -0.274589031934738159 -0.317503422498703003
0.493576496839523315 -0.332095861434936523 -0.311004519462585449
0.503501176834106445 -0.319829374551773071 0.0976930037140846252
0.474206149578094482 -0.305459856986999512 -0.298408359289169312
-0.559231042861938477 0.268419593572616577 0.364628016948699951
0.124901361763477325 0.117216140031814575 0.31405600905418396
-0.633464694023132324 0.282625705003738403 0.0544691421091556549
-0.587252140045166016 0.363176554441452026 0.102613247931003571
0.371502190828323364 -0.373717755079269409 -0.212988182902336121
0.438421547412872314 -0.347670584917068481 0.154049932956695557
0.058024432510137558 0.121686682105064392 0.321015864610671997
-0.574465751647949219 0.369172275066375732 0.215711832046508789
0.264639317989349365 0.0249814596027135849 -0.0588638372719287872
0.368737727403640747 -0.336472600698471069 0.160360932350158691
0.510547280311584473 -0.301250815391540527 -0.112304359674453735
0.133632823824882507 -0.320201516151428223 -0.0978853404521942139
0.516605675220489502 -0.348496854305267334 -0.0205868445336818695
0.389301657676696777 -0.346451431512832642 -0.2143545001745224
-0.576910674571990967 0.319475263357162476 0.0409761294722557068
0.536073863506317139 -0.277561008930206299 -0.320907771587371826
0.467913806438446045 -0.3105945885181427 -0.299540460109710693
0.507217466831207275 -0.346836447715759277 0.0176329798996448517
-0.55580824613571167 0.310113608837127686 0.10242760181427002
0.193889573216438293 -0.338990151882171631 -0.0593165159225463867
0.0701363459229469299 -0.281821757555007935 -0.0779681950807571411
0.25240856409072876 -0.249994724988937378 0.31996464729309082
0.239835113286972046 0.0312081687152385712 0.316703826189041138
-0.120996147394180298 -0.0474351048469543457 0.00817988347262144089
0.178718268871307373 -0.0998426824808120728 -0.0149543434381484985
0.532503902912139893 -0.332029283046722412 -0.0134725114330649376
0.370369493961334229 -0.349171876907348633 -0.209125295281410217
0.534995675086975098 -0.245604828000068665 0.176936075091362
0.561212897300720215 -0.315518110990524292 -0.331236571073532104
0.554573416709899902 -0.211490213871002197 0.133582338690757751
-0.543172657489776611 0.38114592432975769 0.164686307311058044
0.122803062200546265 0.117525823414325714 0.13299773633480072
-0.582133829593658447 0.352302044630050659 0.0980017483234405518
-0.481445491313934326 0.186407148838043213 -0.0913533344864845276
0.515671789646148682 -0.338913917541503906 0.0385346561670303345
0.253419011831283569 -0.278908669948577881 0.321786701679229736
0.278530031442642212 -0.355642348527908325 -0.126250460743904114
0.507973074913024902 -0.286366522312164307 -0.313971817493438721
-0.431992173194885254 -0.0568488016724586487 0.116831690073013306
0.201889663934707642 0.0907803326845169067 0.223185896873474121
0.244235038757324219 0.104879945516586304 -0.0574184246361255646
-0.195672035217285156 0.20187707245349884 0.34931907057762146
0.250398457050323486 0.0251661352813243866 0.32313045859336853
0.239756688475608826 0.0192628186196088791 0.320828795433044434
-0.0314583219587802887 0.16302846372127533 0.382627397775650024
-0.482342720031738281 -0.0153088010847568512 0.180336743593215942
0.483857899904251099 -0.368823856115341187 0.0457926355302333832
-0.643399596214294434 0.287456601858139038 0.0864518210291862488
0.275956541299819946 -0.16553904116153717 -0.0706893280148506165
-0.411659419536590576 -0.0565127842128276825 0.0790425688028335571
-0.642883956432342529 0.176063448190689087 -0.081755027174949646
-0.225810453295707703 -0.133564695715904236 -0.0521438941359519958
0.254921168088912964 -0.265324681997299194 0.320946455001831055
-0.345187515020370483 0.017701001837849617 -0.116781271994113922
-0.286970734596252441 -0.0911797657608985901 -0.106410674750804901
-0.584917902946472168 0.21018633246421814 -0.217742308974266052
0.267580747604370117 -0.296778619289398193 0.315018296241760254
-0.0255409982055425644 -0.186934888362884521 -0.0434643849730491638
-0.617945492267608643 0.277273416519165039 0.0316455066204071045
-0.608727574348449707 0.298581361770629883 0.0927146747708320618
-0.397408157587051392 -0.0625174492597579956 0.119011618196964264
-0.451540559530258179 -0.0378450118005275726 0.119646176695823669
0.431133389472961426 -0.271593272686004639 0.328934758901596069
-0.0524440072476863861 0.141137182712554932 0.0917196944355964661
-0.502899110317230225 0.151419401168823242 0.355583816766738892
0.240795627236366272 -0.319056183099746704 0.322652071714401245
0.497240930795669556 -0.370646864175796509 0.0571061447262763977
0.399316400289535522 -0.256710529327392578 0.32222449779510498
-0.158250942826271057 -0.263168156147003174 0.181599512696266174
-0.49901697039604187 0.0143349040299654007 0.158270329236984253
0.417610824108123779 -0.297210484743118286 0.328492879867553711
0.535430490970611572 -0.340018391609191895 -0.0187018122524023056
0.344346612691879272 -0.267189621925354004 -0.128057658672332764
-0.496332436800003052 0.0722869634628295898 0.204160243272781372
0.443680614233016968 -0.272040724754333496 0.3331565260887146
0.522154390811920166 -0.335229188203811646 0.0325355380773544312
0.453470915555953979 -0.319725841283798218 -0.293274998664855957
0.474323123693466187 -0.311521530151367188 0.116442956030368805
0.517355024814605713 -0.278257429599761963 -0.313086003065109253
0.502789914608001709 -0.325782686471939087 -0.31457287073135376
0.518230199813842773 -0.326955080032348633 0.101653240621089935
0.479437142610549927 -0.311262398958206177 -0.302424401044845581
0.114496804773807526 0.118828311562538147 0.288922607898712158
-0.121920935809612274 0.268942445516586304 0.158829182386398315
-0.614696800708770752 0.265747815370559692 0.0523434542119503021
-0.479224950075149536 0.00336119625717401505 0.181513950228691101
0.426752924919128418 -0.354858368635177612 0.158336713910102844
-0.292144119739532471 -0.110253825783729553 -0.105669975280761719
0.130452483892440796 0.0657290369272232056 0.321123093366622925
0.253707021474838257 0.0389116853475570679 -0.0779685825109481812
0.235459670424461365 0.0941068530082702637 -0.0532370321452617645
0.417776703834533691 -0.261382162570953369 -0.202584415674209595
0.521819591522216797 -0.354495495557785034 -0.0197134856134653091
-0.608766317367553711 0.381345868110656738 0.18148958683013916
0.517706394195556641 -0.279158085584640503 -0.315008223056793213
0.49923667311668396 -0.349845737218856812 0.0238274335861206055
-0.587736129760742188 0.36954769492149353 0.113296933472156525
0.506041526794433594 -0.104608207941055298 0.146977916359901428
-0.197995200753211975 0.311863899230957031 0.113019324839115143
0.264028847217559814 -0.286367624998092651 0.319608718156814575
0.236865207552909851 0.0623180195689201355 0.31036713719367981
-0.144426032900810242 -0.0431724749505519867 0.004254109226167202
-0.657643496990203857 0.214954927563667297 -0.0459171198308467865
-0.288445889949798584 -0.0756400823593139648 -0.0685096234083175659
0.227221503853797913 0.042390875518321991 -0.0483064800500869751
0.55163651704788208 -0.144373893737792969 0.131721794605255127
0.519877254962921143 -0.29522666335105896 0.0746211633086204529
0.517721235752105713 -0.283917009830474854 -0.181449040770530701
-0.357918292284011841 -0.0167756024748086929 -0.0278110392391681671
0.0914122536778450012 0.0884656310081481934 0.0856990069150924683
0.466752082109451294 -0.361738294363021851 -0.0109106721356511116
-0.432800650596618652 0.158068090677261353 -0.0662978813052177429
0.523913860321044922 -0.335500627756118774 0.0686328411102294922
0.262888491153717041 -0.285736113786697388 0.318332582712173462
0.00937550608068704605 -0.0906966552138328552 -0.0261173397302627563
0.0325511768460273743 -0.130101978778839111 0.0218425318598747253
-0.630605161190032959 0.265258610248565674 0.0293096881359815598
0.2420693039894104 0.0744843035936355591 0.318631619215011597
0.240143135190010071 0.0297327190637588501 0.318716913461685181
-0.174795642495155334 0.301141589879989624 0.116386502981185913
0.304602354764938354 -0.151153311133384705 0.307592451572418213
0.26192319393157959 -0.290535837411880493 0.32081913948059082
-0.476056128740310669 -0.00790571514517068863 0.166389226913452148
0.24270319938659668 0.0819221436977386475 0.311989337205886841
0.520334124565124512 -0.351151317358016968 0.0816698148846626282
-0.0348949581384658813 -0.237288519740104675 0.124079234898090363
-0.63821566104888916 0.290238112211227417 0.0990761443972587585
-0.234121739864349365 -0.132537037134170532 -0.0579267740249633789
-0.379150718450546265 -0.108516864478588104 0.105645366013050079
-0.236327901482582092 -0.147558048367500305 -0.0577750988304615021
-0.657857120037078857 0.214647457003593445 -0.03362317755818367
0.528977632522583008 -0.35248449444770813 0.0776106566190719604
-0.621053993701934814 0.270520955324172974 0.0527415759861469269
-0.40402531623840332 -0.064061090350151062 0.112189203500747681
-0.446201324462890625 -0.0412312112748622894 0.122147507965564728
0.267991960048675537 -0.285431444644927979 0.323290169239044189
0.127593845129013062 -0.326364219188690186 0.312480270862579346
0.152252018451690674 -0.342859864234924316 0.317741662263870239
0.447797536849975586 -0.335483372211456299 -0.293243587017059326
0.515852451324462891 -0.302829861640930176 -0.10822586715221405
0.515326857566833496 -0.280128717422485352 -0.313103795051574707
0.484949946403503418 -0.32754555344581604 -0.310051441192626953
0.464418947696685791 -0.345749706029891968 -0.302919358015060425
0.549694180488586426 -0.210104614496231079 -0.316272109746932983
0.524197161197662354 -0.299916833639144897 -0.322751998901367188
0.51806032657623291 -0.300726383924484253 -0.318647444248199463
0.246790513396263123 0.0572028607130050659 0.316222846508026123
0.241271615028381348 0.0876759514212608337 0.312557518482208252
-0.291593283414840698 -0.100256361067295074 -0.101800352334976196
-0.453455179929733276 -0.0517126582562923431 0.117245189845561981
0.404789179563522339 -0.272128403186798096 0.322267591953277588
-0.502273201942443848 0.00402807211503386497 0.189311385154724121
0.401080548763275146 -0.287101805210113525 0.324586838483810425
0.399227678775787354 -0.273422300815582275 0.323065787553787231
0.342230916023254395 -0.258791238069534302 0.0898878797888755798
-0.0188039280474185944 -0.244083195924758911 0.128644958138465881
-0.464389175176620483 0.0362495630979537964 0.189712569117546082
-0.194397881627082825 0.221880361437797546 0.172116845846176147
0.366865426301956177 -0.329092442989349365 -0.023727690801024437
0.323432594537734985 -0.389901876449584961 -0.159064233303070068
0.535520374774932861 -0.323480576276779175 -0.0584948733448982239
-0.441648542881011963 -0.00445710215717554092 0.152853772044181824
-0.0191728062927722931 -0.0592397153377532959 0.141718789935112
-0.000253310456173494458 -0.235820412635803223 0.106361009180545807
0.526286303997039795 -0.201659068465232849 -0.080319620668888092
0.449856847524642944 -0.30816960334777832 -0.293133676052093506
0.526925623416900635 -0.275291174650192261 -0.315958082675933838
0.499984234571456909 -0.324731945991516113 -0.312942415475845337
0.475286424160003662 -0.30488961935043335 -0.297661662101745605
-0.12748350203037262 0.246914669871330261 0.139014661312103271
-0.648919880390167236 0.282254517078399658 0.0944666489958763123
-0.198967546224594116 0.286901295185089111 0.33594927191734314
0.498016804456710815 -0.0866190642118453979 0.13634897768497467
0.20074927806854248 -0.358911842107772827 -0.0909391120076179504
0.505487442016601562 -0.36751517653465271 -0.0229661408811807632
0.527310490608215332 -0.242549881339073181 0.172641932964324951
-0.58588719367980957 0.379569381475448608 0.170876830816268921
0.44507172703742981 -0.314761191606521606 -0.28800550103187561
0.498600751161575317 -0.110979460179805756 0.111862689256668091
-0.655670762062072754 0.175766974687576294 -0.10351436585187912
-0.201966449618339539 0.309066206216812134 0.0892394483089447021
0.20122547447681427 -0.0134055614471435547 0.295106828212738037
0.159989297389984131 -0.0619069598615169525 -0.0441643521189689636
-0.579462885856628418 0.302450597286224365 0.368845909833908081
0.274985253810882568 0.0986012443900108337 -0.0293001625686883926
-0.435167014598846436 0.155772283673286438 -0.085817679762840271
0.534528195858001709 -0.332886606454849243 0.0124677009880542755
-0.568630874156951904 0.19764593243598938 -0.228832736611366272
-0.497500479221343994 0.0453425608575344086 -0.0866279006004333496
0.0314047224819660187 -0.10370972752571106 0.032995026558637619
0.534179985523223877 -0.264332383871078491 -0.316606283187866211
0.00973374396562576294 0.197965964674949646 0.0275849513709545135
0.302109986543655396 0.0391069985926151276 -0.084670722484588623
-0.332023531198501587 -0.0156150013208389282 -0.107551217079162598
0.236418023705482483 0.014621310867369175 0.321635901927947998
0.124992527067661285 0.0132198231294751167 0.298856586217880249
0.527597010135650635 -0.355001300573348999 0.0660595595836639404
0.467162609100341797 -0.309662073850631714 -0.233382582664489746
-0.651900172233581543 0.285591870546340942 0.104572877287864685
0.546655416488647461 -0.219832852482795715 0.163192793726921082
0.528127431869506836 -0.323211193084716797 -0.0163173787295818329
-0.38284534215927124 -0.056046217679977417 0.0763647928833961487
0.456981003284454346 -0.31065252423286438 -0.292833656072616577
0.505062878131866455 -0.339654862880706787 -0.318177372217178345
0.47890549898147583 -0.314137876033782959 -0.299782902002334595
0.520468771457672119 -0.301131725311279297 -0.317612320184707642
-0.00223597954027354717 -0.139668926596641541 -0.0247890409082174301
0.397561103105545044 -0.272980093955993652 0.323241621255874634
0.40123295783996582 -0.271408438682556152 0.323544770479202271
0.506168603897094727 -0.331810295581817627 0.105584271252155304
-0.467385739088058472 0.0427881516516208649 0.170829936861991882
0.410077869892120361 -0.34567597508430481 0.156363397836685181
-0.360597550868988037 -0.0348967686295509338 -0.147930920124053955
-0.128098964691162109 -0.267325818538665771 0.112436294555664062
0.512708008289337158 -0.36885407567024231 -0.0149126546457409859
