ply
format ascii 1.0
element vertex 738
property float x
property float y
property float z
end_header
0.0696318000555038452 -0.282555252313613892 -0.0778818875551223755
0.252312034368515015 -0.250321656465530396 0.320238709449768066
0.239920035004615784 0.0311314444988965988 0.317025899887084961
-0.121706210076808929 -0.0479621700942516327 0.00814983341842889786
0.178585588932037354 -0.100251711905002594 -0.014659559354186058
0.532276034355163574 -0.332393825054168701 -0.0129929874092340469
0.370125472545623779 -0.349779039621353149 -0.208767160773277283
0.534872472286224365 -0.245819896459579468 0.17745797336101532
0.560849785804748535 -0.316054791212081909 -0.330849111080169678
0.554454445838928223 -0.21168556809425354 0.134124770760536194
-0.544125854969024658 0.381022423505783081 0.164239659905433655
0.122775629162788391 0.117361240088939667 0.133231505751609802
-0.583095133304595947 0.352141052484512329 0.0975209996104240417
-0.48252907395362854 0.185892611742019653 -0.091700233519077301
0.515478134155273438 -0.339265376329421997 0.0390148423612117767
0.25330883264541626 -0.279260814189910889 0.322051256895065308
0.278278231620788574 -0.356267213821411133 -0.125954106450080872
0.507661819458007812 -0.286919832229614258 -0.313560366630554199
-0.433097541332244873 -0.057410169392824173 0.1165633425116539
0.201979547739028931 0.0906861573457717896 0.223494857549667358
0.244307085871696472 0.104640752077102661 -0.0570439249277114868
-0.196319565176963806 0.201709598302841187 0.349229395389556885
0.250490069389343262 0.0250943806022405624 0.323461145162582397
0.239834845066070557 0.0191786158829927444 0.321148514747619629
-0.0317905619740486145 0.162920400500297546 0.382648617029190063
-0.483464658260345459 -0.0157828517258167267 0.180016994476318359
0.483675271272659302 -0.369206398725509644 0.0462553054094314575
-0.644374430179595947 0.287271052598953247 0.0859450921416282654
0.275835603475570679 -0.165990114212036133 -0.0703151002526283264
-0.412760436534881592 -0.0570996552705764771 0.0787920951843261719
-0.643963515758514404 0.175665348768234253 -0.0822385773062705994
-0.226796701550483704 -0.134306758642196655 -0.0522664822638034821
0.254818975925445557 -0.265663594007492065 0.321217805147171021
-0.346276700496673584 0.0170392915606498718 -0.116998486220836639
-0.288067460060119629 -0.0919482782483100891 -0.106569543480873108
-0.586038827896118164 0.209710761904716492 -0.218200251460075378
0.267473757266998291 -0.297138512134552002 0.315295010805130005
-0.0261764060705900192 -0.187615618109703064 -0.0434439033269882202
-0.618940412998199463 0.277021586894989014 0.0311651453375816345
-0.609698474407196045 0.298383563756942749 0.0922371000051498413
-0.398489177227020264 -0.0630866289138793945 0.118778102099895477
-0.452648431062698364 -0.0383807234466075897 0.119356773793697357
0.431054055690765381 -0.271823883056640625 0.329366475343704224
-0.0528388544917106628 0.140879184007644653 0.0917672216892242432
-0.503901422023773193 0.151177540421485901 0.35526314377784729
0.240652963519096375 -0.319452255964279175 0.322887152433395386
0.497053205966949463 -0.371018409729003906 0.0575723908841609955
0.399256110191345215 -0.25694236159324646 0.322641164064407349
-0.159077972173690796 -0.263863533735275269 0.18152986466884613
-0.500115454196929932 0.0138866500928997993 0.157929450273513794
0.417524248361587524 -0.297472357749938965 0.328904807567596436
0.535193502902984619 -0.340388745069503784 -0.0182261895388364792
0.344163686037063599 -0.267710208892822266 -0.127667263150215149
-0.49739307165145874 0.0719054564833641052 0.203825503587722778
0.443595230579376221 -0.272265344858169556 0.333595514297485352
0.521955013275146484 -0.335577845573425293 0.0330179408192634583
0.453182339668273926 -0.320321142673492432 -0.292884469032287598
0.47420617938041687 -0.311839103698730469 0.116928726434707642
0.517042458057403564 -0.278798431158065796 -0.312670111656188965
0.502464532852172852 -0.326358050107955933 -0.314183294773101807
0.518066167831420898 -0.327269822359085083 0.102142296731472015
0.479135125875473022 -0.311842858791351318 -0.302023619413375854
0.114446520805358887 0.118723452091217041 0.289114952087402344
-0.122427895665168762 0.268793761730194092 0.158792763948440552
-0.615687549114227295 0.265498042106628418 0.0518698804080486298
-0.480356067419052124 0.00290222722105681896 0.181198135018348694
0.426640093326568604 -0.355220824480056763 0.158772915601730347
-0.293245285749435425 -0.111040838062763214 -0.105842776596546173
0.130403280258178711 0.0656083598732948303 0.321323364973068237
0.253739625215530396 0.0386166572570800781 -0.0775898396968841553
0.235518231987953186 0.0938597172498703003 -0.0528716817498207092
0.417564034461975098 -0.261903077363967896 -0.202156335115432739
0.521584451198577881 -0.35488167405128479 -0.0192456282675266266
-0.609725117683410645 0.381252586841583252 0.180991828441619873
0.517392396926879883 -0.27970045804977417 -0.31459355354309082
0.499043166637420654 -0.350219249725341797 0.0242996141314506531
-0.588694095611572266 0.369410723447799683 0.112806037068367004
0.506052911281585693 -0.104731351137161255 0.147538557648658752
-0.198642730712890625 0.311694055795669556 0.11291176825761795
0.263923883438110352 -0.286719173192977905 0.319883674383163452
0.236964002251625061 0.0622599795460700989 0.310690939426422119
-0.145183250308036804 -0.0437125489115715027 0.00420648464933037758
-0.658690989017486572 0.214612662792205811 -0.0464061610400676727
-0.289501458406448364 -0.0763512402772903442 -0.0686712488532066345
0.227239549160003662 0.0421078428626060486 -0.0479537621140480042
0.551574051380157471 -0.144518762826919556 0.13228452205657959
0.519721806049346924 -0.295529186725616455 0.0751244574785232544
0.517451643943786621 -0.284368783235549927 -0.180992603302001953
-0.359000742435455322 -0.0174020696431398392 -0.0280240382999181747
0.0913477614521980286 0.0882511511445045471 0.0859117284417152405
0.466562032699584961 -0.36215326189994812 -0.0104509862139821053
-0.433844983577728271 0.157567605376243591 -0.0665950477123260498
0.523729205131530762 -0.335832118988037109 0.0691182240843772888
0.26278311014175415 -0.286088436841964722 0.318606853485107422
0.00889814272522926331 -0.0912216678261756897 -0.0260412134230136871
0.0321225859224796295 -0.130624115467071533 0.0219480004161596298
-0.631605386734008789 0.265000671148300171 0.0288243666291236877
0.242178335785865784 0.074441663920879364 0.318960130214691162
0.24022732675075531 0.02965584397315979 0.319038629531860352
-0.175403401255607605 0.300976157188415527 0.11630181223154068
0.304602831602096558 -0.151346728205680847 0.307958155870437622
0.261814117431640625 -0.290892273187637329 0.321089714765548706
-0.477165877819061279 -0.00838106684386730194 0.166075140237808228
0.242818132042884827 0.0818827897310256958 0.312320977449417114
0.520148873329162598 -0.35148930549621582 0.0821491926908493042
-0.0354791469871997833 -0.237908795475959778 0.124109357595443726
-0.639188587665557861 0.2900562584400177 0.098575197160243988
-0.235122442245483398 -0.133286416530609131 -0.0580564104020595551
-0.380247652530670166 -0.109142467379570007 0.105433836579322815
-0.237339586019515991 -0.148326948285102844 -0.0579090043902397156
-0.658898770809173584 0.214314162731170654 -0.0341130644083023071
0.528782784938812256 -0.352820813655853271 0.0780906826257705688
-0.622044205665588379 0.270278066396713257 0.0522624440491199493
-0.405114531517028809 -0.0646355301141738892 0.111949153244495392
-0.447306990623474121 -0.0417703501880168915 0.12186402827501297
0.267890036106109619 -0.285777837038040161 0.323568761348724365
0.12731325626373291 -0.326856106519699097 0.312588751316070557
0.151997998356819153 -0.343343049287796021 0.317870557308197021
0.447506159543991089 -0.336089044809341431 -0.292863637208938599
0.515604913234710693 -0.303243964910507202 -0.107758112251758575
0.515014588832855225 -0.280672341585159302 -0.312688827514648438
0.484636098146438599 -0.328132450580596924 -0.309662848711013794
0.4641132652759552 -0.346354871988296509 -0.302541285753250122
0.549398481845855713 -0.210582032799720764 -0.315819591283798218
0.523866057395935059 -0.300469249486923218 -0.322351366281509399
0.517734348773956299 -0.301281452178955078 -0.318245619535446167
0.246895894408226013 0.0571496747434139252 0.316554933786392212
0.241387501358985901 0.0876399576663970947 0.312888026237487793
-0.292702734470367432 -0.101034641265869141 -0.101960070431232452
-0.454571932554244995 -0.052263949066400528 0.116954699158668518
0.404720276594161987 -0.272372961044311523 0.322682678699493408
-0.503383934497833252 0.00358644383959472179 0.188968449831008911
0.401005357503890991 -0.287362068891525269 0.32499268651008606
0.399159789085388184 -0.273670434951782227 0.323476165533065796
0.342167824506759644 -0.259161025285720825 0.0903059244155883789
-0.0193548854440450668 -0.244697064161300659 0.128686070442199707
-0.465459972620010376 0.0358210019767284393 0.189410462975502014
-0.195045486092567444 0.221657201647758484 0.172038599848747253
0.366709679365158081 -0.329561948776245117 -0.0233213640749454498
0.323175400495529175 -0.390528410673141479 -0.158748924732208252
0.535272419452667236 -0.323864132165908813 -0.0580219775438308716
-0.442728728055953979 -0.00494477851316332817 0.152575045824050903
-0.0195978172123432159 -0.0596357136964797974 0.141784682869911194
-0.000770931888837367296 -0.236427649855613708 0.106421560049057007
0.52610933780670166 -0.20198395848274231 -0.0798020437359809875
0.449574440717697144 -0.308762609958648682 -0.292737692594528198
0.526607334613800049 -0.275824904441833496 -0.315541863441467285
0.499661624431610107 -0.325308054685592651 -0.312551826238632202
0.474990665912628174 -0.305469214916229248 -0.297253966331481934
-0.128003373742103577 0.246732801198959351 0.138981908559799194
-0.649889767169952393 0.282085984945297241 0.0939478799700737
-0.199609294533729553 0.286816537380218506 0.335845917463302612
0.49805036187171936 -0.0867368951439857483 0.136910185217857361
0.200433835387229919 -0.359587311744689941 -0.0907210707664489746
0.505256772041320801 -0.367918848991394043 -0.0225056987255811691
0.527195394039154053 -0.242766648530960083 0.173163905739784241
-0.586848974227905273 0.379468739032745361 0.170387938618659973
0.444790929555892944 -0.31535637378692627 -0.287614047527313232
0.498612582683563232 -0.111125737428665161 0.112424977123737335
-0.65675729513168335 0.175363793969154358 -0.1040082648396492
-0.202624514698982239 0.30887874960899353 0.0891306176781654358
0.20125637948513031 -0.0135472360998392105 0.295393675565719604
0.159829005599021912 -0.062319289892911911 -0.0439005196094512939
-0.580434978008270264 0.302398234605789185 0.368440330028533936
0.275108128786087036 0.0983976051211357117 -0.0288929566740989685
-0.436224520206451416 0.15525604784488678 -0.0861199274659156799
0.53431093692779541 -0.333237141370773315 0.0129513861611485481
-0.569761276245117188 0.197145134210586548 -0.229280337691307068
-0.498661249876022339 0.0447532832622528076 -0.086998477578163147
0.0310020893812179565 -0.104192182421684265 0.0331046320497989655
0.533862769603729248 -0.264854937791824341 -0.316184669733047485
0.00947054103016853333 0.197741135954856873 0.0276851709932088852
0.302182286977767944 0.0388330146670341492 -0.0842465832829475403
-0.333114027976989746 -0.0163003727793693542 -0.107756912708282471
0.236490190029144287 0.0145316123962402344 0.321951478719711304
0.124912664294242859 0.0130453528836369514 0.29904899001121521
0.52739715576171875 -0.355344563722610474 0.066537514328956604
0.466892719268798828 -0.310199499130249023 -0.232964605093002319
-0.652867555618286133 0.285433322191238403 0.104051403701305389
0.546537339687347412 -0.220025837421417236 0.163729235529899597
0.527906179428100586 -0.323574453592300415 -0.0158354025334119797
-0.383922815322875977 -0.0566352084279060364 0.076142728328704834
0.456694275140762329 -0.311242043972015381 -0.292435705661773682
0.504729628562927246 -0.340236574411392212 -0.317795932292938232
0.47860369086265564 -0.314718097448348999 -0.299383014440536499
0.520141482353210449 -0.301684439182281494 -0.317210346460342407
-0.00277663231827318668 -0.140262052416801453 -0.0247309766709804535
0.397493839263916016 -0.27322852611541748 0.323650866746902466
0.40116533637046814 -0.271653503179550171 0.323957145214080811
0.506012797355651855 -0.332132548093795776 0.106068849563598633
-0.468452185392379761 0.0423573292791843414 0.170524165034294128
0.409976691007614136 -0.346041560173034668 0.156793519854545593
-0.361742705106735229 -0.0356374345719814301 -0.148172244429588318
-0.128897756338119507 -0.268044739961624146 0.112392418086528778
0.512474894523620605 -0.369250327348709106 -0.0144499251618981361
-0.214261546730995178 0.312680572271347046 0.0976534560322761536
0.25047379732131958 -0.287235081195831299 0.323022216558456421
0.208911284804344177 0.00937004853039979935 -0.0458959192037582397
0.0696251988410949707 -0.15176372230052948 -0.0171116925776004791
-0.170236930251121521 0.304933309555053711 0.118866041302680969
0.471025317907333374 -0.364560753107070923 0.00727644190192222595
-0.291822135448455811 -0.0998245775699615479 -0.103216640651226044
0.0360556244850158691 -0.149939388036727905 -0.0215954147279262543
0.232252255082130432 0.0563714988529682159 0.309373021125793457
0.253282159566879272 -0.288797140121459961 0.320805788040161133
-0.472579836845397949 0.00102122861426323652 0.168541833758354187
0.241084113717079163 0.0628352835774421692 0.313275635242462158
0.508883833885192871 -0.352192819118499756 0.064189814031124115
0.227270752191543579 -0.314970940351486206 0.314688801765441895
-0.376241564750671387 -0.0933907777070999146 0.0861233174800872803
-0.0632236674427986145 -0.241851240396499634 0.302536338567733765
-0.223457217216491699 -0.128012433648109436 -0.053108900785446167
-0.410735756158828735 -0.0656573846936225891 0.0984411463141441345
-0.445850789546966553 -0.0448912940919399261 0.132637053728103638
0.238852068781852722 -0.294190406799316406 0.314573347568511963
0.153680205345153809 -0.324537545442581177 0.320187836885452271
0.425309896469116211 -0.256120949983596802 0.328811615705490112
0.438057631254196167 -0.343322485685348511 -0.292519807815551758
0.50615006685256958 -0.334935784339904785 -0.317939281463623047
0.444906741380691528 -0.352666109800338745 -0.286578208208084106
0.238348767161369324 0.0658999234437942505 0.312554061412811279
0.403232663869857788 -0.287590086460113525 0.326117098331451416
-0.495606452226638794 0.00662086810916662216 0.188258156180381775
0.485917866230010986 -0.0631577074527740479 0.132041022181510925
0.0121283959597349167 -0.170989394187927246 0.00995656941086053848
0.531478285789489746 -0.30779382586479187 -0.0619826652109622955
0.314699351787567139 -0.302573740482330322 -0.12661878764629364
0.445769339799880981 -0.291684895753860474 -0.285465002059936523
-0.337512940168380737 0.224755749106407166 0.12568230926990509
-0.401662230491638184 -0.0283899474889039993 -0.00195993296802043915
0.403151094913482666 -0.271795868873596191 0.3243408203125
-0.133660674095153809 0.195906594395637512 0.167811855673789978
0.399200588464736938 -0.271733641624450684 0.324153274297714233
-0.447330772876739502 -0.0251467209309339523 0.0213350355625152588
-0.138336032629013062 0.245007500052452087 0.191752627491950989
-0.613429844379425049 0.294173449277877808 0.183532178401947021
0.124576233327388763 0.116259150207042694 0.316843390464782715
-0.121246151626110077 0.250747889280319214 0.16190163791179657
-0.58393019437789917 0.348282605409622192 0.0579465292394161224
0.426884770393371582 -0.34821087121963501 0.153280362486839294
-0.567407906055450439 0.295100003480911255 -0.0691401362419128418
0.251991063356399536 0.0267345141619443893 -0.0793172195553779602
0.24783402681350708 0.100490458309650421 -0.0480856597423553467
-0.358222007751464844 -0.0560050792992115021 -0.141910582780838013
0.198866859078407288 0.120366655290126801 0.0360052585601806641
0.545713484287261963 -0.131455957889556885 0.112290062010288239
-0.582273006439208984 0.321840524673461914 -0.0230179894715547562
0.206295296549797058 0.0248098727315664291 0.177069604396820068
-0.595936834812164307 0.375341594219207764 0.171799719333648682
0.444872617721557617 -0.319284647703170776 0.127628177404403687
0.255091309547424316 -0.278756648302078247 0.31665530800819397
0.235711008310317993 0.0239744726568460464 0.316798597574234009
-0.363629758358001709 -0.0499383322894573212 -0.0238044243305921555
-0.18307889997959137 0.118192940950393677 0.0423812791705131531
0.254800856113433838 -0.288200885057449341 0.319467842578887939
0.242158025503158569 0.0333598107099533081 0.322065383195877075
0.40013769268989563 0.0235343016684055328 0.115477107465267181
-0.341251671314239502 -0.0663714185357093811 -0.147351071238517761
0.0755554512143135071 -0.333070546388626099 0.29901847243309021
-0.387447834014892578 -0.0608808957040309906 0.093771323561668396
-0.448883712291717529 -0.0413644313812255859 0.127645820379257202
0.439444482326507568 -0.279257029294967651 0.333879381418228149
0.0342199243605136871 -0.122966594994068146 -0.025498613715171814
0.414411067962646484 -0.280717849731445312 0.327219635248184204
0.433111429214477539 -0.296017915010452271 0.333376586437225342
0.367931634187698364 -0.278835296630859375 -0.130060121417045593
-0.478125303983688354 0.00148097379133105278 0.188230201601982117
-0.292233020067214966 -0.0965305641293525696 -0.104548633098602295
0.241398453712463379 -0.312989950180053711 0.309817612171173096
0.473249107599258423 -0.354279041290283203 0.00728346407413482666
-0.2970619797706604 -0.0967794954776763916 -0.107008077204227448
0.244768261909484863 -0.288553833961486816 0.320214837789535522
0.0620716661214828491 -0.32977747917175293 0.297098219394683838
0.157872825860977173 -0.267957031726837158 -0.105397231876850128
0.250390708446502686 0.0636491701006889343 0.315704822540283203
-0.483193755149841309 -0.00789252668619155884 0.17783762514591217
0.236518174409866333 0.0668167248368263245 0.315054357051849365
0.238725706934928894 -0.331804424524307251 0.321536034345626831
-0.382938235998153687 -0.0921056792140007019 0.0366824902594089508
-0.216719895601272583 -0.140260025858879089 -0.0543441474437713623
-0.383352398872375488 -0.0636964216828346252 0.0834900811314582825
0.1498832106590271 -0.331650674343109131 0.331969499588012695
0.44596436619758606 -0.279787778854370117 0.33380398154258728
0.40752333402633667 -0.280431121587753296 0.32533147931098938
-0.502693057060241699 0.00660300673916935921 0.188567623496055603
-0.322503119707107544 0.0972062721848487854 -0.070262126624584198
0.532620131969451904 -0.207502290606498718 -0.0523783564567565918
0.450959086418151855 -0.294126391410827637 -0.290355473756790161
0.487396389245986938 -0.325483024120330811 -0.310792595148086548
0.446396857500076294 -0.309977293014526367 -0.290726929903030396
-0.578293800354003906 0.269382745027542114 0.365638554096221924
-0.462138205766677856 0.105649054050445557 -0.231098473072052002
0.374952614307403564 -0.318683832883834839 0.199297592043876648
-0.590304374694824219 0.367078393697738647 0.13103032112121582
0.392554044723510742 -0.353670895099639893 -0.217358246445655823
0.441094070672988892 -0.310520827770233154 -0.288936346769332886
-0.201004639267921448 0.305608361959457397 0.0949923843145370483
-0.155796065926551819 0.26811140775680542 0.151700198650360107
0.529888033866882324 -0.338460952043533325 0.0720330551266670227
0.463849037885665894 -0.266302436590194702 -0.217510312795639038
-0.63405531644821167 0.275816291570663452 0.106831401586532593
0.438417106866836548 -0.308812320232391357 -0.287106245756149292
0.515456080436706543 -0.27741667628288269 -0.3167400062084198
0.516548514366149902 -0.340587437152862549 -0.320679545402526855
0.454358845949172974 -0.307290494441986084 -0.293161392211914062
0.491006731986999512 -0.321940332651138306 0.0946026667952537537
0.0202927086502313614 -0.276031732559204102 -0.0185038261115550995
-0.65469282865524292 0.171894922852516174 -0.10828574001789093
-0.225066080689430237 0.318710356950759888 0.121364697813987732
0.465420275926589966 -0.364169538021087646 0.00611313944682478905
0.481161385774612427 -0.33685225248336792 0.0504872836172580719
0.511452913284301758 -0.339648544788360596 -0.319337248802185059
0.440160512924194336 -0.356828778982162476 -0.297536939382553101
-0.270438909530639648 0.322130203247070312 0.041883908212184906
0.424139678478240967 -0.313538193702697754 -0.281801849603652954
0.415604382753372192 -0.295182317495346069 0.328661680221557617
-0.326714575290679932 -0.0754965841770172119 0.123445414006710052
-0.367524057626724243 -0.0668021887540817261 0.15463005006313324
-0.338769584894180298 0.214917838573455811 0.132818073034286499
0.00999683234840631485 0.119543462991714478 0.105280809104442596
0.542084813117980957 -0.309251785278320312 -0.0460138767957687378
0.0133376056328415871 -0.261972993612289429 0.0395842529833316803
-0.00384648446924984455 -0.236710593104362488 0.0943325832486152649
-7.79323454480618238e-05 -0.219742193818092346 0.0816008672118186951
0.465002238750457764 -0.361014634370803833 0.030511150136590004
-0.269981116056442261 -0.138151779770851135 0.177469983696937561
-0.345712244510650635 -0.065977044403553009 0.141231238842010498
0.123361356556415558 -0.276795327663421631 0.129089593887329102
-0.134204044938087463 0.0788617432117462158 0.0903594270348548889
0.463739663362503052 -0.0543063133955001831 0.0178447756916284561
-0.0144383125007152557 -0.217059388756752014 0.0804361999034881592
-0.555273592472076416 0.391796350479125977 0.147560492157936096
0.496675550937652588 -0.366888076066970825 0.00543875526636838913
-0.611258387565612793 0.294172018766403198 0.186336711049079895
0.529986798763275146 -0.275473684072494507 -0.317578911781311035
0.37048766016960144 -0.264621585607528687 0.181734725832939148
0.420440882444381714 -0.344527781009674072 0.151047319173812866
0.252141475677490234 0.039250638335943222 -0.0664479956030845642
0.549600064754486084 -0.149858161807060242 0.124472104012966156
-0.571100950241088867 0.28411528468132019 -0.00652166595682501793
0.500941693782806396 -0.362740427255630493 -0.00109365896787494421
0.20839555561542511 0.115801036357879639 -0.010229949839413166
-0.289852887392044067 -0.0858669579029083252 -0.0663987547159194946
0.159200161695480347 -0.0832986310124397278 -0.0359866954386234283
-0.340593069791793823 -0.105583913624286652 0.141269445419311523
0.510997533798217773 -0.281646460294723511 -0.313092887401580811
-0.339931577444076538 -0.0797980427742004395 0.038606792688369751
-0.369916081428527832 0.280760020017623901 -0.0625910162925720215
0.509913146495819092 -0.34104117751121521 0.0653169229626655579
0.302373886108398438 -0.205907940864562988 0.248083189129829407
0.542817831039428711 -0.312147140502929688 -0.0605665557086467743
0.141590207815170288 0.0696846768260002136 0.336497604846954346
-0.595447897911071777 0.267581462860107422 0.012045910581946373
0.222109034657478333 -0.00694338837638497353 0.295736640691757202
0.230991289019584656 0.0345121398568153381 0.312931746244430542
0.533544063568115234 -0.319734156131744385 -0.0126025266945362091
-0.389981389045715332 -0.0640897005796432495 0.105733543634414673
-0.448226124048233032 -0.0402160100638866425 0.126497983932495117
0.496152013540267944 -0.0912434086203575134 0.154702335596084595
0.251058399677276611 0.0633264780044555664 0.316822737455368042
-0.291918575763702393 -0.0928150489926338196 0.307672291994094849
-0.367217093706130981 -0.114910773932933807 0.104034245014190674
-0.564078330993652344 0.127221286296844482 -0.0785395652055740356
-0.502147018909454346 0.0234601031988859177 0.18661382794380188
0.518046796321868896 -0.29767155647277832 -0.31393703818321228
0.472506463527679443 -0.328595876693725586 -0.299793094396591187
-0.574827075004577637 0.269047260284423828 0.362566322088241577
-0.571718811988830566 0.3550739586353302 0.166891664266586304
-0.192074567079544067 0.304866105318069458 0.101356580853462219
-0.662645697593688965 0.23984430730342865 0.0415129587054252625
-0.505479991436004639 0.144516319036483765 0.353248685598373413
0.507034778594970703 -0.347520649433135986 -0.318236023187637329
-0.200913667678833008 0.30519452691078186 0.10201147198677063
0.475147426128387451 -0.35780799388885498 0.00487009529024362564
0.509805083274841309 -0.330853521823883057 0.0665952861309051514
-0.611254453659057617 0.367744982242584229 0.0876290202140808105
-0.56310272216796875 0.28832516074180603 -0.0560384839773178101
0.220047548413276672 0.0104319173842668533 0.309261232614517212
0.240629300475120544 0.00526900449767708778 0.32172808051109314
-0.360274016857147217 -0.0571482293307781219 -0.137907132506370544
0.399341225624084473 -0.252792149782180786 0.322087556123733521
0.399638891220092773 -0.263170540332794189 0.324836254119873047
0.223984673619270325 -0.32426375150680542 0.320759564638137817
0.411121398210525513 -0.267911702394485474 0.325257241725921631
-0.509770333766937256 0.0494484305381774902 0.195200130343437195
-0.631851434707641602 0.156476154923439026 -0.052755158394575119
-0.502451658248901367 0.14708159863948822 0.345223784446716309
0.520832538604736328 -0.351078718900680542 -0.322984129190444946
0.495321363210678101 -0.34852522611618042 0.000387017411412671208
-0.198410660028457642 0.0160349141806364059 -0.0498989224433898926
-0.558320045471191406 0.341875761747360229 -0.005834928248077631
0.488541126251220703 -0.360644549131393433 0.0412083230912685394
0.449325084686279297 -0.074256405234336853 0.00216309865936636925
-0.556806087493896484 0.385405778884887695 0.157679110765457153
0.374702215194702148 -0.0813205614686012268 -0.119735069572925568
-0.390201866626739502 0.319752097129821777 0.168755680322647095
-0.385159850120544434 0.328329801559448242 0.197447299957275391
-0.364728212356567383 0.237988367676734924 -0.0834869444370269775
-0.40785294771194458 0.199539348483085632 0.0408800989389419556
-0.644999861717224121 0.286954373121261597 0.0934620797634124756
0.408604174852371216 -0.347411185503005981 0.136568158864974976
0.222462207078933716 0.0829194635152816772 -0.0333620347082614899
0.498682558536529541 -0.161321058869361877 0.124006383121013641
0.500486075878143311 -0.0928590595722198486 0.134936362504959106
0.215451851487159729 0.00197916268371045589 0.29959416389465332
-0.353821367025375366 -0.0683594495058059692 -0.00909831654280424118
-0.385970801115036011 0.266000032424926758 -0.0716846063733100891
0.506474196910858154 -0.347270399332046509 0.0550683513283729553
-0.357694476842880249 -0.0566164180636405945 -0.145498573780059814
0.132206305861473083 0.0727409347891807556 0.322223067283630371
-0.100114323198795319 -0.26592060923576355 0.00612032180652022362
0.242551997303962708 0.0234225820749998093 0.322036415338516235
-0.481061875820159912 -0.0118167223408818245 0.185220405459403992
0.242599666118621826 0.0484253540635108948 0.31722027063369751
-0.278610914945602417 0.332804948091506958 0.0406614281237125397
0.369972765445709229 -0.0309343133121728897 -0.0397710464894771576
0.520129978656768799 -0.348224431276321411 -0.0361908040940761566
0.29344487190246582 -0.0119899110868573189 0.0371804684400558472
-0.644687652587890625 0.284870952367782593 0.0923104211688041687
0.0356327705085277557 0.136771112680435181 0.0852038934826850891
-0.398105472326278687 -0.0577839240431785583 0.125825956463813782
-0.442080050706863403 -0.0383656658232212067 0.131242662668228149
0.523803591728210449 -0.317816585302352905 -0.0653329417109489441
0.422471284866333008 -0.280105024576187134 0.331320017576217651
0.509639859199523926 -0.345162719488143921 0.0572364218533039093
0.403896450996398926 -0.258971840143203735 0.323733389377593994
-0.480948686599731445 0.0179560147225856781 0.176608189940452576
0.235645323991775513 0.0686200708150863647 0.314616113901138306
-0.480116516351699829 -0.00847706757485866547 0.167255088686943054
0.239273145794868469 0.0676295012235641479 0.315019458532333374
0.388384163379669189 0.0259960032999515533 0.106161423027515411
0.219507187604904175 -0.316263973712921143 0.310419470071792603
0.383203566074371338 0.0428987815976142883 0.0692038834095001221
0.462910115718841553 0.0107609452679753304 0.175222396850585938
0.399520426988601685 -0.258763611316680908 0.32730555534362793
-0.500259518623352051 0.021035684272646904 0.180817872285842896
-0.574020743370056152 0.266319423913955688 0.359789729118347168
-0.665117502212524414 0.229892581701278687 0.0216619540005922318
-0.149561822414398193 0.275436103343963623 0.0790785923600196838
0.521878957748413086 -0.335495233535766602 -0.322594285011291504
-0.220752760767936707 0.315749257802963257 0.0967236757278442383
0.499868810176849365 -0.346755504608154297 0.067127324640750885
-0.190066561102867126 0.302847743034362793 0.114753343164920807
0.313713490962982178 -0.13023144006729126 0.300819367170333862
0.225163653492927551 -0.0352518036961555481 0.305232882499694824
0.0571127496659755707 -0.331054389476776123 0.291343957185745239
0.435264945030212402 -0.280137479305267334 0.33283427357673645
0.408987194299697876 -0.285944133996963501 0.330995053052902222
0.385703057050704956 -0.265972435474395752 0.318877696990966797
0.397283703088760376 -0.38512885570526123 -0.225662931799888611
-0.162552118301391602 0.278474092483520508 0.128610461950302124
0.380846530199050903 0.0439249090850353241 0.077145010232925415
0.390833884477615356 -0.255922973155975342 0.318889141082763672
-0.500976920127868652 0.0243214275687932968 0.185653835535049438
0.499443233013153076 -0.326377958059310913 -0.313214123249053955
0.380469292402267456 -0.376418441534042358 -0.216271251440048218
0.520938694477081299 -0.34972575306892395 -0.325000584125518799
0.520500004291534424 -0.348862826824188232 -0.321938395500183105
0.5131339430809021 -0.320100694894790649 -0.318554222583770752
0.254938304424285889 -0.222624003887176514 0.0575558654963970184
0.185852393507957458 -0.142619416117668152 -0.105570942163467407
0.507764279842376709 -0.320455670356750488 0.0292895007878541946
-0.470151960849761963 -0.0120733864605426788 0.180920124053955078
0.496027350425720215 -0.349424123764038086 -0.3098888099193573
0.521288454532623291 -0.327976346015930176 -0.322064816951751709
0.475848734378814697 -0.320701807737350464 -0.303156942129135132
-0.341724872589111328 0.229787975549697876 -0.0443786978721618652
0.201813727617263794 0.132852301001548767 0.112287089228630066
-0.173071101307868958 0.0220606885850429535 0.0255723632872104645
0.265578806400299072 -0.166056707501411438 0.00610783183947205544
0.544623672962188721 -0.328571856021881104 -0.047822117805480957
-0.457001328468322754 -0.0533135980367660522 0.162039965391159058
0.469530999660491943 -0.35653415322303772 -0.30722421407699585
0.478310048580169678 -0.27023729681968689 -0.301622003316879272
0.467141926288604736 -0.362346440553665161 -0.308315545320510864
-0.320680320262908936 0.26663893461227417 0.011435994878411293
0.0329987332224845886 0.0985786467790603638 0.128527447581291199
-0.285302460193634033 -0.100468121469020844 -0.0874184221029281616
-0.617391109466552734 0.216887980699539185 -0.104960240423679352
0.244487777352333069 0.104462884366512299 -0.0296640396118164062
0.466168344020843506 -0.235474050045013428 -0.228553026914596558
-0.294545233249664307 -0.0889147743582725525 -0.0959783345460891724
0.249042421579360962 -0.276102155447006226 0.322555869817733765
0.222077295184135437 0.0668050795793533325 -0.0278301145881414413
-0.251512527465820312 -0.130593970417976379 -0.0555652901530265808
-0.21197141706943512 0.302093863487243652 0.148642122745513916
0.339858144521713257 -0.140672102570533752 0.318371832370758057
0.529633581638336182 -0.356794476509094238 0.0697043463587760925
-0.600389063358306885 0.356693178415298462 0.0602197051048278809
-0.347001314163208008 -0.0561404749751091003 -0.143731370568275452
-0.433386236429214478 0.157418787479400635 -0.0847248733043670654
0.526525795459747314 -0.331931322813034058 0.0204145070165395737
0.528085470199584961 -0.288210749626159668 -0.0701249092817306519
-0.499539732933044434 0.142418190836906433 -0.254005640745162964
0.146524697542190552 0.156789273023605347 0.0588570572435855865
0.253313362598419189 -0.00765239493921399117 0.327706277370452881
0.350001394748687744 -0.147258520126342773 0.320609718561172485
0.442145407199859619 -0.322894752025604248 -0.229392886161804199
-0.22471947968006134 -0.1404075026512146 -0.0538720227777957916
0.522467970848083496 -0.350421369075775146 0.0969739705324172974
-0.646615743637084961 0.253467261791229248 0.0236981119960546494
0.393189758062362671 -0.280247896909713745 0.322326004505157471
-0.475322961807250977 -0.0100240549072623253 0.164703071117401123
0.224272683262825012 -0.32526668906211853 0.319016724824905396
-0.364306747913360596 -0.121467314660549164 0.130264759063720703
-0.239179700613021851 -0.141038268804550171 -0.0540076121687889099
-0.114415727555751801 -0.00933903641998767853 -0.016679694876074791
0.389415919780731201 -0.278519272804260254 0.320656836032867432
-0.507627665996551514 0.0111390165984630585 0.201770514249801636
0.462477356195449829 -0.297299355268478394 -0.294346839189529419
0.35134473443031311 -0.148216605186462402 0.321466058492660522
0.457748234272003174 -0.304051727056503296 -0.228852719068527222
0.0241461675614118576 -0.144037544727325439 -0.0201540719717741013
0.368942350149154663 -0.327938944101333618 0.3187827467918396
0.391641467809677124 -0.281674057245254517 0.316919475793838501
0.128270089626312256 -0.319593876600265503 -0.0971159115433692932
-0.13479982316493988 0.27854803204536438 0.117485024034976959
-0.333923488855361938 0.0943275690078735352 -0.102438665926456451
0.373904377222061157 -0.376283764839172363 -0.214825287461280823
0.519718468189239502 -0.346112370491027832 -0.322615474462509155
0.52327805757522583 -0.358381152153015137 -0.32647937536239624
-0.0688042864203453064 -0.255127012729644775 0.0988700240850448608
0.325797528028488159 -0.130912840366363525 0.314791053533554077
0.424321979284286499 -0.259889781475067139 0.32833901047706604
-0.480555832386016846 0.0317957885563373566 0.196537554264068604
0.526480734348297119 -0.299955427646636963 -0.322065442800521851
0.537916123867034912 -0.292798757553100586 -0.324479043483734131
0.377702683210372925 -0.374518454074859619 -0.213534221053123474
0.371210664510726929 -0.3574543297290802 -0.213537037372589111
0.523903369903564453 -0.351976603269577026 -0.324859261512756348
0.52520596981048584 -0.363755226135253906 -0.322950303554534912
0.515387654304504395 -0.327519267797470093 -0.319929420948028564
0.479333937168121338 -0.352689206600189209 -0.312067210674285889
0.478296130895614624 -0.365964323282241821 -0.312786459922790527
-0.36232951283454895 0.310554951429367065 0.23964671790599823
-0.321402847766876221 0.104017950594425201 0.0221799332648515701
-0.44822615385055542 0.204214394092559814 -0.0404342152178287506
-0.378296732902526855 0.279386609792709351 -0.00733690150082111359
-0.0229766909033060074 -0.261008858680725098 0.143839031457901001
-0.592493057250976562 0.36156877875328064 0.0640182867646217346
0.367404699325561523 -0.373850226402282715 -0.212328463792800903
-0.12456095963716507 -0.0107786981388926506 0.00800872780382633209
0.396485388278961182 -0.353719502687454224 -0.218141332268714905
0.507440745830535889 -0.159574240446090698 0.125392735004425049
0.195512354373931885 0.124827660620212555 0.00656774500384926796
-0.0271452534943819046 0.167013540863990784 0.383009195327758789
-0.334778457880020142 -0.121320180594921112 0.100278057157993317
-0.325782090425491333 0.302948892116546631 -0.0367451794445514679
0.534062981605529785 -0.346960932016372681 0.0379942916333675385
0.525320053100585938 -0.331991285085678101 0.0346704311668872833
-0.596306264400482178 0.382246911525726318 0.113183796405792236
-0.0115110184997320175 -0.14447668194770813 -0.0267917010933160782
-0.235776782035827637 0.172037914395332336 -0.00163400417659431696
-0.486217230558395386 -0.0107062486931681633 0.177117571234703064
-0.278530597686767578 0.336219578981399536 0.0422102957963943481
0.513424575328826904 -0.349211394786834717 0.097237810492515564
-0.4493294358253479 -0.0358999744057655334 0.117340162396430969
0.434405386447906494 -0.253330528736114502 0.3319416344165802
0.414879918098449707 -0.278461664915084839 0.32740408182144165
-0.469592839479446411 0.0344107151031494141 0.193479955196380615
0.502238035202026367 -0.339737743139266968 0.0081276940181851387
-0.482180863618850708 -0.00286024087108671665 0.177449926733970642
-0.378197431564331055 -0.106885112822055817 0.0928656607866287231
-0.501726746559143066 0.0221715997904539108 0.184215113520622253
0.36056634783744812 -0.287196546792984009 -0.141633942723274231
0.00117150205187499523 -0.231610730290412903 0.0901201814413070679
-0.140598326921463013 0.265234470367431641 0.0884670540690422058
-0.129903942346572876 0.254544109106063843 0.0714691951870918274
0.312500089406967163 -0.293578833341598511 -0.131004929542541504
0.428238004446029663 -0.255573153495788574 0.330439716577529907
-0.615957260131835938 0.306811332702636719 0.392043650150299072
0.410638898611068726 -0.35830533504486084 -0.22621387243270874
0.504974961280822754 -0.346844404935836792 -0.319709241390228271
0.507666826248168945 -0.352882862091064453 -0.322419911623001099
0.523466348648071289 -0.298815160989761353 -0.318484902381896973
0.509629964828491211 -0.34718891978263855 -0.320035308599472046
0.269976913928985596 -0.169602245092391968 -0.0793565139174461365
0.133777409791946411 0.12051776796579361 0.32923087477684021
0.251769930124282837 -0.285129934549331665 0.328294366598129272
0.324557900428771973 -0.12019907683134079 0.310828506946563721
0.302458584308624268 -0.204477325081825256 0.251350134611129761
0.250195205211639404 -0.00366328936070203781 0.325261205434799194
0.507279694080352783 -0.3432503342628479 0.0877779498696327209
0.241895526647567749 0.0900668799877166748 0.310178905725479126
0.46280553936958313 -0.284350991249084473 -0.230965748429298401
-0.262674450874328613 0.314095020294189453 0.0458517223596572876
0.344198822975158691 -0.139963403344154358 0.32963252067565918
0.373758167028427124 -0.364201128482818604 -0.2085295170545578
0.33774980902671814 -0.129227340221405029 0.320877432823181152
0.526365697383880615 -0.347523659467697144 -0.323860257863998413
0.524129211902618408 -0.352384090423583984 -0.326415956020355225
0.479933410882949829 -0.3726767897605896 -0.312878131866455078
-0.360726505517959595 -0.0651737228035926819 0.0828693285584449768
-0.408205717802047729 0.0884681195020675659 -0.113196000456809998
0.0139442859217524529 0.0982564091682434082 0.217260256409645081
-0.379303544759750366 -0.0934645533561706543 -0.0283597409725189209
0.265604138374328613 0.0684439912438392639 -0.0915841013193130493
-0.108699031174182892 -0.0152290118858218193 0.0460977815091609955
-0.358852475881576538 -0.0922666862607002258 0.0129096200689673424
-0.290855884552001953 0.304951995611190796 0.166570976376533508
-0.356270641088485718 -0.0737740173935890198 0.0406158193945884705
-0.59916388988494873 0.294693678617477417 0.18639017641544342
0.249555602669715881 0.0968551263213157654 -0.0340626239776611328
0.379044890403747559 -0.355248957872390747 -0.209199234843254089
0.469777494668960571 -0.324835032224655151 0.138203650712966919
0.464458286762237549 -0.272021651268005371 -0.0927560031414031982
-0.440380722284317017 -0.0432424843311309814 0.0841737464070320129
-0.337046295404434204 -0.124983683228492737 0.127575337886810303
0.528297901153564453 -0.342031776905059814 0.0512306913733482361
0.392984390258789062 0.0472608134150505066 0.133854508399963379
-0.186294183135032654 0.314257204532623291 0.10786861926317215
-0.442331612110137939 -0.0431216917932033539 0.117740228772163391
0.537301421165466309 -0.326342463493347168 -0.0554447807371616364
-0.353568494319915771 0.306508332490921021 0.11415361613035202
0.494115352630615234 -0.346240192651748657 0.0443166866898536682
-0.576134860515594482 0.305344969034194946 0.379200994968414307
0.430971145629882812 -0.281046301126480103 0.3338908851146698
-0.478351354598999023 0.00390611798502504826 0.16404154896736145
0.524921536445617676 -0.350016504526138306 -0.00236177095212042332
-0.06780213862657547 -0.263088196516036987 0.298451215028762817
-0.5126495361328125 0.00447245826944708824 0.187951624393463135
0.38978886604309082 -0.360673367977142334 -0.215496405959129333
-0.118797920644283295 0.254518747329711914 0.0637020319700241089
-0.50116497278213501 0.00488996924832463264 0.193146273493766785
0.426456838846206665 -0.274546533823013306 0.330824613571166992
-0.334268361330032349 0.103968828916549683 -0.118520207703113556
-0.10613037645816803 0.254401504993438721 0.0937159731984138489
0.510552108287811279 -0.342079669237136841 -0.319511383771896362
-0.61341935396194458 0.302773773670196533 0.396067976951599121
-0.509710371494293213 0.0364953279495239258 0.188474074006080627
-0.291855275630950928 -0.0894895344972610474 -0.0786396339535713196
0.509405374526977539 -0.345361560583114624 -0.320937931537628174
0.0717757493257522583 0.139428794384002686 0.0726740136742591858
0.245760515332221985 0.107400976121425629 0.321626871824264526
0.473082363605499268 -0.287109404802322388 -0.230496376752853394
0.305187970399856567 -0.314829468727111816 0.331879138946533203
0.511617183685302734 -0.35043036937713623 -0.321965217590332031
-0.31613197922706604 -0.0872886478900909424 -0.0343009233474731445
0.514226436614990234 -0.356135904788970947 -0.322933435440063477
-0.62591850757598877 0.180276811122894287 -0.08631926029920578
-0.354357153177261353 -0.0562403686344623566 -0.144034400582313538
-0.331839203834533691 0.269540220499038696 -0.0550940483808517456
-0.177754148840904236 0.138913422822952271 0.00506583694368600845
0.545438230037689209 -0.217496007680892944 0.159407183527946472
0.0304396562278270721 0.10260329395532608 0.0655068531632423401
0.509683370590209961 -0.331291168928146362 -0.319307863712310791
0.58571094274520874 -0.325534135103225708 -0.319907099008560181
0.249634101986885071 -0.288449585437774658 0.318515598773956299
0.25567212700843811 -0.0029667725320905447 0.328201532363891602
0.301502197980880737 -0.28268963098526001 0.33140525221824646
-0.344955027103424072 -0.0910671725869178772 0.0179401878267526627
-0.375174641609191895 -0.0902867913246154785 -0.0183140542358160019
-0.0658688247203826904 -0.273747235536575317 0.159417644143104553
-0.631098926067352295 0.275746285915374756 0.0757587626576423645
0.366493850946426392 -0.366031080484390259 -0.21210460364818573
-0.12491019070148468 -0.0293374098837375641 -0.00655904598534107208
-0.599180757999420166 0.342467188835144043 0.0903579816222190857
0.44386136531829834 -0.249823287129402161 -0.28613591194152832
0.382554143667221069 -0.348494887351989746 -0.211964920163154602
0.312262654304504395 -0.373122483491897583 -0.155978083610534668
-0.179920166730880737 0.312895268201828003 0.100061804056167603
0.535078108310699463 -0.319511979818344116 -0.0322481170296669006
-0.6558188796043396 0.238410726189613342 0.013873138464987278
-0.453795045614242554 -0.0540405362844467163 0.163189038634300232
0.499930322170257568 -0.348778516054153442 0.0715400427579879761
0.440519392490386963 -0.260979413986206055 0.334507077932357788
0.507203936576843262 -0.34401315450668335 0.0300827845931053162
0.264696359634399414 0.121689438819885254 0.0273345448076725006
0.400082141160964966 0.0326557867228984833 0.140021860599517822
-0.106749214231967926 0.252789497375488281 0.07274676114320755
0.316513568162918091 -0.381149739027023315 -0.156855717301368713
-0.567306101322174072 0.295575380325317383 -0.0515718124806880951
0.390243709087371826 -0.363193213939666748 -0.220879286527633667
0.359227567911148071 0.033517003059387207 0.0488063246011734009
0.194361373782157898 -0.365892022848129272 -0.0957140028476715088
0.391124546527862549 -0.356114029884338379 -0.217002138495445251
0.519550919532775879 -0.335588514804840088 -0.322457551956176758
0.522754549980163574 -0.333771616220474243 -0.32389870285987854
0.244396314024925232 0.0242634844034910202 0.324124157428741455
0.212312832474708557 -0.338766038417816162 0.318678379058837891
0.237244129180908203 0.106251232326030731 0.315199434757232666
0.521508634090423584 -0.337498903274536133 -0.325548946857452393
0.318014413118362427 -0.380255222320556641 -0.151007667183876038
0.584035992622375488 -0.318421989679336548 -0.33412596583366394
-0.38179054856300354 -0.0937282741069793701 -0.0178221445530653
0.458273798227310181 -0.325676500797271729 0.12521827220916748
0.389160990715026855 0.0536868385970592499 0.13184511661529541
-0.174146667122840881 0.307499676942825317 0.10594494640827179
-0.462931424379348755 -0.0302191469818353653 0.134419441223144531
0.439656913280487061 -0.261563777923583984 0.335284888744354248
0.400494903326034546 0.0248407889157533646 0.128154769539833069
0.427332699298858643 -0.263713449239730835 0.332214295864105225
-0.510507345199584961 0.00419701403006911278 0.190743178129196167
-0.131432667374610901 0.253760010004043579 0.0816430076956748962
-0.284472435712814331 0.335929304361343384 0.0342803336679935455
0.455344110727310181 -0.259583652019500732 0.336812525987625122
-0.331495851278305054 0.0976329296827316284 -0.117719009518623352
-0.509212255477905273 0.0360086672008037567 0.188431590795516968
0.258186787366867065 0.00762294558808207512 0.327694445848464966
0.44591793417930603 -0.256100744009017944 0.333997219800949097
0.23638606071472168 0.109258577227592468 0.30897185206413269
0.30239337682723999 -0.329326122999191284 0.334516197443008423
-0.321107447147369385 0.266957700252532959 -0.0469772666692733765
-0.134049728512763977 -0.269017457962036133 -0.00487582292407751083
-0.377864181995391846 -0.0757361948490142822 0.0238409359008073807
-0.376527607440948486 -0.0639637559652328491 -0.16010931134223938
-0.495580106973648071 -0.0228700488805770874 0.173700928688049316
-0.528543055057525635 -0.00697089731693267822 0.186524391174316406
0.38197016716003418 -0.366991728544235229 -0.219067752361297607
0.389158010482788086 -0.330310016870498657 0.186728179454803467
-0.578612804412841797 0.291857510805130005 -0.0410608649253845215
0.241757392883300781 0.0884270668029785156 -0.039282090961933136
0.374445915222167969 -0.351852238178253174 -0.209647327661514282
0.187317907810211182 0.107951484620571136 0.00199126522056758404
-0.342383712530136108 0.27304878830909729 -0.0519201755523681641
0.53242039680480957 -0.35391002893447876 0.0536078885197639465
-0.11413874477148056 0.185541719198226929 0.354574441909790039
-0.216243401169776917 0.31358763575553894 0.112073682248592377
0.470335990190505981 -0.305382788181304932 -0.235579192638397217
0.536390542984008789 -0.321105659008026123 -0.0260284040123224258
-0.266844421625137329 0.310140460729598999 0.0453636422753334045
0.278970211744308472 0.00834827776998281479 -0.0270949490368366241
0.384362637996673584 -0.362569719552993774 -0.216783314943313599
0.0276249200105667114 -0.0957338511943817139 0.0189124885946512222
-0.417585372924804688 -0.0578324198722839355 0.133052155375480652
0.385123461484909058 -0.287884980440139771 -0.109427392482757568
0.382056862115859985 -0.363632231950759888 -0.219368055462837219
0.199576869606971741 -0.366794735193252563 -0.0959424376487731934
0.387524276971817017 -0.35451623797416687 -0.216419786214828491
0.511564314365386963 -0.337259858846664429 -0.319736868143081665
0.512872815132141113 -0.337022870779037476 -0.32191959023475647
0.233237877488136292 0.0343794040381908417 0.318970769643783569
0.242048755288124084 0.0892042815685272217 0.310047358274459839
0.362615764141082764 -0.282996028661727905 0.316333919763565063
0.530312001705169678 -0.34685787558555603 -0.329970568418502808
0.200501009821891785 -0.190756142139434814 -0.0716303884983062744
-0.193433985114097595 0.133561760187149048 0.0089199896901845932
0.320991843938827515 -0.374825865030288696 -0.158419638872146606
