ply
format ascii 1.0
element vertex 738
property float x
property float y
property float z
end_header
0.516578555107116699 -0.349243819713592529 0.0986617207527160645
-0.293849200010299683 -0.107540547847747803 -0.109542384743690491
0.274865150451660156 0.102912582457065582 -0.0578712597489356995
-0.575291991233825684 0.21927325427532196 -0.212860032916069031
-0.115678019821643829 0.268480479717254639 0.179510504007339478
0.235691577196121216 -0.288118302822113037 0.314264535903930664
0.309887617826461792 -0.187433138489723206 0.240897998213768005
0.541454613208770752 -0.326053857803344727 -0.0210306085646152496
0.0786355212330818176 -0.337938576936721802 0.282080590724945068
-0.00671979924663901329 -0.172090500593185425 0.00401280587539076805
-0.282411634922027588 0.261525601148605347 0.0067450348287820816
0.512831330299377441 -0.237378299236297607 -0.309538513422012329
-0.647080063819885254 0.278067290782928467 0.0793407931923866272
-0.646500647068023682 0.1829414963722229 -0.0910773575305938721
0.513794183731079102 -0.322717279195785522 0.0241726972162723541
-0.407225728034973145 -0.0639446750283241272 0.113306812942028046
0.516509532928466797 -0.355924636125564575 -0.02073647640645504
-0.566681385040283203 0.374147027730941772 0.152255147695541382
0.235775366425514221 0.043019711971282959 0.313489258289337158
-0.664980888366699219 0.226921290159225464 0.0229024235159158707
-0.448359936475753784 -0.0387692190706729889 0.126852944493293762
0.502687513828277588 -0.302523702383041382 -0.178990483283996582
-0.58922886848449707 0.3608417809009552 0.0858606323599815369
-0.194231003522872925 0.314749866724014282 0.104554951190948486
0.246784418821334839 0.0239232201129198074 0.323635995388031006
0.530602753162384033 -0.324025630950927734 -0.0581958331167697906
-0.182980716228485107 0.306862294673919678 0.128171518445014954
0.247023627161979675 0.00699527468532323837 0.323771804571151733
0.0585248954594135284 0.13963732123374939 0.345483481884002686
-0.505906760692596436 0.149229004979133606 0.356649935245513916
0.270385801792144775 -0.311388939619064331 0.326130419969558716
-0.254002600908279419 0.0232825521379709244 -0.0710051804780960083
0.24073772132396698 -0.295432746410369873 0.322369903326034546
0.248826608061790466 0.0438065119087696075 0.314219683408737183
0.468129277229309082 -0.102062024176120758 0.0344663634896278381
-0.124921418726444244 0.194992601871490479 0.115099161863327026
0.239622026681900024 -0.326767981052398682 0.317822903394699097
0.499929219484329224 -0.366793036460876465 0.0745348185300827026
0.523124098777770996 -0.324923127889633179 0.0260918717831373215
0.444304108619689941 -0.253380447626113892 0.33224862813949585
0.321240454912185669 -0.131598964333534241 -0.106847912073135376
0.0631677433848381042 -0.0108080059289932251 0.321470826864242554
0.510982811450958252 -0.361100375652313232 0.0473955348134040833
0.135458871722221375 -0.100817449390888214 0.0402958579361438751
0.0493523776531219482 0.0114418920129537582 0.0294408202171325684
0.0206207204610109329 0.0481342002749443054 0.0422950983047485352
0.0879152640700340271 -0.0661420971155166626 0.289422035217285156
-0.162471488118171692 -0.265992611646652222 0.147795677185058594
0.264781296253204346 -0.0202351361513137817 0.0613310970366001129
-0.0291418991982936859 -0.029124552384018898 0.295321106910705566
0.501899659633636475 -0.24062049388885498 -0.302124619483947754
0.475654184818267822 -0.315264880657196045 -0.302064865827560425
-0.631013214588165283 0.306097894906997681 0.167151793837547302
0.475169867277145386 -0.321006655693054199 0.12089800089597702
0.508787155151367188 -0.301090091466903687 -0.105666011571884155
0.527941703796386719 -0.275215506553649902 -0.317296236753463745
0.493267476558685303 -0.332741051912307739 -0.310812950134277344
0.503212928771972656 -0.320334762334823608 0.0978935658931732178
0.473900079727172852 -0.306095719337463379 -0.298218101263046265
-0.559457063674926758 0.267935991287231445 0.364276140928268433
0.124907419085502625 0.116816386580467224 0.313954740762710571
-0.633668959140777588 0.282030224800109863 0.0540681779384613037
-0.587414562702178955 0.362599402666091919 0.102199770510196686
0.371226131916046143 -0.374360203742980957 -0.212873488664627075
0.438162028789520264 -0.348183602094650269 0.154225349426269531
0.0580065548419952393 0.121260307729244232 0.320859670639038086
-0.574633777141571045 0.368637382984161377 0.215313583612442017
0.264575690031051636 0.0245060436427593231 -0.0588613525032997131
0.368512868881225586 -0.33699759840965271 0.160499900579452515
0.510230064392089844 -0.301812171936035156 -0.112114228308200836
0.133364260196685791 -0.320925414562225342 -0.0979859605431556702
0.516288816928863525 -0.349047988653182983 -0.0203935839235782623
0.389022409915924072 -0.34708133339881897 -0.214228212833404541
-0.577089369297027588 0.318863153457641602 0.0405624285340309143
0.535758376121520996 -0.278189033269882202 -0.320698648691177368
0.467611968517303467 -0.311232328414916992 -0.29935571551322937
0.506910085678100586 -0.347375780344009399 0.0178258679807186127
-0.555973410606384277 0.309517592191696167 0.102031074464321136
0.193641304969787598 -0.339663654565811157 -0.0593570508062839508
0.0698569193482398987 -0.28256639838218689 -0.0781241059303283691
0.252220869064331055 -0.250473767518997192 0.320041149854660034
0.239808589220046997 0.0308481622487306595 0.316723614931106567
-0.121253207325935364 -0.0481210425496101379 0.00790777988731861115
0.178595274686813354 -0.100372694432735443 -0.0150088286027312279
0.532184720039367676 -0.332573235034942627 -0.0132726524025201797
0.370095163583755493 -0.349805712699890137 -0.209013044834136963
0.534716248512268066 -0.246050089597702026 0.177157670259475708
0.56088554859161377 -0.31615835428237915 -0.331025481224060059
0.554298877716064453 -0.211936235427856445 0.133807539939880371
-0.543327391147613525 0.380574911832809448 0.164283096790313721
0.122822478413581848 0.117077246308326721 0.132877066731452942
-0.582298398017883301 0.351718723773956299 0.0975908786058425903
-0.481693536043167114 0.185661852359771729 -0.0917510092258453369
0.515366435050964355 -0.339445412158966064 0.0387317836284637451
0.253219336271286011 -0.279406100511550903 0.321865350008010864
0.27827298641204834 -0.356289267539978027 -0.126218140125274658
0.507664799690246582 -0.286997288465499878 -0.313771069049835205
-0.432356864213943481 -0.0576196424663066864 0.116532705724239349
0.201915428042411804 0.0903921052813529968 0.22315022349357605
0.244211122393608093 0.104409709572792053 -0.0574475787580013275
-0.19581151008605957 0.20137457549571991 0.349051833152770996
0.250366389751434326 0.0248109120875597 0.323160648345947266
0.239723548293113708 0.0189010091125965118 0.320851683616638184
-0.0315147154033184052 0.162594377994537354 0.382413387298583984
-0.48268929123878479 -0.0160249881446361542 0.180022284388542175
0.483561247587203979 -0.369364887475967407 0.0459777005016803741
-0.643598377704620361 0.286882638931274414 0.0860563665628433228
0.27577170729637146 -0.166078358888626099 -0.0706562027335166931
-0.412023663520812988 -0.0572995543479919434 0.0787414759397506714
-0.643159091472625732 0.175405845046043396 -0.0821621790528297424
-0.226192682981491089 -0.134394660592079163 -0.052423626184463501
0.254726558923721313 -0.265812307596206665 0.321025729179382324
-0.345528930425643921 0.0168800763785839081 -0.117118388414382935
-0.287364155054092407 -0.0920461192727088928 -0.106711007654666901
-0.58519434928894043 0.209484249353408813 -0.218163684010505676
0.26737290620803833 -0.297281950712203979 0.315107464790344238
-0.0258316472172737122 -0.1876697838306427 -0.043686840683221817
-0.618149936199188232 0.276665776968002319 0.0312405265867710114
-0.608914554119110107 0.297996848821640015 0.0923162177205085754
-0.39776921272277832 -0.063295118510723114 0.118726827204227448
-0.451895833015441895 -0.0386001653969287872 0.119336456060409546
0.430879145860671997 -0.2720164954662323 0.329125165939331055
-0.0525199994444847107 0.140597417950630188 0.0914612263441085815
-0.503171741962432861 0.150853142142295837 0.355265051126480103
0.240584388375282288 -0.319588571786880493 0.322721391916275024
0.496940135955810547 -0.371186107397079468 0.0572969205677509308
0.39908185601234436 -0.257130056619644165 0.322400212287902832
-0.158622652292251587 -0.263967752456665039 0.18143993616104126
-0.499344557523727417 0.0136359455063939095 0.157940462231636047
0.417354792356491089 -0.297654449939727783 0.328675568103790283
0.535108029842376709 -0.340567082166671753 -0.0185018815100193024
0.344098120927810669 -0.267770230770111084 -0.127968400716781616
-0.496622949838638306 0.0716275125741958618 0.203830808401107788
0.443419873714447021 -0.272461503744125366 0.333352833986282349
0.52184605598449707 -0.335761129856109619 0.0327346287667751312
0.45317503809928894 -0.320365041494369507 -0.293100595474243164
0.474051624536514282 -0.31201636791229248 0.116636410355567932
0.517045140266418457 -0.278884470462799072 -0.312882095575332642
0.502478897571563721 -0.326426208019256592 -0.314377844333648682
0.517934322357177734 -0.327464699745178223 0.101857393980026245
0.479131549596786499 -0.31190025806427002 -0.302234679460525513
0.114507168531417847 0.118417836725711823 0.288807809352874756
-0.121992714703083038 0.268414914608001709 0.158525392413139343
-0.614901840686798096 0.265142977237701416 0.0519440583884716034
-0.479558587074279785 0.00264840922318398952 0.181198373436927795
0.426497966051101685 -0.355377465486526489 0.158506348729133606
-0.292547315359115601 -0.111124508082866669 -0.105966523289680481
0.130436822772026062 0.0653245523571968079 0.321040749549865723
0.253646492958068848 0.0384255722165107727 -0.0779783874750137329
0.235433533787727356 0.0936343148350715637 -0.0532719530165195465
0.417501956224441528 -0.261969953775405884 -0.202436789870262146
0.521499574184417725 -0.355048984289169312 -0.0195186454802751541
-0.608941793441772461 0.380804240703582764 0.181083455681800842
0.51739656925201416 -0.279785990715026855 -0.314804345369338989
0.498933017253875732 -0.350384294986724854 0.0240178667008876801
-0.587898910045623779 0.368974506855010986 0.112883821129798889
0.505844354629516602 -0.104999266564846039 0.147188246250152588
-0.198091104626655579 0.311284780502319336 0.112674690783023834
0.263824701309204102 -0.286864608526229858 0.319695591926574707
0.236855253577232361 0.0619619414210319519 0.310377061367034912
-0.144696786999702454 -0.0438747256994247437 0.00397432921454310417
-0.657895922660827637 0.214317098259925842 -0.0463220253586769104
-0.288820177316665649 -0.0764744803309440613 -0.0688117966055870056
0.227172568440437317 0.0419089831411838531 -0.0483401939272880554
0.551395058631896973 -0.144792526960372925 0.131946131587028503
0.519585132598876953 -0.295728117227554321 0.0748266726732254028
0.517399907112121582 -0.284497231245040894 -0.181253299117088318
-0.358267605304718018 -0.017580302432179451 -0.0281327422708272934
0.0914308354258537292 0.0879907980561256409 0.0855540633201599121
0.466452240943908691 -0.362288594245910645 -0.0107333017513155937
-0.433054566383361816 0.15732187032699585 -0.0666769444942474365
0.523610353469848633 -0.336023479700088501 0.0688351541757583618
0.262684911489486694 -0.286233603954315186 0.318418413400650024
0.00917153526097536087 -0.091335780918598175 -0.0263331420719623566
0.032353520393371582 -0.130737841129302979 0.0216659493744373322
-0.630817830562591553 0.264651030302047729 0.0289074089378118515
0.242062792181968689 0.07413453608751297 0.318644016981124878
0.24011547863483429 0.0293729249387979507 0.31873747706413269
-0.174885556101799011 0.300575494766235352 0.116050966084003448
0.30445525050163269 -0.15154893696308136 0.307699441909790039
0.261717885732650757 -0.291036725044250488 0.32090449333190918
-0.476395785808563232 -0.0086235804483294487 0.166073605418205261
0.24270138144493103 0.0815729573369026184 0.312000185251235962
0.520030319690704346 -0.351677775382995605 0.0818711742758750916
-0.0351660251617431641 -0.23801422119140625 0.123922519385814667
-0.638412535190582275 0.289665579795837402 0.0986813604831695557
-0.234507575631141663 -0.133372709155082703 -0.058208167552947998
-0.37953794002532959 -0.109334677457809448 0.105376742780208588
-0.236723288893699646 -0.148403450846672058 -0.0580524317920207977
-0.658106863498687744 0.214013591408729553 -0.0340259820222854614
0.528669357299804688 -0.353013455867767334 0.0778140872716903687
-0.621259033679962158 0.269919037818908691 0.0523416884243488312
-0.404389351606369019 -0.0648418739438056946 0.111900933086872101
-0.446557879447937012 -0.0419884882867336273 0.121841058135032654
0.267786979675292969 -0.285924851894378662 0.323380440473556519
0.127378299832344055 -0.326974064111709595 0.312471449375152588
0.152034416794776917 -0.343462646007537842 0.317750006914138794
0.447503328323364258 -0.336128056049346924 -0.293073892593383789
0.515533328056335449 -0.303390681743621826 -0.108034007251262665
0.515017271041870117 -0.280756562948226929 -0.312900573015213013
0.484644144773483276 -0.328189849853515625 -0.309862673282623291
0.464118033647537231 -0.346399396657943726 -0.302740126848220825
0.54938894510269165 -0.210708141326904297 -0.316052615642547607
0.523882806301116943 -0.300553202629089355 -0.322548240423202515
0.517747282981872559 -0.30136224627494812 -0.318445414304733276
0.24677567183971405 0.0568512193858623505 0.316242516040802002
0.24127236008644104 0.0873272418975830078 0.312565922737121582
-0.291993618011474609 -0.101129435002803802 -0.102097928524017334
-0.453820139169692993 -0.0524762198328971863 0.116937167942523956
0.40454670786857605 -0.272557109594345093 0.322445988655090332
-0.50261080265045166 0.00333511456847190857 0.188986152410507202
0.400834530591964722 -0.287541300058364868 0.324763059616088867
0.398986935615539551 -0.273852705955505371 0.323241680860519409
0.34203183650970459 -0.259298622608184814 0.0899996161460876465
-0.0190646257251501083 -0.244802668690681458 0.12849697470664978
-0.464698374271392822 0.0355593264102935791 0.189397692680358887
-0.194514989852905273 0.221312239766120911 0.171811386942863464
0.366614162921905518 -0.329657226800918579 -0.0236158464103937149
0.323164075613021851 -0.390551894903182983 -0.158994540572166443
0.535196304321289062 -0.324034333229064941 -0.0582967624068260193
-0.441979259252548218 -0.00518487626686692238 0.15254819393157959
-0.0193217992782592773 -0.0598231106996536255 0.141533195972442627
-0.00050169328460469842 -0.236530914902687073 0.106210827827453613
0.525996744632720947 -0.202171429991722107 -0.080119594931602478
0.449562937021255493 -0.308805465698242188 -0.292959630489349365
0.526613354682922363 -0.275917470455169678 -0.315751314163208008
0.499673962593078613 -0.325374901294708252 -0.312748163938522339
0.474979490041732788 -0.305525153875350952 -0.29747048020362854
-0.127564579248428345 0.246372908353805542 0.138711944222450256
-0.64911729097366333 0.281691193580627441 0.0940744802355766296
-0.199077367782592773 0.286419600248336792 0.335660099983215332
0.497833460569381714 -0.087006397545337677 0.136553719639778137
0.200492426753044128 -0.359598249197006226 -0.0909787937998771667
0.505170822143554688 -0.368073016405105591 -0.0227771345525979996
0.527036070823669434 -0.242993831634521484 0.172861143946647644
-0.586052119731903076 0.379020750522613525 0.170468747615814209
0.444779306650161743 -0.315397679805755615 -0.287835866212844849
0.498401015996932983 -0.111380353569984436 0.112069740891456604
-0.655951380729675293 0.175109729170799255 -0.10392376035451889
-0.202066406607627869 0.308475375175476074 0.0888888239860534668
0.201188698410987854 -0.0137933045625686646 0.295104891061782837
0.159871518611907959 -0.0624515973031520844 -0.0442476756870746613
-0.579681038856506348 0.301986336708068848 0.368485420942306519
0.274965822696685791 0.0981558635830879211 -0.0292985290288925171
-0.435427755117416382 0.155018851161003113 -0.0861988812685012817
0.53421175479888916 -0.333423972129821777 0.0126698845997452736
-0.568912982940673828 0.196930006146430969 -0.22925056517124176
-0.497843533754348755 0.0445755757391452789 -0.0870083123445510864
0.0312276370823383331 -0.104324802756309509 0.0328165441751480103
0.533867716789245605 -0.26495477557182312 -0.316396743059158325
0.0096996501088142395 0.197446882724761963 0.0273300185799598694
0.302039623260498047 0.0386344529688358307 -0.0846388339996337891
-0.332381188869476318 -0.0164444539695978165 -0.107878945767879486
0.236382871866226196 0.0142570780590176582 0.321657299995422363
0.124955363571643829 0.0127956345677375793 0.298778146505355835
0.527287542819976807 -0.355533957481384277 0.0662613958120346069
0.466857701539993286 -0.310274422168731689 -0.233205750584602356
-0.652096748352050781 0.285033613443374634 0.104181580245494843
0.54638063907623291 -0.220270484685897827 0.163418412208557129
0.527811229228973389 -0.323752105236053467 -0.0161186009645462036
-0.383203327655792236 -0.0568357445299625397 0.07607230544090271
0.456683158874511719 -0.311288774013519287 -0.292655259370803833
0.504750549793243408 -0.340303540229797363 -0.317982524633407593
0.478599578142166138 -0.314775764942169189 -0.299593895673751831
0.52015453577041626 -0.301767170429229736 -0.317409664392471313
-0.00247836392372846603 -0.140349224209785461 -0.0250008273869752884
0.397321164608001709 -0.27341046929359436 0.323416739702224731
0.400992095470428467 -0.271837055683135986 0.323721587657928467
0.505877315998077393 -0.332320272922515869 0.105784744024276733
-0.467689037322998047 0.0420950762927532196 0.17050991952419281
0.409833222627639771 -0.346194475889205933 0.156525120139122009
-0.360980093479156494 -0.0357515402138233185 -0.14825865626335144
-0.128459438681602478 -0.26813700795173645 0.112255692481994629
0.512389242649078369 -0.369410723447799683 -0.0147206904366612434
-0.213688239455223083 0.312272757291793823 0.0974225252866744995
0.250388383865356445 -0.287378281354904175 0.322840869426727295
0.208871886134147644 0.00919087324291467667 -0.0462727434933185577
0.0698129162192344666 -0.151849880814552307 -0.0174046717584133148
-0.16972564160823822 0.304530322551727295 0.118614234030246735
0.470904022455215454 -0.364701211452484131 0.00699209980666637421
-0.29111325740814209 -0.0999195799231529236 -0.103355519473552704
0.0362957827746868134 -0.150023862719535828 -0.0218763630837202072
0.232149407267570496 0.0560777485370635986 0.309061646461486816
0.253194212913513184 -0.288940280675888062 0.320622950792312622
-0.471807211637496948 0.000773961946833878756 0.168536141514778137
0.240970417857170105 0.0625356212258338928 0.312961548566818237
0.508766412734985352 -0.352371722459793091 0.0639101043343544006
0.227215513586997986 -0.315103888511657715 0.314523190259933472
-0.375524461269378662 -0.0935964807868003845 0.0860536098480224609
-0.062915995717048645 -0.241968154907226562 0.302458912134170532
-0.222856253385543823 -0.12810380756855011 -0.0532710179686546326
-0.410004734992980957 -0.0658598244190216064 0.0983941107988357544
-0.445104449987411499 -0.0451098084449768066 0.132615417242050171
0.238780423998832703 -0.294328749179840088 0.314395397901535034
0.153710171580314636 -0.324659019708633423 0.320060849189758301
0.425133228302001953 -0.256317168474197388 0.328565865755081177
0.438056379556655884 -0.343355149030685425 -0.292728722095489502
0.506169974803924561 -0.335004299879074097 -0.318127751350402832
0.44490388035774231 -0.35270380973815918 -0.28678402304649353
0.238238170742988586 0.0655993297696113586 0.312239348888397217
0.403061807155609131 -0.287770092487335205 0.325887352228164673
-0.494828641414642334 0.00636787200346589088 0.18826979398727417
0.485692292451858521 -0.0634302869439125061 0.131679043173789978
0.0124017195776104927 -0.171073794364929199 0.00968859810382127762
0.531396865844726562 -0.30796360969543457 -0.0622633844614028931
0.314656853675842285 -0.302615225315093994 -0.126905903220176697
0.445748090744018555 -0.291729986667633057 -0.285697788000106812
-0.336816966533660889 0.224404573440551758 0.125541746616363525
-0.400906562805175781 -0.0285729598253965378 -0.00203493260778486729
0.402977705001831055 -0.271980017423629761 0.324104905128479004
-0.133221164345741272 0.195580020546913147 0.167552396655082703
0.399027585983276367 -0.271916627883911133 0.323918312788009644
-0.446558147668838501 -0.025337977334856987 0.0212957188487052917
-0.137882068753242493 0.244644001126289368 0.191500961780548096
-0.612651586532592773 0.293773025274276733 0.183619245886802673
0.124620646238327026 0.115948550403118134 0.316544204950332642
-0.120816245675086975 0.250382304191589355 0.161634072661399841
-0.583131790161132812 0.347875326871871948 0.0580074749886989594
0.426741153001785278 -0.348368257284164429 0.15301021933555603
-0.566584408283233643 0.294778823852539062 -0.0691163539886474609
0.251901865005493164 0.0265507306903600693 -0.0797029063105583191
0.247732177376747131 0.100258089601993561 -0.0484885051846504211
-0.35746493935585022 -0.0561088621616363525 -0.141994744539260864
0.198809683322906494 0.120103582739830017 0.0356111340224742889
0.545527517795562744 -0.13172931969165802 0.111944571137428284
-0.581460297107696533 0.321478962898254395 -0.0229724254459142685
0.206231370568275452 0.0245556943118572235 0.176727116107940674
-0.595145463943481445 0.37489655613899231 0.171883940696716309
0.444721072912216187 -0.319450587034225464 0.127341613173484802
0.255000054836273193 -0.278901576995849609 0.316466152667999268
0.235604569315910339 0.0236959550529718399 0.316499561071395874
-0.362897962331771851 -0.0500999875366687775 -0.0239009279757738113
-0.182556405663490295 0.117931172251701355 0.0421292670071125031
0.254711270332336426 -0.288344234228134155 0.319283604621887207
0.242043823003768921 0.0330739542841911316 0.32176363468170166
0.399898618459701538 0.0232593845576047897 0.115099593997001648
-0.340507805347442627 -0.0664656013250350952 -0.147442594170570374
0.0756912529468536377 -0.333182483911514282 0.298920482397079468
-0.386729598045349121 -0.0610859431326389313 0.0937071666121482849
-0.448134690523147583 -0.0415838360786437988 0.127624765038490295
0.439270347356796265 -0.279450088739395142 0.333640158176422119
0.0344590321183204651 -0.123064026236534119 -0.0257877204567193985
0.414238303899765015 -0.280903041362762451 0.326984882354736328
0.432940959930419922 -0.296204954385757446 0.33314436674118042
0.36785849928855896 -0.278901904821395874 -0.130357906222343445
-0.477263808250427246 0.0012158640893176198 0.188228040933609009
-0.291524887084960938 -0.0966268405318260193 -0.104687057435512543
0.241328760981559753 -0.313125461339950562 0.309643298387527466
0.47313392162322998 -0.354424118995666504 0.00699887890368700027
-0.296356260776519775 -0.096873156726360321 -0.107137031853199005
0.244689077138900757 -0.288695245981216431 0.320034950971603394
0.0622254200279712677 -0.329888582229614258 0.297003656625747681
0.157975226640701294 -0.267967790365219116 -0.105670735239982605
0.250266045331954956 0.06334676593542099 0.315389275550842285
-0.48241153359413147 -0.00813886150717735291 0.177841246128082275
0.236409693956375122 0.0665155276656150818 0.314740568399429321
0.23866213858127594 -0.331938743591308594 0.321374803781509399
-0.382211655378341675 -0.0922714322805404663 0.0366126857697963715
-0.216126784682273865 -0.140342146158218384 -0.0545048601925373077
-0.382635176181793213 -0.0638970807194709778 0.0834219083189964294
0.149917259812355042 -0.331772208213806152 0.331852883100509644
0.445790112018585205 -0.279982179403305054 0.333563446998596191
0.407350838184356689 -0.280614167451858521 0.325097799301147461
-0.501919686794281006 0.0063504842109978199 0.188584432005882263
-0.321785926818847656 0.0969860926270484924 -0.0704261064529418945
0.532501280307769775 -0.207700639963150024 -0.0526968799531459808
0.450940132141113281 -0.294171988964080811 -0.290584415197372437
0.487404912710189819 -0.325542151927947998 -0.310992509126663208
0.446384906768798828 -0.310018926858901978 -0.290949642658233643
-0.577544093132019043 0.268991231918334961 0.365679234266281128
-0.461299508810043335 0.105487927794456482 -0.231124177575111389
0.374801665544509888 -0.318837434053421021 0.199037373065948486
-0.589514076709747314 0.366643309593200684 0.1311054527759552
0.392524093389511108 -0.353705048561096191 -0.217598080635070801
0.441081613302230835 -0.310560017824172974 -0.289160460233688354
-0.2004498690366745 0.305205434560775757 0.0947497636079788208
-0.155312150716781616 0.26773342490196228 0.151447847485542297
0.529771566390991211 -0.338655859231948853 0.0717516914010047913
0.46379387378692627 -0.266387909650802612 -0.217776656150817871
-0.633279919624328613 0.275435030460357666 0.106929413974285126
0.43840324878692627 -0.308850795030593872 -0.287332236766815186
0.515460312366485596 -0.27750059962272644 -0.316951602697372437
0.516574382781982422 -0.340661495923995972 -0.32086181640625
0.454346567392349243 -0.307335942983627319 -0.293382883071899414
0.490863591432571411 -0.322120398283004761 0.0943122580647468567
0.0205737166106700897 -0.276072502136230469 -0.0187356173992156982
-0.653884470462799072 0.171644404530525208 -0.108204454183578491
-0.224479228258132935 0.318294048309326172 0.12114822119474411
0.465301483869552612 -0.364307522773742676 0.00582911167293787003
0.481035172939300537 -0.337016314268112183 0.0501994341611862183
0.511476397514343262 -0.339719682931900024 -0.319521784782409668
0.440164834260940552 -0.356859505176544189 -0.297737747430801392
-0.269787430763244629 0.321728318929672241 0.0416777022182941437
0.424124807119369507 -0.313569575548171997 -0.282030045986175537
0.415434509515762329 -0.295364409685134888 0.328432083129882812
-0.326054304838180542 -0.0756954476237297058 0.123354583978652954
-0.366832256317138672 -0.0670126974582672119 0.154569745063781738
-0.338073909282684326 0.214572444558143616 0.132679998874664307
0.0102149304002523422 0.119268685579299927 0.104956261813640594
0.54200136661529541 -0.309432566165924072 -0.0462949424982070923
0.0136083159595727921 -0.26204487681388855 0.0393583476543426514
-0.00356984115205705166 -0.236810088157653809 0.0941186025738716125
0.000195765416719950736 -0.219842121005058289 0.0813732221722602844
0.464885473251342773 -0.361161172389984131 0.0302288755774497986
-0.269394934177398682 -0.138315841555595398 0.177386105060577393
-0.345037281513214111 -0.066184215247631073 0.141154557466506958
0.123452119529247284 -0.276899248361587524 0.12885679304599762
-0.133760005235671997 0.0786086246371269226 0.0901028215885162354
0.463523209095001221 -0.05454220250248909 0.0174706075340509415
-0.0141440825536847115 -0.217159271240234375 0.0802133828401565552
-0.554480195045471191 0.391345977783203125 0.147609367966651917
0.496570289134979248 -0.367043107748031616 0.00516100600361824036
-0.610479533672332764 0.293771535158157349 0.186422497034072876
0.529994726181030273 -0.275568068027496338 -0.317786753177642822
0.370323687791824341 -0.264784455299377441 0.18144989013671875
0.420296847820281982 -0.34468349814414978 0.150776028633117676
0.252048224210739136 0.0390555523335933685 -0.0668366029858589172
0.549422621726989746 -0.150127917528152466 0.124134145677089691
-0.570281922817230225 0.283786863088607788 -0.00647249398753046989
0.500841498374938965 -0.362897604703903198 -0.00137072708457708359
0.208330661058425903 0.115554638206958771 -0.0106325820088386536
-0.289171576499938965 -0.0859853401780128479 -0.0665365159511566162
0.159245520830154419 -0.0834215208888053894 -0.0363287627696990967
-0.339927375316619873 -0.105769865214824677 0.141200616955757141
0.510999560356140137 -0.281727463006973267 -0.313305169343948364
-0.339239329099655151 -0.0799692794680595398 0.038506876677274704
-0.36914941668510437 0.280425190925598145 -0.0627352222800254822
0.509792029857635498 -0.341222941875457764 0.0650337934494018555
0.30223923921585083 -0.206077292561531067 0.24782097339630127
0.542741298675537109 -0.312323480844497681 -0.0608437098562717438
0.141606152057647705 0.0693942233920097351 0.33621564507484436
-0.594649970531463623 0.267242550849914551 0.0121014639735221863
0.222019895911216736 -0.00719873933121562004 0.295442730188369751
0.230890378355979919 0.0342296510934829712 0.31262892484664917
0.533448576927185059 -0.319917052984237671 -0.0128866443410515785
-0.389264136552810669 -0.0642963573336601257 0.105674080550670624
-0.447477042675018311 -0.0404357612133026123 0.126476138830184937
0.495935767889022827 -0.0915131345391273499 0.154349207878112793
0.250932991504669189 0.0630238801240921021 0.316507518291473389
-0.29134175181388855 -0.0930052399635314941 0.307638049125671387
-0.366520226001739502 -0.115092121064662933 0.103972211480140686
-0.563261926174163818 0.126999437808990479 -0.0785102918744087219
-0.501376032829284668 0.0232015065848827362 0.186627969145774841
0.518056154251098633 -0.297754466533660889 -0.314139902591705322
0.472506791353225708 -0.328648507595062256 -0.299999058246612549
-0.574076712131500244 0.268656015396118164 0.362605273723602295
-0.570922017097473145 0.35464063286781311 0.166957348585128784
-0.191532343626022339 0.304462224245071411 0.101109400391578674
-0.661867976188659668 0.239503443241119385 0.0416108183562755585
-0.504750072956085205 0.144195109605789185 0.35325285792350769
0.507058620452880859 -0.347588211297988892 -0.318418711423873901
-0.200359627604484558 0.304790586233139038 0.101770646870136261
0.475031614303588867 -0.357952296733856201 0.00458607496693730354
0.509680032730102539 -0.3310374915599823 0.0663087591528892517
-0.61046522855758667 0.367316484451293945 0.0877162143588066101
-0.562284290790557861 0.288001447916030884 -0.056017015129327774
0.219959631562232971 0.0101655125617980957 0.308967232704162598
0.240517571568489075 0.00499851442873477936 0.32143595814704895
-0.359516173601150513 -0.0572531558573246002 -0.137990444898605347
0.399166643619537354 -0.252981215715408325 0.32184484601020813
0.39946514368057251 -0.263356536626815796 0.324598222970962524
0.223934277892112732 -0.324395805597305298 0.320601493120193481
0.41094699501991272 -0.268099546432495117 0.325018107891082764
-0.509001553058624268 0.0491787828505039215 0.195217013359069824
-0.631050407886505127 0.156216979026794434 -0.0526825711131095886
-0.50171893835067749 0.146760076284408569 0.345225632190704346
0.52086406946182251 -0.351153850555419922 -0.323159843683242798
0.495215713977813721 -0.348682284355163574 0.00010491193097550422
-0.197838500142097473 0.0158551651984453201 -0.0501249209046363831
-0.557504594326019287 0.341494083404541016 -0.00580162741243839264
0.488426804542541504 -0.360805928707122803 0.0409285388886928558
0.449117720127105713 -0.0744723379611968994 0.00179123727139085531
-0.556009411811828613 0.384957015514373779 0.157732322812080383
0.374551296234130859 -0.0814645439386367798 -0.120100066065788269
-0.389445483684539795 0.319328039884567261 0.168670237064361572
-0.384405434131622314 0.327896833419799805 0.197363376617431641
-0.363967329263687134 0.237691432237625122 -0.0836341679096221924
-0.407098680734634399 0.199229657649993896 0.0407785959541797638
-0.644225180149078369 0.286562412977218628 0.0935775414109230042
0.408463537693023682 -0.347560316324234009 0.136295273900032043
0.222390621900558472 0.0826952308416366577 -0.0337581299245357513
0.498492449522018433 -0.161557137966156006 0.123667456209659576
0.500271499156951904 -0.0931268706917762756 0.134580999612808228
0.215368837118148804 0.00172028935048729181 0.299299657344818115
-0.353102028369903564 -0.0685176774859428406 -0.00919703394174575806
-0.385191649198532104 0.265679836273193359 -0.0718153789639472961
0.506357252597808838 -0.347447097301483154 0.0547867082059383392
-0.356937140226364136 -0.0567181631922721863 -0.145582064986228943
0.13223731517791748 0.072452738881111145 0.321937680244445801
-0.0996755510568618774 -0.265966176986694336 0.0059399828314781189
0.242437452077865601 0.0231419634073972702 0.321737855672836304
-0.480273932218551636 -0.0120633691549301147 0.185223907232284546
0.242484763264656067 0.0481322631239891052 0.316911846399307251
-0.277948468923568726 0.332394897937774658 0.0404616668820381165
0.369788974523544312 -0.031129792332649231 -0.0401501059532165527
0.520048916339874268 -0.348387449979782104 -0.0364636741578578949
0.293295323848724365 -0.0122034242376685143 0.0368052273988723755
-0.643912911415100098 0.28448072075843811 0.0924249812960624695
0.0358139984309673309 0.136492252349853516 0.0848635435104370117
-0.397386461496353149 -0.0579957626760005951 0.125774949789047241
-0.441334396600723267 -0.0385870449244976044 0.131217300891876221
0.52372431755065918 -0.317978739738464355 -0.0656108185648918152
0.422298043966293335 -0.280293196439743042 0.331084311008453369
0.509522616863250732 -0.345342040061950684 0.0569545216858386993
0.403721779584884644 -0.259160339832305908 0.323492377996444702
-0.480174511671066284 0.0177007466554641724 0.176606878638267517
0.235537827014923096 0.0683181807398796082 0.314301818609237671
-0.479345083236694336 -0.0087198866531252861 0.167255684733390808
0.239161357283592224 0.0673273354768753052 0.314704835414886475
0.388146489858627319 0.0257248729467391968 0.105782538652420044
0.219460591673851013 -0.316394507884979248 0.310255587100982666
0.382973253726959229 0.0426322706043720245 0.0688168779015541077
0.462657511234283447 0.010462573729455471 0.17485027015209198
0.399346441030502319 -0.258951485157012939 0.327066749334335327
-0.49948766827583313 0.0207787137478590012 0.180830389261245728
-0.573271036148071289 0.265929281711578369 0.359828650951385498
-0.664337396621704102 0.229563161730766296 0.0217593759298324585
-0.14908263087272644 0.275064677000045776 0.0788046643137931824
0.521905839443206787 -0.335572928190231323 -0.322776556015014648
-0.220170468091964722 0.31533929705619812 0.0964973941445350647
0.49974513053894043 -0.346930950880050659 0.0668447390198707581
-0.189528182148933411 0.3024444580078125 0.114509738981723785
0.313555985689163208 -0.130446702241897583 0.300547689199447632
0.225074931979179382 -0.0354949459433555603 0.304952949285507202
0.0572746507823467255 -0.331164807081222534 0.291248857975006104
0.435091137886047363 -0.280329108238220215 0.332596004009246826
0.408815711736679077 -0.286126941442489624 0.330764740705490112
0.385531246662139893 -0.266152471303939819 0.318642467260360718
0.397267132997512817 -0.385159850120544434 -0.225886806845664978
-0.162056893110275269 0.278090327978134155 0.128355711698532104
0.380615532398223877 0.0436562485992908478 0.0767589136958122253
0.390660732984542847 -0.256108015775680542 0.318648755550384521
-0.50020599365234375 0.0240626633167266846 0.185666933655738831
0.499456197023391724 -0.326444357633590698 -0.313409805297851562
0.380442827939987183 -0.37644389271736145 -0.216504588723182678
0.520971000194549561 -0.34980049729347229 -0.325176090002059937
0.520530104637145996 -0.348938256502151489 -0.322115540504455566
0.513151645660400391 -0.320175528526306152 -0.318747043609619141
0.254872977733612061 -0.222736477851867676 0.0572441257536411285
0.185892611742019653 -0.142682343721389771 -0.105898588895797729
0.507645905017852783 -0.320632576942443848 0.02899889275431633
-0.46937251091003418 -0.0123180607333779335 0.180916190147399902
0.496043294668197632 -0.349486589431762695 -0.310076504945755005
0.521312594413757324 -0.328054726123809814 -0.322250664234161377
0.475848972797393799 -0.320756196975708008 -0.303364425897598267
-0.340995103120803833 0.229483261704444885 -0.044544655829668045
0.201744943857192993 0.132560327649116516 0.111904673278331757
-0.172553956508636475 0.0218507330864667892 0.0253383107483386993
0.265500754117965698 -0.16617138683795929 0.00576650025323033333
0.544548571109771729 -0.328749746084213257 -0.0480952784419059753
-0.456254094839096069 -0.0535330846905708313 0.162031605839729309
0.469540148973464966 -0.35657915472984314 -0.307415634393692017
0.478291928768157959 -0.270300030708312988 -0.301851809024810791
0.467152237892150879 -0.362388879060745239 -0.308504492044448853
-0.319977283477783203 0.266288340091705322 0.011256619356572628
0.0331835150718688965 0.0983103513717651367 0.128206044435501099
-0.284591376781463623 -0.100572332739830017 -0.0875731036067008972
-0.61657559871673584 0.216619491577148438 -0.104907490313053131
0.244385048747062683 0.104223087430000305 -0.0300669949501752853
0.466109603643417358 -0.235564932227134705 -0.228827565908432007
-0.293835610151290894 -0.0890204906463623047 -0.0961202159523963928
0.248956844210624695 -0.276247292757034302 0.322370648384094238
0.222007676959037781 0.0665872395038604736 -0.0282218493521213531
-0.250880330801010132 -0.130684614181518555 -0.0557081066071987152
-0.21140405535697937 0.301687717437744141 0.148422762751579285
0.339688479900360107 -0.140892714262008667 0.318102657794952393
0.529524385929107666 -0.356985539197921753 0.0694290250539779663
-0.599593937397003174 0.356279581785202026 0.0602935291826725006
-0.346252918243408203 -0.0562431514263153076 -0.143823027610778809
-0.432591021060943604 0.157179594039916992 -0.0848065689206123352
0.526420950889587402 -0.332115292549133301 0.0201309900730848312
0.527999520301818848 -0.288379967212677002 -0.07041206955909729
-0.498687744140625 0.142241060733795166 -0.254005610942840576
0.146538570523262024 0.156503692269325256 0.0584723539650440216
0.253188014030456543 -0.0079199913889169693 0.327417641878128052
0.349827885627746582 -0.147478997707366943 0.320340752601623535
0.442111611366271973 -0.32295525074005127 -0.22963424026966095
-0.224117636680603027 -0.140490397810935974 -0.0540275722742080688
0.522346615791320801 -0.350613504648208618 0.0966967865824699402
-0.645830869674682617 0.25312429666519165 0.0237891636788845062
0.393018186092376709 -0.280426263809204102 0.322095125913619995
-0.474554777145385742 -0.0102653922513127327 0.16470038890838623
0.224222451448440552 -0.325398474931716919 0.318858057260513306
-0.363620728254318237 -0.121644936501979828 0.130210608243942261
-0.238562062382698059 -0.141121774911880493 -0.0541536100208759308
-0.113967053592205048 -0.0095117492601275444 -0.0169367194175720215
0.389244377613067627 -0.278696686029434204 0.320425808429718018
-0.506859004497528076 0.0108835902065038681 0.201791703701019287
0.462458908557891846 -0.297348648309707642 -0.294570624828338623
0.351170778274536133 -0.14843711256980896 0.321197360754013062
0.457708835601806641 -0.304123491048812866 -0.229099765419960022
0.0244031306356191635 -0.144125387072563171 -0.0204327143728733063
0.368790507316589355 -0.328101664781570435 0.318573623895645142
0.391469091176986694 -0.281850367784500122 0.316687792539596558
0.128421947360038757 -0.319597512483596802 -0.0973602011799812317
-0.13434523344039917 0.278166711330413818 0.117213726043701172
-0.333186835050582886 0.0941209346055984497 -0.102590881288051605
0.373878389596939087 -0.37630656361579895 -0.215059593319892883
0.519747912883758545 -0.346187382936477661 -0.322793751955032349
0.52331465482711792 -0.358456134796142578 -0.326649963855743408
-0.0684386342763900757 -0.255219995975494385 0.098693549633026123
0.325633525848388672 -0.131133735179901123 0.314521223306655884
0.42414584755897522 -0.260084390640258789 0.328094720840454102
-0.479789257049560547 0.0315341763198375702 0.19653649628162384
0.526497840881347656 -0.300041377544403076 -0.322261840105056763
0.537935376167297363 -0.292893081903457642 -0.32467418909072876
0.377673566341400146 -0.374543428421020508 -0.213769838213920593
0.371183067560195923 -0.35747876763343811 -0.213778257369995117
0.523937106132507324 -0.352053165435791016 -0.325033038854598999
0.525242805480957031 -0.36383211612701416 -0.323119401931762695
0.515408933162689209 -0.327594280242919922 -0.32011789083480835
0.479347795248031616 -0.352739512920379639 -0.312256515026092529
0.478312134742736816 -0.366012096405029297 -0.312969833612442017
-0.361601859331130981 0.310133367776870728 0.239549711346626282
-0.320712804794311523 0.1037612184882164 0.0220190733671188354
-0.447435259819030762 0.203934028744697571 -0.0405088663101196289
-0.377517104148864746 0.279029339551925659 -0.00748419808223843575
-0.0226840823888778687 -0.261113226413726807 0.143665716052055359
-0.591696262359619141 0.361150801181793213 0.0640883967280387878
0.367379099130630493 -0.373871207237243652 -0.212564706802368164
-0.124105110764503479 -0.0109605854377150536 0.00775893125683069229
0.396455585956573486 -0.353755474090576172 -0.218380466103553772
0.507252752780914307 -0.159816160798072815 0.125054314732551575
0.195461258292198181 0.124572664499282837 0.00616709794849157333
-0.0268753673881292343 0.166684627532958984 0.382770329713821411
-0.334110260009765625 -0.121489390730857849 0.100198812782764435
-0.325059264898300171 0.302588015794754028 -0.0369240641593933105
0.533961117267608643 -0.347150295972824097 0.037716500461101532
0.52521049976348877 -0.332177579402923584 0.0343863293528556824
-0.595515668392181396 0.381804764270782471 0.113264933228492737
-0.0111984983086585999 -0.144560530781745911 -0.0270564742386341095
-0.235174655914306641 0.171759858727455139 -0.00187414675019681454
-0.48544001579284668 -0.010950443334877491 0.17712363600730896
-0.277868002653121948 0.335806429386138916 0.0420112013816833496
0.51329880952835083 -0.349398583173751831 0.0969590917229652405
-0.448577702045440674 -0.0361202061176300049 0.117316961288452148
0.434227913618087769 -0.253530651330947876 0.331693679094314575
0.414706796407699585 -0.278647691011428833 0.327168464660644531
-0.468829810619354248 0.0341490060091018677 0.193470731377601624
0.502130568027496338 -0.339902579784393311 0.00784360524266958237
-0.481394797563552856 -0.00310926791280508041 0.177452042698860168
-0.377482503652572632 -0.10708366334438324 0.0928022116422653198
-0.500955343246459961 0.0219137594103813171 0.184228867292404175
0.360502690076828003 -0.287254184484481812 -0.141925215721130371
0.00144186266697943211 -0.231710299849510193 0.0899004712700843811
-0.140135392546653748 0.264868795871734619 0.0881906822323799133
-0.129456430673599243 0.254191428422927856 0.0711834356188774109
0.312457859516143799 -0.293619126081466675 -0.131294295191764832
0.428061157464981079 -0.255770623683929443 0.330193579196929932
-0.615221261978149414 0.306389182806015015 0.39211079478263855
0.410613745450973511 -0.358345538377761841 -0.226446375250816345
0.504998922348022461 -0.346910208463668823 -0.319892227649688721
0.507694900035858154 -0.352948963642120361 -0.322598546743392944
0.523480236530303955 -0.29890027642250061 -0.318684011697769165
0.509655475616455078 -0.347257733345031738 -0.32021680474281311
0.26992112398147583 -0.169682547450065613 -0.0796960443258285522
0.133807897567749023 0.120201066136360168 0.328932017087936401
0.251682460308074951 -0.285274535417556763 0.328114032745361328
0.324392080307006836 -0.120424613356590271 0.310553789138793945
0.302323013544082642 -0.204647332429885864 0.251088768243789673
0.250073045492172241 -0.00393183715641498566 0.324971050024032593
0.507151544094085693 -0.343433916568756104 0.0874959155917167664
0.241779610514640808 0.0897533446550369263 0.309855073690414429
0.462761342525482178 -0.28442797064781189 -0.23121941089630127
-0.262033849954605103 0.313698321580886841 0.0456404425203800201
0.344026923179626465 -0.14018760621547699 0.329365700483322144
0.373725593090057373 -0.364227116107940674 -0.20877094566822052
0.33757898211479187 -0.129453882575035095 0.320605635643005371
0.526398062705993652 -0.347602635622024536 -0.324035614728927612
0.524164080619812012 -0.352460294961929321 -0.326588898897171021
0.479951053857803345 -0.372724860906600952 -0.313058257102966309
-0.36002659797668457 -0.0653720349073410034 0.0827870145440101624
-0.407411932945251465 0.0882729366421699524 -0.113285638391971588
0.0141586139798164368 0.0979795455932617188 0.216970100998878479
-0.378559619188308716 -0.093600735068321228 -0.0284354351460933685
0.265491694211959839 0.0682396739721298218 -0.0919818654656410217
-0.108277007937431335 -0.0154206743463873863 0.0458472073078155518
-0.358134269714355469 -0.0924229472875595093 0.0128201283514499664
-0.290189474821090698 0.304535984992980957 0.166409701108932495
-0.355564892292022705 -0.0739502087235450745 0.0405253507196903229
-0.598380327224731445 0.294294089078903198 0.186469808220863342
0.24944835901260376 0.096619822084903717 -0.034464564174413681
0.379012137651443481 -0.355278760194778442 -0.209442928433418274
0.469627797603607178 -0.325011014938354492 0.137920141220092773
0.464356750249862671 -0.272145211696624756 -0.0930600538849830627
-0.439628660678863525 -0.0434501469135284424 0.0841403603553771973
-0.336383223533630371 -0.125155925750732422 0.127506241202354431
0.528188228607177734 -0.342221289873123169 0.0509502477943897247
0.392746925354003906 0.0469743460416793823 0.133475646376609802
-0.185758411884307861 0.31384742259979248 0.107623226940631866
-0.441584497690200806 -0.0433383099734783173 0.117713496088981628
0.537225902080535889 -0.326514214277267456 -0.0557187497615814209
-0.352843701839447021 0.306097924709320068 0.114026784896850586
0.493997275829315186 -0.34640800952911377 0.0440331175923347473
-0.575382411479949951 0.304931432008743286 0.379242122173309326
0.430797696113586426 -0.281236737966537476 0.333654224872589111
-0.477580428123474121 0.00365866348147392273 0.164038911461830139
0.52482980489730835 -0.350190937519073486 -0.00263787666335701942
-0.0674864873290061951 -0.263198971748352051 0.298383980989456177
-0.511878848075866699 0.00422080093994736671 0.187975898385047913
0.389758855104446411 -0.360705733299255371 -0.215734824538230896
-0.118365861475467682 0.254168480634689331 0.0634092763066291809
-0.50039142370223999 0.00463761854916810989 0.193162694573402405
0.426282525062561035 -0.274737328290939331 0.330585837364196777
-0.333528727293014526 0.103763073682785034 -0.118672139942646027
-0.105722628533840179 0.254042327404022217 0.0934235602617263794
0.510576128959655762 -0.342149823904037476 -0.319695025682449341
-0.612684726715087891 0.302354007959365845 0.396132558584213257
-0.50894087553024292 0.0362312644720077515 0.188492164015769958
-0.29116213321685791 -0.0896011143922805786 -0.0787784382700920105
0.509430885314941406 -0.345430135726928711 -0.321119934320449829
0.0719015449285507202 0.139150917530059814 0.0723174959421157837
0.245640873908996582 0.107074946165084839 0.321300625801086426
0.473039597272872925 -0.287192106246948242 -0.230747222900390625
0.305063635110855103 -0.314981460571289062 0.331691086292266846
0.511645376682281494 -0.350499570369720459 -0.322144061326980591
-0.315439105033874512 -0.0874223262071609497 -0.0344198867678642273
0.514257669448852539 -0.356206029653549194 -0.323108792304992676
-0.625109612941741943 0.180020257830619812 -0.0862565562129020691
-0.353602737188339233 -0.0563429705798625946 -0.144120723009109497
-0.331110179424285889 0.269210249185562134 -0.0552696548402309418
-0.177229985594749451 0.138654813170433044 0.00479812314733862877
0.54528045654296875 -0.217740774154663086 0.159094780683517456
0.0306333601474761963 0.102348275482654572 0.0651717111468315125
0.509703934192657471 -0.331362038850784302 -0.319496482610702515
0.585749387741088867 -0.325654536485671997 -0.320077687501907349
0.249549955129623413 -0.288591742515563965 0.318333029747009277
0.255543619394302368 -0.00323742185719311237 0.327910840511322021
0.301372677087783813 -0.282846331596374512 0.331206858158111572
-0.344252198934555054 -0.0912240520119667053 0.0178433787077665329
-0.374433338642120361 -0.090431511402130127 -0.0183955524116754532
-0.0655229315161705017 -0.273847401142120361 0.159276783466339111
-0.630318999290466309 0.275374233722686768 0.0758501142263412476
0.366467714309692383 -0.366052687168121338 -0.212343513965606689
-0.124449238181114197 -0.0295023135840892792 -0.00680522434413433075
-0.598389744758605957 0.342054158449172974 0.0904338806867599487
0.443830937147140503 -0.249876141548156738 -0.286387473344802856
0.382522046566009521 -0.348526537418365479 -0.212209597229957581
