ply
format ascii 1.0
element vertex 739
property float x
property float y
property float z
end_header
0.509787678718566895 -0.15147031843662262 0.115456677973270416
0.497148394584655762 -0.263870686292648315 -0.304044872522354126
0.458296149969100952 -0.280830264091491699 -0.289401620626449585
0.44126167893409729 -0.264912873506546021 -0.283352583646774292
-0.588049530982971191 0.357652723789215088 0.0621928423643112183
0.505383610725402832 -0.126793786883354187 0.124880030751228333
-0.206262141466140747 0.312601000070571899 0.109311677515506744
0.268614590167999268 -0.284036815166473389 0.319608241319656372
0.232805401086807251 0.00354021857492625713 0.318354278802871704
0.513512372970581055 -0.175623461604118347 -0.281396478414535522
-0.115053549408912659 0.0100070089101791382 0.00639334926381707191
0.404259473085403442 -0.359612196683883667 -0.224311813712120056
0.417934536933898926 -0.313255906105041504 0.144203394651412964
-0.555548191070556641 0.376660048961639404 0.187313288450241089
-0.17567722499370575 0.309263110160827637 0.11899363249540329
-0.389741122722625732 0.276226967573165894 -0.0845622867345809937
0.36540183424949646 0.0518441870808601379 0.0250856913626194
0.12936188280582428 0.115722134709358215 0.319385141134262085
-0.286299675703048706 -0.100396871566772461 -0.0915653035044670105
0.258277207612991333 0.100954160094261169 -0.0615497119724750519
-0.361090689897537231 -0.0596227012574672699 -0.143672749400138855
0.134319871664047241 0.113680742681026459 0.338328897953033447
-0.563048243522644043 0.199539616703987122 -0.228632509708404541
-0.276427716016769409 0.28816339373588562 -0.000364401465049013495
0.455204904079437256 -0.246403723955154419 -0.287939012050628662
0.460557132959365845 -0.27536165714263916 -0.290468156337738037
-0.634864985942840576 0.308335572481155396 0.17087554931640625
0.512748241424560547 -0.317454278469085693 -0.0381620749831199646
0.469255268573760986 -0.265758246183395386 -0.297596454620361328
0.478472232818603516 -0.294973522424697876 -0.299878120422363281
0.458460390567779541 -0.24618685245513916 -0.289510846138000488
0.381507009267807007 -0.36094897985458374 -0.213499307632446289
-0.479320257902145386 -0.012411896139383316 0.186364829540252686
-0.516521632671356201 0.365933358669281006 0.174590542912483215
-0.618497133255004883 0.202244579792022705 -0.0867630988359451294
-0.237138092517852783 0.0189602803438901901 -0.0720601007342338562
-0.382429957389831543 -0.0588733591139316559 0.0241934079676866531
0.47517162561416626 -0.368331342935562134 0.0222292542457580566
-0.649235725402832031 0.236956045031547546 0.0326703526079654694
0.41294446587562561 -0.34668239951133728 -0.221282497048377991
0.526319146156311035 -0.337136656045913696 0.0805058404803276062
0.506323516368865967 -0.238968372344970703 -0.307707488536834717
0.249973505735397339 -0.282216042280197144 0.318666636943817139
0.239420533180236816 0.0665699690580368042 0.31513899564743042
0.539820611476898193 -0.301807224750518799 -0.0932505056262016296
-0.447736412286758423 -0.0412381105124950409 0.127028867602348328
-0.043646886944770813 0.10451921820640564 0.318338543176651001
0.248219311237335205 0.0210226885974407196 0.322687029838562012
-0.284623056650161743 -0.0995302349328994751 -0.0985855907201766968
-0.137551397085189819 -0.0149759510532021523 -0.0483314879238605499
-0.277901738882064819 0.33802446722984314 0.0475394055247306824
-0.254707843065261841 0.290060043334960938 -0.0027041151188313961
-0.218924745917320251 0.322030037641525269 0.0703985616564750671
-0.573192417621612549 0.152462422847747803 -0.0740619823336601257
-0.289957821369171143 0.292867213487625122 0.0165792200714349747
0.525883853435516357 -0.320644885301589966 0.0276131387799978256
0.346341222524642944 -0.0304834414273500443 -0.0340234972536563873
0.522515594959259033 -0.3628997802734375 0.0898372679948806763
-0.0830300524830818176 -0.111729949712753296 0.0789491757750511169
-0.404018193483352661 0.326209455728530884 0.121775820851325989
0.505045711994171143 -0.367054462432861328 -0.00406566914170980453
-0.118696466088294983 0.266200006008148193 0.121510326862335205
0.518991470336914062 -0.342938780784606934 0.0362795032560825348
0.130745664238929749 -0.334612578153610229 0.30166780948638916
0.466920346021652222 -0.311043620109558105 0.0729013755917549133
0.483168214559555054 -0.373990833759307861 0.0527562946081161499
0.4212760329246521 -0.0260557588189840317 0.0653307065367698669
0.494448035955429077 -0.363514453172683716 -0.0151166738942265511
-0.232964903116226196 0.28729364275932312 0.0846891701221466064
0.531479299068450928 -0.331737130880355835 -0.00679498724639415741
-0.271975696086883545 0.31554827094078064 0.11452542245388031
0.308451443910598755 0.00259782560169696808 0.0467729046940803528
0.467737019062042236 -0.263367354869842529 -0.295667290687561035
0.474114328622817993 -0.304324299097061157 0.114681906998157501
0.511454880237579346 -0.31360858678817749 -0.103973649442195892
0.509471476078033447 -0.245314896106719971 -0.308026939630508423
0.448282867670059204 -0.29246029257774353 -0.292360007762908936
0.466711699962615967 -0.283225029706954956 -0.296878337860107422
0.138552233576774597 0.112798385322093964 0.337268263101577759
-0.65210115909576416 0.285925239324569702 0.0984824225306510925
-0.638263165950775146 0.245044052600860596 -0.0377734079957008362
0.136570915579795837 0.0692783445119857788 0.33837774395942688
-0.577076733112335205 0.304029136896133423 -0.055124770849943161
0.262720555067062378 0.0305078346282243729 -0.0730030462145805359
0.542166471481323242 -0.216723054647445679 0.112032264471054077
-0.359899759292602539 -0.035618852823972702 -0.133874073624610901
-0.574730873107910156 0.327708512544631958 -0.0291253924369812012
-0.361592948436737061 -0.0707987025380134583 -0.0335240550339221954
-0.130209729075431824 -0.26750028133392334 0.119514890015125275
0.495418071746826172 -0.365812301635742188 4.83410549350082874e-05
0.374200254678726196 -0.359346985816955566 -0.209664538502693176
-0.378203213214874268 -0.106774166226387024 0.101789690554141998
-0.066660270094871521 -0.263976931571960449 0.296910196542739868
0.520144462585449219 -0.24326661229133606 -0.309046268463134766
0.509727060794830322 -0.330548614263534546 0.015701713040471077
-0.59336620569229126 0.369191884994506836 0.121079288423061371
-0.655290007591247559 0.17589472234249115 -0.102623142302036285
-0.222754478454589844 -0.1440325528383255 -0.0532819554209709167
-0.191258028149604797 0.316780537366867065 0.10126553475856781
0.257075995206832886 -0.283508211374282837 0.320099741220474243
0.239420622587203979 0.03221096470952034 0.319598942995071411
-0.119890660047531128 -0.0460096970200538635 0.00777443172410130501
-0.64154428243637085 0.308857977390289307 0.102348126471042633
0.365095138549804688 -0.373891323804855347 -0.206582263112068176
0.537968456745147705 -0.217748150229454041 0.16231951117515564
-0.552767515182495117 0.382665842771530151 0.158494919538497925
-0.122475214302539825 0.259417414665222168 0.115641281008720398
0.119592331349849701 0.102499417960643768 0.0899463817477226257
-0.375403821468353271 0.266068071126937866 -0.0890995636582374573
0.517150521278381348 -0.349052101373672485 0.0992058441042900085
-0.2932930588722229 -0.107014395296573639 -0.108856439590454102
0.275187075138092041 0.103003606200218201 -0.0571906380355358124
-0.575022399425506592 0.219791173934936523 -0.212248429656028748
-0.115516185760498047 0.268693655729293823 0.18033936619758606
0.236435100436210632 -0.287984013557434082 0.314787119626998901
0.310500264167785645 -0.18734528124332428 0.241458714008331299
0.542001962661743164 -0.325819253921508789 -0.020491383969783783
0.0794271379709243774 -0.337694734334945679 0.282620996236801147
-0.00608960073441267014 -0.171779647469520569 0.00468634907156229019
-0.282230585813522339 0.261914610862731934 0.00754554476588964462
0.513400495052337646 -0.237038940191268921 -0.309041827917098999
-0.646897256374359131 0.278482824563980103 0.0800095200538635254
-0.646226882934570312 0.183405473828315735 -0.0904666557908058167
0.514356553554534912 -0.322509109973907471 0.0247158166021108627
-0.40677875280380249 -0.0635022595524787903 0.113992281258106232
0.517088770866394043 -0.35568922758102417 -0.0202052891254425049
-0.566576004028320312 0.374540269374847412 0.152995631098747253
0.236166238784790039 0.0430252104997634888 0.314150601625442505
-0.664751112461090088 0.227355062961578369 0.0235474277287721634
-0.447946459054946899 -0.0383402705192565918 0.127538338303565979
0.50328141450881958 -0.302234113216400146 -0.178472727537155151
-0.589111804962158203 0.361256927251815796 0.0865686684846878052
-0.194099083542823792 0.315054506063461304 0.105383865535259247
0.247201398015022278 0.0239266436547040939 0.324281752109527588
0.531164050102233887 -0.323779374361038208 -0.0576614923775196075
-0.182843625545501709 0.307148754596710205 0.129001721739768982
0.247461631894111633 0.00700067821890115738 0.324408680200576782
0.0588408410549163818 0.139697104692459106 0.34623408317565918
-0.505598485469818115 0.149539843201637268 0.357399016618728638
0.271141678094863892 -0.31125757098197937 0.326637834310531616
-0.253576397895812988 0.0237017888575792313 -0.0702720209956169128
0.241487756371498108 -0.295298278331756592 0.322887450456619263
0.249215289950370789 0.043809354305267334 0.314877480268478394
0.468576312065124512 -0.101965263485908508 0.0350551791489124298
-0.124692760407924652 0.195212945342063904 0.115904837846755981
0.240389466285705566 -0.326617032289505005 0.318333595991134644
0.500519454479217529 -0.366594254970550537 0.0750720202922821045
0.523679971694946289 -0.324712127447128296 0.0266354642808437347
0.44495314359664917 -0.253297537565231323 0.33277854323387146
0.321801513433456421 -0.131419003009796143 -0.106256268918514252
0.0636597424745559692 -0.0107370559126138687 0.322147607803344727
0.511562168598175049 -0.36088988184928894 0.0479324087500572205
0.135976612567901611 -0.100648581981658936 0.0409571528434753418
0.0497597083449363708 0.0116038871929049492 0.0301616601645946503
0.0209900215268135071 0.0482957176864147186 0.0430348217487335205
0.0884566754102706909 -0.0660523325204849243 0.290073215961456299
-0.16175059974193573 -0.265588194131851196 0.148406118154525757
0.26518934965133667 -0.0201584193855524063 0.0619800984859466553
-0.028613746166229248 -0.0289985351264476776 0.29600408673286438
0.502477109432220459 -0.240286439657211304 -0.301625698804855347
0.47627827525138855 -0.314910739660263062 -0.30157703161239624
-0.630845606327056885 0.306485474109649658 0.167859643697738647
0.475761950016021729 -0.320839732885360718 0.121444344520568848
0.509364128112792969 -0.300835669040679932 -0.105134434998035431
0.528515815734863281 -0.274854719638824463 -0.316808640956878662
0.493884027004241943 -0.332374840974807739 -0.310331434011459351
0.503781557083129883 -0.320155352354049683 0.0984421074390411377
0.47452467679977417 -0.305745840072631836 -0.297728687524795532
-0.559232175350189209 0.268247336149215698 0.365041941404342651
0.125224217772483826 0.116854622960090637 0.314687460660934448
-0.633486807346343994 0.282453387975692749 0.0547383576631546021
-0.587301909923553467 0.363008618354797363 0.102912887930870056
0.371931284666061401 -0.37404334545135498 -0.212359651923179626
0.438799023628234863 -0.34801909327507019 0.154761984944343567
0.058336600661277771 0.121321648359298706 0.321606874465942383
-0.574515879154205322 0.369007229804992676 0.216065540909767151
0.264977514743804932 0.0246139280498027802 -0.0582058839499950409
0.369180113077163696 -0.336831897497177124 0.161034613847732544
0.510807037353515625 -0.301553994417190552 -0.111583724617958069
0.134097620844841003 -0.320580333471298218 -0.0973773226141929626
0.516865372657775879 -0.348814606666564941 -0.019860830157995224
0.389704674482345581 -0.34677085280418396 -0.213711902499198914
-0.576946139335632324 0.319290369749069214 0.0412579886615276337
0.536328315734863281 -0.277823477983474731 -0.320212841033935547
0.468240350484848022 -0.310881882905960083 -0.298865854740142822
0.507489204406738281 -0.347160279750823975 0.0183622781187295914
-0.555847287178039551 0.309922218322753906 0.102747723460197449
0.194363042712211609 -0.339365571737289429 -0.058767169713973999
0.070577770471572876 -0.282206028699874878 -0.0774911344051361084
0.252933919429779053 -0.250363796949386597 0.320570796728134155
0.24021536111831665 0.0308531858026981354 0.317376613616943359
-0.120750769972801208 -0.0478081777691841125 0.00862851645797491074
0.179120048880577087 -0.100212916731834412 -0.0143592478707432747
0.532740950584411621 -0.332342624664306641 -0.0127344625070691109
0.370787829160690308 -0.349495887756347656 -0.208492204546928406
0.535242378711700439 -0.245911329984664917 0.177728772163391113
0.561449944972991943 -0.315771877765655518 -0.330548495054244995
0.55477595329284668 -0.21178966760635376 0.134388595819473267
-0.543232440948486328 0.380965143442153931 0.165038302540779114
0.123085103929042816 0.117156565189361572 0.133626505732536316
-0.58218085765838623 0.352129161357879639 0.0983035117387771606
-0.481454461812973022 0.186127692461013794 -0.0910553783178329468
0.515933692455291748 -0.33923676609992981 0.0392729006707668304
0.25395616888999939 -0.279283434152603149 0.322385102510452271
0.278993934392929077 -0.355993837118148804 -0.125661715865135193
0.508257210254669189 -0.28663945198059082 -0.313283354043960571
-0.431920558214187622 -0.0571794360876083374 0.117215372622013092
0.202212899923324585 0.0904209688305854797 0.223863661289215088
0.24453088641166687 0.104509137570858002 -0.0567557588219642639
-0.195513248443603516 0.201565578579902649 0.349839478731155396
0.25078168511390686 0.0248135793954133987 0.323805958032608032
0.240146681666374207 0.018906591460108757 0.321497440338134766
-0.031190238893032074 0.162683293223381042 0.383178621530532837
-0.482307940721511841 -0.0156226465478539467 0.180713355541229248
0.484164923429489136 -0.369158297777175903 0.046510692685842514
-0.643422722816467285 0.287296056747436523 0.0867286249995231628
0.276363223791122437 -0.165887922048568726 -0.0700546801090240479
-0.411585479974746704 -0.0568472519516944885 0.0794278234243392944
-0.642882883548736572 0.175868168473243713 -0.0815449804067611694
-0.225601315498352051 -0.133927091956138611 -0.0517387427389621735
0.25545230507850647 -0.265696257352828979 0.32154962420463562
-0.345111370086669922 0.0173662304878234863 -0.116414904594421387
-0.286819398403167725 -0.0915237963199615479 -0.106014616787433624
-0.584917306900024414 0.21000276505947113 -0.217558681964874268
0.268119007349014282 -0.297154635190963745 0.315620601177215576
-0.0251793079078197479 -0.187314927577972412 -0.0430179126560688019
-0.617967307567596436 0.277094274759292603 0.0319094434380531311
-0.608757436275482178 0.298405885696411133 0.0930079817771911621
-0.397320598363876343 -0.0628566071391105652 0.119413994252681732
-0.451484262943267822 -0.0381680391728878021 0.120020829141139984
0.431548506021499634 -0.271927207708358765 0.329648077487945557
-0.052244093269109726 0.140774399042129517 0.0922448039054870605
-0.502865612506866455 0.151164084672927856 0.356014907360076904
0.241349205374717712 -0.319442391395568848 0.323232531547546387
0.497534126043319702 -0.370980113744735718 0.057831496000289917
0.39975428581237793 -0.257046133279800415 0.322921544313430786
-0.157889813184738159 -0.263581335544586182 0.18203948438167572
-0.498987346887588501 0.0140362847596406937 0.158633708953857422
0.418048739433288574 -0.297555297613143921 0.32918974757194519
0.535665810108184814 -0.340331375598907471 -0.0179658327251672745
0.344751209020614624 -0.267522603273391724 -0.127411440014839172
-0.496315062046051025 0.0719947069883346558 0.204547896981239319
0.444084703922271729 -0.272372305393218994 0.333877652883529663
0.522407114505767822 -0.335549652576446533 0.0332764610648155212
0.453813433647155762 -0.320017844438552856 -0.292608290910720825
0.474638670682907104 -0.311852127313613892 0.117184139788150787
0.517628014087677002 -0.278527498245239258 -0.312393367290496826
0.50308692455291748 -0.326058030128479004 -0.313896507024765015
0.518496096134185791 -0.327279776334762573 0.102406516671180725
0.479752779006958008 -0.311546236276626587 -0.301746875047683716
0.11481456458568573 0.118461810052394867 0.289550662040710449
-0.12182905524969101 0.268639504909515381 0.159351453185081482
-0.61471712589263916 0.265563428401947021 0.0526191964745521545
-0.479214727878570557 0.00304361036978662014 0.181898429989814758
0.427146285772323608 -0.355211347341537476 0.159039899706840515
-0.291987746953964233 -0.1105986088514328 -0.105280838906764984
0.130818665027618408 0.0653577521443367004 0.321743398904800415
0.254042237997055054 0.0385414659976959229 -0.0773170217871665955
0.235762059688568115 0.0937350094318389893 -0.0525801405310630798
0.418130397796630859 -0.261693745851516724 -0.201905861496925354
0.52207416296005249 -0.354812860488891602 -0.0189867746084928513
-0.608814656734466553 0.381188333034515381 0.181817486882209778
0.51797950267791748 -0.279427677392959595 -0.314316213130950928
0.499519109725952148 -0.350172281265258789 0.0245536435395479202
-0.587787389755249023 0.369380652904510498 0.113601617515087128
0.506266295909881592 -0.104919955134391785 0.147786632180213928
-0.197957605123519897 0.311588168144226074 0.113503314554691315
0.264565259218215942 -0.286741793155670166 0.320211410522460938
0.237221315503120422 0.0619667172431945801 0.311048835515975952
-0.144199252128601074 -0.0435429327189922333 0.00469660060480237007
-0.657647430896759033 0.214771345257759094 -0.0456936284899711609
-0.28830227255821228 -0.0759883970022201538 -0.0681141018867492676
0.2275523841381073 0.0420189090073108673 -0.0476638786494731903
0.551821589469909668 -0.144676759839057922 0.132540643215179443
0.520127415657043457 -0.295544177293777466 0.0753811076283454895
0.517974495887756348 -0.284208446741104126 -0.180732324719429016
-0.357843965291976929 -0.0171168725937604904 -0.0274286586791276932
0.0917109474539756775 0.0880775600671768188 0.0863031446933746338
0.467072844505310059 -0.362069696187973022 -0.0102058900520205498
-0.432787775993347168 0.157777339220046997 -0.0659606531262397766
0.524168848991394043 -0.335823565721511841 0.0693806633353233337
0.263424873352050781 -0.286110430955886841 0.318934857845306396
0.00971981231123209 -0.0910731032490730286 -0.0256395768374204636
0.0329273082315921783 -0.130484923720359802 0.0223410390317440033
-0.630623281002044678 0.265081048011779785 0.029568871483206749
0.242416128516197205 0.0741370692849159241 0.3193187415599823
0.240524753928184509 0.029377765953540802 0.319389134645462036
-0.174745291471481323 0.300858229398727417 0.116879433393478394
0.305060267448425293 -0.1514931321144104 0.308257579803466797
0.262461692094802856 -0.290911376476287842 0.321419388055801392
-0.476020157337188721 -0.00821950286626815796 0.166766434907913208
0.243043303489685059 0.081575930118560791 0.312679976224899292
0.520598649978637695 -0.351478874683380127 0.0824140161275863647
-0.0344823449850082397 -0.237694621086120605 0.124552063643932343
-0.638239920139312744 0.290074706077575684 0.0993607118725776672
-0.233918502926826477 -0.132897630333900452 -0.0575238689780235291
-0.379044860601425171 -0.108858972787857056 0.106054693460464478
-0.23612000048160553 -0.147919908165931702 -0.0573737546801567078
-0.657861292362213135 0.214463889598846436 -0.0333954133093357086
0.529230833053588867 -0.352810114622116089 0.0783572345972061157
-0.62107473611831665 0.270340502262115479 0.0530149191617965698
-0.403941184282302856 -0.0643985569477081299 0.11258668452501297
-0.446141064167022705 -0.0415563210844993591 0.122525677084922791
0.268527120351791382 -0.285804420709609985 0.323895066976547241
0.128165975213050842 -0.3267708420753479 0.313000977039337158
0.152828365564346313 -0.343265563249588013 0.318269997835159302
0.44814985990524292 -0.335777431726455688 -0.292583703994750977
0.516106247901916504 -0.303132504224777222 -0.10750308632850647
0.515602290630340576 -0.280399441719055176 -0.312412023544311523
0.485265165567398071 -0.327826917171478271 -0.309379398822784424
0.464758783578872681 -0.346038788557052612 -0.30225709080696106
0.549924552440643311 -0.210364401340484619 -0.315557092428207397
0.524468064308166504 -0.30018317699432373 -0.322065591812133789
0.518337130546569824 -0.300995528697967529 -0.317961633205413818
0.247148975729942322 0.0568536221981048584 0.316907376050949097
0.241607591509819031 0.0873306021094322205 0.313248962163925171
-0.291441649198532104 -0.100600451231002808 -0.101402856409549713
-0.453393250703811646 -0.0520366057753562927 0.117617182433605194
0.405229032039642334 -0.272467613220214844 0.322963923215866089
-0.502240896224975586 0.00372777995653450489 0.189679741859436035
0.401530355215072632 -0.287446349859237671 0.325276076793670654
0.399673491716384888 -0.273762971162796021 0.323757916688919067
0.342648178339004517 -0.259137332439422607 0.0905637145042419434
-0.0183776207268238068 -0.244490429759025574 0.129122674465179443
-0.464357078075408936 0.0359378494322299957 0.190108016133308411
-0.194305628538131714 0.221569240093231201 0.172624006867408752
0.367273420095443726 -0.329436630010604858 -0.0230698809027671814
0.323886334896087646 -0.390243768692016602 -0.158462762832641602
0.535754084587097168 -0.323786795139312744 -0.0577622577548027039
-0.441598862409591675 -0.00478109484538435936 0.1532469242811203
-0.0188231896609067917 -0.0596280954778194427 0.142228275537490845
0.000171524123288691044 -0.236224889755249023 0.106844589114189148
0.526505947113037109 -0.201962679624557495 -0.0795632824301719666
0.45019996166229248 -0.30846211314201355 -0.292464733123779297
0.527188539505004883 -0.275557577610015869 -0.315263360738754272
0.500283718109130859 -0.325008392333984375 -0.312266111373901367
0.475603580474853516 -0.305175483226776123 -0.296981066465377808
-0.127381235361099243 0.246601715683937073 0.139530569314956665
-0.648942053318023682 0.282101839780807495 0.09474191814661026
-0.198862016201019287 0.286637544631958008 0.336478292942047119
0.498241662979125977 -0.0869348570704460144 0.13715517520904541
0.201232418417930603 -0.35928422212600708 -0.0903932154178619385
0.505764603614807129 -0.367837101221084595 -0.0222497992217540741
0.527563929557800293 -0.242857456207275391 0.173431694507598877
-0.585942506790161133 0.379406750202178955 0.171206653118133545
0.445420593023300171 -0.315055817365646362 -0.287339955568313599
0.498829573392868042 -0.111294902861118317 0.112663939595222473
-0.655668437480926514 0.175578802824020386 -0.103320129215717316
-0.201929524540901184 0.308788895606994629 0.089714445173740387
0.201649829745292664 -0.0137825002893805504 0.295750796794891357
0.160368040204048157 -0.0622790828347206116 -0.0435833819210529327
-0.579470276832580566 0.302298933267593384 0.369253367185592651
0.275278836488723755 0.0982334911823272705 -0.0286152083426713943
-0.43515285849571228 0.155483558773994446 -0.085488639771938324
0.534763693809509277 -0.3332023024559021 0.0132110342383384705
-0.56862717866897583 0.197454854846000671 -0.228644013404846191
-0.497482120990753174 0.0450545176863670349 -0.0863440483808517456
0.0317709073424339294 -0.10409245640039444 0.0334993675351142883
0.534434080123901367 -0.264596372842788696 -0.31590762734413147
0.00991944130510091782 0.197609111666679382 0.0281225275248289108
0.30243682861328125 0.0387414358556270599 -0.083994746208190918
-0.331929862499237061 -0.015953846275806427 -0.107179336249828339
0.23681245744228363 0.0142637435346841812 0.32230144739151001
0.125395491719245911 0.0128369675949215889 0.299459666013717651
0.527850985527038574 -0.355326563119888306 0.0668027997016906738
0.467482149600982666 -0.309959858655929565 -0.232698827981948853
-0.651922643184661865 0.28544151782989502 0.104851119220256805
0.546876668930053711 -0.220132976770401001 0.163997814059257507
0.528367578983306885 -0.323524236679077148 -0.0155791305005550385
-0.38276025652885437 -0.0563867539167404175 0.0767643973231315613
0.457317560911178589 -0.310943573713302612 -0.292162150144577026
0.505361020565032959 -0.339929491281509399 -0.317504763603210449
0.479221969842910767 -0.314422398805618286 -0.29910588264465332
0.520742893218994141 -0.301400274038314819 -0.316925853490829468
-0.00187834165990352631 -0.140047401189804077 -0.0243210271000862122
0.398008346557617188 -0.273320943117141724 0.323932766914367676
0.401676028966903687 -0.271748095750808716 0.324238747358322144
0.506451070308685303 -0.332138657569885254 0.106331564486026764
-0.467357814311981201 0.0424793623387813568 0.171220257878303528
0.410485178232192993 -0.346029549837112427 0.157059431076049805
-0.360509485006332397 -0.0352252274751663208 -0.147578716278076172
-0.127744376659393311 -0.267738670110702515 0.112877756357192993
0.512976586818695068 -0.36917579174041748 -0.0141923539340496063
-0.213554173707962036 0.312592893838882446 0.0982482582330703735
0.251131594181060791 -0.287251085042953491 0.323358654975891113
0.209285125136375427 0.00931274518370628357 -0.0456013381481170654
0.0704108849167823792 -0.151589974761009216 -0.0167402699589729309
-0.169587001204490662 0.304810076951980591 0.119443841278553009
0.47152256965637207 -0.364490926265716553 0.00751890195533633232
-0.290561884641647339 -0.0993907824158668518 -0.102659985423088074
0.0368986055254936218 -0.149741694331169128 -0.021205531433224678
0.232522830367088318 0.0560838319361209869 0.309732019901275635
0.253937512636184692 -0.288812905550003052 0.32114022970199585
-0.471443474292755127 0.0011732450220733881 0.169233351945877075
0.241336226463317871 0.0625392943620681763 0.313631802797317505
0.509343445301055908 -0.352169841527938843 0.0644502639770507812
0.227977707982063293 -0.314953476190567017 0.315039873123168945
-0.37505573034286499 -0.093110598623752594 0.0867408439517021179
-0.0621564202010631561 -0.241701230406761169 0.303030788898468018
-0.222270011901855469 -0.127641111612319946 -0.0525835342705249786
-0.409557461738586426 -0.0654098913073539734 0.099078647792339325
-0.444682300090789795 -0.044680573046207428 0.133299738168716431
0.23952755331993103 -0.29419255256652832 0.314915567636489868
0.154494062066078186 -0.324472576379776001 0.320585310459136963
0.425793051719665527 -0.256233692169189453 0.329091578722000122
0.438710570335388184 -0.343003988265991211 -0.292238384485244751
0.506777822971343994 -0.334631234407424927 -0.31764906644821167
0.445558398962020874 -0.35235220193862915 -0.28629601001739502
0.238600239157676697 0.0656034946441650391 0.312912195920944214
0.403756767511367798 -0.287675142288208008 0.326400667428970337
-0.49446713924407959 0.00675953226163983345 0.188966259360313416
0.486083865165710449 -0.0633694753050804138 0.13228549063205719
0.0130254132673144341 -0.170778036117553711 0.0103584807366132736
0.531951606273651123 -0.307720303535461426 -0.0617261976003646851
0.315339773893356323 -0.302348792552947998 -0.12634846568107605
0.44638177752494812 -0.291395992040634155 -0.285197824239730835
-0.336640357971191406 0.224764391779899597 0.126333355903625488
-0.400487899780273438 -0.0281059835106134415 -0.00134116574190557003
0.403660744428634644 -0.271890997886657715 0.324622392654418945
-0.132987648248672485 0.195792019367218018 0.168359741568565369
0.399712711572647095 -0.271827667951583862 0.324435055255889893
-0.446153074502944946 -0.0248775910586118698 0.0219805855304002762
-0.137689858675003052 0.244862422347068787 0.192321538925170898
-0.61248546838760376 0.294152706861495972 0.184335067868232727
0.124939508736133575 0.115986406803131104 0.317275971174240112
-0.120636142790317535 0.250600606203079224 0.162455558776855469
-0.583003222942352295 0.34830009937286377 0.0587097667157649994
0.427384108304977417 -0.348202735185623169 0.153545781970024109
-0.566402792930603027 0.295242369174957275 -0.0684492215514183044
0.252310574054718018 0.0266703106462955475 -0.0790454596281051636
0.248052150011062622 0.100353136658668518 -0.0477980524301528931
-0.356974691152572632 -0.0555771254003047943 -0.141317293047904968
0.199075445532798767 0.120179846882820129 0.0363355539739131927
0.545943021774291992 -0.131617769598960876 0.112540051341056824
-0.58130180835723877 0.321929305791854858 -0.0222956333309412003
0.206590548157691956 0.0245990995317697525 0.177413821220397949
-0.595027029514312744 0.375282645225524902 0.172618523240089417
0.44533240795135498 -0.319287717342376709 0.127886027097702026
0.255734890699386597 -0.278778761625289917 0.31698685884475708
0.236020728945732117 0.0237023010849952698 0.3171500563621521
-0.362440794706344604 -0.0496221184730529785 -0.0232073962688446045
-0.182242348790168762 0.118220463395118713 0.0429089553654193878
0.255453646183013916 -0.288217425346374512 0.319801002740859985
0.242449238896369934 0.0330778509378433228 0.322416037321090698
0.400237470865249634 0.0232919007539749146 0.115734361112117767
-0.340001553297042847 -0.0659309104084968567 -0.146764710545539856
0.076487906277179718 -0.332944303750991821 0.299457371234893799
-0.386283844709396362 -0.0606393255293369293 0.0943976268172264099
-0.447717845439910889 -0.0411539450287818909 0.12830941379070282
0.439942359924316406 -0.279358506202697754 0.334162384271621704
0.0350356884300708771 -0.122795775532722473 -0.0251092482358217239
0.414922386407852173 -0.280810654163360596 0.327502220869064331
0.433627128601074219 -0.296106815338134766 0.333661705255508423
0.368510127067565918 -0.278652787208557129 -0.129809364676475525
-0.476973563432693481 0.00161077443044632673 0.188936144113540649
-0.290977001190185547 -0.0961001366376876831 -0.103991605341434479
0.242085307836532593 -0.312979966402053833 0.310159206390380859
0.473743796348571777 -0.35421222448348999 0.00753007363528013229
-0.295810937881469727 -0.0963492840528488159 -0.106446444988250732
0.245433226227760315 -0.288564890623092651 0.320554196834564209
0.0630214661359786987 -0.329643666744232178 0.297543227672576904
0.158675730228424072 -0.267656803131103516 -0.105055518448352814
0.250630646944046021 0.0633482486009597778 0.316056698560714722
-0.482044070959091187 -0.00773863168433308601 0.178535386919975281
0.236771702766418457 0.0665197297930717468 0.315413892269134521
0.239433914422988892 -0.331785738468170166 0.321883440017700195
-0.381725400686264038 -0.0917906016111373901 0.0372933484613895416
-0.215526282787322998 -0.139877200126647949 -0.0538213513791561127
-0.382185369729995728 -0.0634457170963287354 0.0841121822595596313
0.150710240006446838 -0.331582814455032349 0.332372546195983887
0.446459442377090454 -0.279890209436416626 0.334087014198303223
0.408038198947906494 -0.280521869659423828 0.325613886117935181
-0.501552999019622803 0.00674222642555832863 0.189279019832611084
-0.321448594331741333 0.0974205732345581055 -0.0696844756603240967
0.533003091812133789 -0.207499802112579346 -0.0521374717354774475
0.451572895050048828 -0.293833673000335693 -0.290087342262268066
0.488023251295089722 -0.325178861618041992 -0.310509234666824341
0.44702380895614624 -0.309676796197891235 -0.290453851222991943
-0.577315568923950195 0.269302308559417725 0.366441071033477783
-0.460947513580322266 0.10602831095457077 -0.230476602911949158
0.375472038984298706 -0.318692028522491455 0.199568301439285278
-0.58939594030380249 0.367043733596801758 0.131829127669334412
0.39320749044418335 -0.353391170501708984 -0.217084705829620361
0.441723227500915527 -0.310219436883926392 -0.288663268089294434
-0.200313180685043335 0.305514335632324219 0.0955757498741149902
-0.155144929885864258 0.267982512712478638 0.152272224426269531
0.530326426029205322 -0.338454246520996094 0.0722975358366966248
0.464401423931121826 -0.266097694635391235 -0.217257454991340637
-0.633100509643554688 0.275840282440185547 0.107612699270248413
0.43904566764831543 -0.308512091636657715 -0.286833792924880981
0.516043782234191895 -0.277142435312271118 -0.316463440656661987
0.517176389694213867 -0.340283393859863281 -0.320385277271270752
0.454981148242950439 -0.306991875171661377 -0.292888939380645752
0.491441398859024048 -0.321942538022994995 0.0948588848114013672
0.0212853588163852692 -0.275711983442306519 -0.0180957373231649399
-0.653598546981811523 0.172116279602050781 -0.107598528265953064
-0.224350690841674805 0.318615049123764038 0.121976137161254883
0.46592286229133606 -0.364096224308013916 0.00635657832026481628
0.481626003980636597 -0.336820244789123535 0.0507399179041385651
0.512081801891326904 -0.33934357762336731 -0.319044560194015503
0.440822631120681763 -0.356501966714859009 -0.297252148389816284
-0.269652724266052246 0.322110384702682495 0.0424912087619304657
0.424776345491409302 -0.313233941793441772 -0.281528502702713013
0.416128009557723999 -0.295266240835189819 0.328946292400360107
-0.325568974018096924 -0.0752748772501945496 0.124044500291347504
-0.366364210844039917 -0.0665958225727081299 0.155257269740104675
-0.337889492511749268 0.214928686618804932 0.133469909429550171
0.0104961097240447998 0.119400382041931152 0.105726860463619232
0.542545795440673828 -0.309192627668380737 -0.0457554906606674194
0.0143002951517701149 -0.261710196733474731 0.0399954728782176971
-0.00289680040441453457 -0.236497446894645691 0.0947551876306533813
0.000853558420203626156 -0.219536259770393372 0.0820180699229240417
0.465500175952911377 -0.360954642295837402 0.0307614132761955261
-0.268806427717208862 -0.137916728854179382 0.178041800856590271
-0.344565421342849731 -0.0657700672745704651 0.141844838857650757
0.124131724238395691 -0.276654452085494995 0.129458695650100708
-0.133412286639213562 0.0788464024662971497 0.0908681824803352356
0.463932722806930542 -0.0544600449502468109 0.0180702731013298035
-0.013485986739397049 -0.216845884919166565 0.080860137939453125
-0.554384291172027588 0.391742706298828125 0.148358523845672607
0.497168868780136108 -0.366823256015777588 0.00568960234522819519
-0.610314249992370605 0.294149994850158691 0.187139704823493958
0.530567526817321777 -0.275206387042999268 -0.317299455404281616
0.370956063270568848 -0.264655351638793945 0.181995809078216553
0.420940756797790527 -0.344518125057220459 0.151312023401260376
0.252438634634017944 0.0391671434044837952 -0.066172674298286438
0.549853682518005371 -0.1500081866979599 0.124726846814155579
-0.570145368576049805 0.284199148416519165 -0.0058027142658829689
0.501434862613677979 -0.362674027681350708 -0.000840954540763050318
0.20861564576625824 0.115639477968215942 -0.0099166547879576683
-0.288644403219223022 -0.0854947715997695923 -0.0658412128686904907
0.159762278199195862 -0.0832426100969314575 -0.035669766366481781
-0.339410096406936646 -0.105336844921112061 0.141876101493835449
0.511587738990783691 -0.281370788812637329 -0.312816649675369263
-0.338753640651702881 -0.0795078948140144348 0.039197772741317749
-0.368969082832336426 0.280889749526977539 -0.0619722642004489899
0.510363519191741943 -0.341024279594421387 0.0655765235424041748
0.302875131368637085 -0.205982372164726257 0.248374581336975098
0.543289124965667725 -0.31207624077796936 -0.0603068061172962189
0.141986235976219177 0.0694213658571243286 0.336913764476776123
-0.594468891620635986 0.267672032117843628 0.0127737307921051979
0.222468525171279907 -0.00718474620953202248 0.296086132526397705
0.231292575597763062 0.0342365726828575134 0.313287228345870972
0.533998370170593262 -0.319689810276031494 -0.0123455943539738655
-0.388814926147460938 -0.0638520345091819763 0.106362931430339813
-0.44706156849861145 -0.0400060117244720459 0.127161219716072083
0.496352136135101318 -0.0914440527558326721 0.154949858784675598
0.251298308372497559 0.0630251392722129822 0.317174345254898071
-0.290737658739089966 -0.0926753506064414978 0.30828210711479187
-0.366012215614318848 -0.114623479545116425 0.104647740721702576
-0.562966287136077881 0.127455770969390869 -0.0778624564409255981
-0.501023709774017334 0.0235883407294750214 0.187327116727828979
0.518644750118255615 -0.29739081859588623 -0.313654601573944092
0.473136395215988159 -0.328292518854141235 -0.299512594938278198
-0.573849678039550781 0.268968284130096436 0.363367557525634766
-0.570806920528411865 0.355027228593826294 0.167695298790931702
-0.191396906971931458 0.304762095212936401 0.101936839520931244
-0.66164863109588623 0.239931598305702209 0.0422645732760429382
-0.50443875789642334 0.144506886601448059 0.35400041937828064
0.507669627666473389 -0.347211539745330811 -0.317942649126052856
-0.200223430991172791 0.305096805095672607 0.102597199380397797
0.47564283013343811 -0.35773959755897522 0.00511561986058950424
0.510246992111206055 -0.33084222674369812 0.0668537765741348267
-0.610336720943450928 0.367732703685760498 0.0884186998009681702
-0.562102675437927246 0.28846016526222229 -0.0553442016243934631
0.220392242074012756 0.0101756704971194267 0.309616923332214355
0.240957975387573242 0.00500584207475185394 0.322074234485626221
-0.359026163816452026 -0.0567222610116004944 -0.137312948703765869
0.399835348129272461 -0.252898693084716797 0.32236751914024353
0.40014311671257019 -0.263270735740661621 0.32511746883392334
0.224704667925834656 -0.324240893125534058 0.321114659309387207
0.411622762680053711 -0.268011778593063354 0.325538277626037598
-0.508669555187225342 0.0495554134249687195 0.195922940969467163
-0.630770683288574219 0.156670033931732178 -0.0520526282489299774
-0.501413583755493164 0.147073745727539062 0.345973938703536987
0.521465778350830078 -0.350770920515060425 -0.322686076164245605
0.495806783437728882 -0.348463594913482666 0.000638212834019213915
-0.197397470474243164 0.0162261277437210083 -0.0493832193315029144
-0.5573691725730896 0.341941863298416138 -0.00510611990466713905
0.489023745059967041 -0.360599011182785034 0.0414631552994251251
0.449558049440383911 -0.0743787959218025208 0.00238420488312840462
-0.555912017822265625 0.385349184274673462 0.158481448888778687
0.375064492225646973 -0.0813116058707237244 -0.119514025747776031
-0.389347583055496216 0.319707542657852173 0.169472545385360718
-0.384307503700256348 0.328266233205795288 0.19817216694355011
-0.363746523857116699 0.238154709339141846 -0.0828811675310134888
-0.406899482011795044 0.199638307094573975 0.0415354259312152863
-0.644050896167755127 0.286973327398300171 0.0942504927515983582
0.409110784530639648 -0.347388952970504761 0.136831238865852356
0.222721204161643982 0.0827916413545608521 -0.0330628789961338043
0.498966306447982788 -0.161449164152145386 0.124251537024974823
0.500683844089508057 -0.0930518731474876404 0.13518109917640686
0.215809434652328491 0.00173072516918182373 0.299948453903198242
-0.352625429630279541 -0.068038448691368103 -0.00850586593151092529
-0.385000437498092651 0.266149848699569702 -0.0710620731115341187
0.506934165954589844 -0.347244054079055786 0.0553269200026988983
-0.356445491313934326 -0.0561845414340496063 -0.144905298948287964
0.132610246539115906 0.0724849402904510498 0.322643518447875977
-0.0989564880728721619 -0.265549153089523315 0.00658466527238488197
0.242855250835418701 0.0231465175747871399 0.322384864091873169
-0.479907035827636719 -0.0116643691435456276 0.185918524861335754
0.242869630455970764 0.0481358319520950317 0.317573219537734985
-0.277821183204650879 0.332785606384277344 0.0412752032279968262
0.370229095220565796 -0.0310308244079351425 -0.0395381823182106018
0.52062457799911499 -0.348146319389343262 -0.035932295024394989
0.293699502944946289 -0.0121289342641830444 0.0374473929405212402
-0.643737435340881348 0.284891903400421143 0.093097589910030365
0.036076672375202179 0.136622399091720581 0.0856348723173141479
-0.396942347288131714 -0.0575636550784111023 0.126463651657104492
-0.440919190645217896 -0.0381606742739677429 0.131904333829879761
0.524289608001708984 -0.317732930183410645 -0.0650764405727386475
0.422978460788726807 -0.280201375484466553 0.331602990627288818
0.510096132755279541 -0.345139533281326294 0.0574956424534320831
0.404393792152404785 -0.259075790643692017 0.324013769626617432
-0.479825407266616821 0.0180917941033840179 0.17730829119682312
0.235897526144981384 0.0683225393295288086 0.31497645378112793
-0.478969752788543701 -0.00831597205251455307 0.167948111891746521
0.239522024989128113 0.0673309937119483948 0.315377771854400635
0.388486117124557495 0.0257584173232316971 0.10641828179359436
0.220223888754844666 -0.316239863634109497 0.310774385929107666
0.383303076028823853 0.0426741279661655426 0.0694596618413925171
0.462987273931503296 0.0104822209104895592 0.17548041045665741
0.40002131462097168 -0.258867591619491577 0.327586859464645386
-0.499135047197341919 0.021168367937207222 0.181528612971305847
-0.573042929172515869 0.266243517398834229 0.360590070486068726
-0.664109230041503906 0.229997366666793823 0.0224045440554618835
-0.148917883634567261 0.275335013866424561 0.0796250924468040466
0.522502541542053223 -0.335194021463394165 -0.322299748659133911
-0.220038130879402161 0.315665394067764282 0.0973228141665458679
0.500326752662658691 -0.346733987331390381 0.0673855692148208618
-0.18939034640789032 0.302738159894943237 0.115337714552879333
0.314133107662200928 -0.130398809909820557 0.301114469766616821
0.225560188293457031 -0.0354705862700939178 0.305579930543899536
0.0580697916448116302 -0.330914676189422607 0.291790127754211426
0.435765475034713745 -0.280237138271331787 0.333117306232452393
0.409507453441619873 -0.286033183336257935 0.331278979778289795
0.386217683553695679 -0.266064822673797607 0.319159269332885742
0.397959411144256592 -0.384832888841629028 -0.225383400917053223
-0.161898881196975708 0.278354108333587646 0.129180490970611572
0.380943030118942261 0.0436958260834217072 0.0774028077721595764
0.39133569598197937 -0.25602385401725769 0.319169580936431885
-0.499854892492294312 0.0244495254009962082 0.186366453766822815
0.500066459178924561 -0.326077282428741455 -0.312928050756454468
0.381143897771835327 -0.376125186681747437 -0.215994000434875488
0.521572232246398926 -0.349416911602020264 -0.32470250129699707
0.521131515502929688 -0.3485565185546875 -0.321641057729721069
0.513750255107879639 -0.319804608821868896 -0.318266183137893677
0.255485236644744873 -0.22255939245223999 0.0578389503061771393
0.18648800253868103 -0.142450705170631409 -0.105265185236930847
0.508211612701416016 -0.320428520441055298 0.0295424982905387878
-0.469000786542892456 -0.0119185131043195724 0.181611567735671997
0.496663451194763184 -0.349115848541259766 -0.309598654508590698
0.521907687187194824 -0.327678173780441284 -0.321772366762161255
0.47647404670715332 -0.320399969816207886 -0.302877664566040039
-0.340778559446334839 0.229916483163833618 -0.0437768809497356415
0.201980218291282654 0.132617264986038208 0.112638011574745178
-0.172135740518569946 0.0221641436219215393 0.02608504518866539
0.26607513427734375 -0.166011452674865723 0.0063735288567841053
0.545099377632141113 -0.328502625226974487 -0.0475600101053714752
-0.455819547176361084 -0.0531098842620849609 0.162712037563323975
0.470181524753570557 -0.356212735176086426 -0.306937038898468018
0.478900432586669922 -0.269959062337875366 -0.301357239484786987
0.467797338962554932 -0.362020820379257202 -0.308027446269989014
-0.319806039333343506 0.266694396734237671 0.0120472954586148262
0.0334854274988174438 0.0984285846352577209 0.128965124487876892
-0.284037381410598755 -0.100043296813964844 -0.0868690311908721924
-0.616324365139007568 0.217090636491775513 -0.104279130697250366
0.244692668318748474 0.104310780763626099 -0.0293712690472602844
0.466700464487075806 -0.235279977321624756 -0.228304862976074219
-0.293297231197357178 -0.0884995907545089722 -0.0954214856028556824
0.249692052602767944 -0.276124775409698486 0.322892129421234131
0.222352847456932068 0.0666842088103294373 -0.0275318995118141174
-0.250299274921417236 -0.130201682448387146 -0.0550241917371749878
-0.211263999342918396 0.301985174417495728 0.14925132691860199
0.340273052453994751 -0.14084547758102417 0.318660527467727661
0.530086517333984375 -0.356778085231781006 0.0699706375598907471
-0.599462032318115234 0.356704562902450562 0.060990992933511734
-0.345758944749832153 -0.0557134561240673065 -0.143143445253372192
-0.432318031787872314 0.157643586397171021 -0.0840943306684494019
0.526977896690368652 -0.331899076700210571 0.0206726286560297012
0.528549790382385254 -0.288140475749969482 -0.0698720589280128479
-0.498359352350234985 0.142790108919143677 -0.253379285335540771
0.146765381097793579 0.156595394015312195 0.0592269450426101685
0.253644585609436035 -0.0079130902886390686 0.328044503927230835
0.350416898727416992 -0.147430792450904846 0.320895165205001831
0.442754864692687988 -0.322641611099243164 -0.229125544428825378
-0.223519310355186462 -0.140020444989204407 -0.0533447936177253723
0.52291417121887207 -0.350418895483016968 0.0972411707043647766
-0.645623624324798584 0.253557175397872925 0.0244420710951089859
0.393713027238845825 -0.280334025621414185 0.322608500719070435
-0.474176496267318726 -0.00986034516245126724 0.165392771363258362
0.224992692470550537 -0.325242817401885986 0.31937137246131897
-0.363097101449966431 -0.12119089812040329 0.130880296230316162
-0.237967267632484436 -0.140642315149307251 -0.0534723140299320221
-0.113503053784370422 -0.00921787228435277939 -0.0161996092647314072
0.389939785003662109 -0.278604984283447266 0.320939093828201294
-0.506489455699920654 0.0112690525129437447 0.20248761773109436
0.463089346885681152 -0.297004640102386475 -0.294078260660171509
0.351760596036911011 -0.148388862609863281 0.321751177310943604
0.458336293697357178 -0.303814500570297241 -0.22858959436416626
0.0250017549842596054 -0.143840208649635315 -0.0197582263499498367
0.369521975517272949 -0.327984094619750977 0.319076180458068848
0.392165720462799072 -0.281757384538650513 0.317200690507888794
0.129155665636062622 -0.319250017404556274 -0.096749916672706604
-0.13418908417224884 0.278414875268936157 0.118038147687911987
-0.3328399658203125 0.0945759117603302002 -0.10185898095369339
0.37458270788192749 -0.375988155603408813 -0.214547216892242432
0.52034914493560791 -0.34580618143081665 -0.322318881750106812
0.523916363716125488 -0.358069062232971191 -0.326178491115570068
-0.067739143967628479 -0.254860728979110718 0.0993246138095855713
0.32621118426322937 -0.131088435649871826 0.315084338188171387
0.424809068441390991 -0.259999513626098633 0.328619331121444702
-0.479443639516830444 0.0319130048155784607 0.19724331796169281
0.527081131935119629 -0.299670994281768799 -0.321779221296310425
0.538508713245391846 -0.292520523071289062 -0.324191689491271973
0.378376156091690063 -0.374226957559585571 -0.213257715106010437
0.371878981590270996 -0.357164770364761353 -0.213260367512702942
0.524536788463592529 -0.351668387651443481 -0.324559956789016724
0.525844573974609375 -0.363444894552230835 -0.322648286819458008
0.516008079051971436 -0.327220261096954346 -0.319638729095458984
0.479980587959289551 -0.352369964122772217 -0.31177869439125061
0.478950709104537964 -0.365638971328735352 -0.312495678663253784
-0.361472725868225098 0.310475796461105347 0.24036175012588501
-0.320410192012786865 0.104153148829936981 0.0227747466415166855
-0.447214365005493164 0.204380899667739868 -0.0397849492728710175
-0.377388119697570801 0.279474556446075439 -0.00669875135645270348
-0.0219800472259521484 -0.260796457529067993 0.144281432032585144
-0.591571450233459473 0.361574470996856689 0.0647908002138137817
0.368085145950317383 -0.373553842306137085 -0.212049737572669983
-0.123645417392253876 -0.0106677897274494171 0.00849495548754930496
0.39713674783706665 -0.353441148996353149 -0.217868044972419739
0.507719814777374268 -0.159706562757492065 0.125639781355857849
0.195731058716773987 0.124655731022357941 0.00689236866310238838
-0.0265568215399980545 0.166771590709686279 0.383537411689758301
-0.333580970764160156 -0.121032103896141052 0.100873671472072601
-0.324893981218338013 0.303028255701065063 -0.0361396856606006622
0.534516990184783936 -0.346933722496032715 0.0382574088871479034
0.525767326354980469 -0.331966698169708252 0.0349294021725654602
-0.595402956008911133 0.382212013006210327 0.11398334801197052
