ply
format ascii 1.0
element vertex 738
property float x
property float y
property float z
end_header
-0.432430744171142578 -0.0578040443360805511 0.116562716662883759
0.201886966824531555 0.0901715829968452454 0.223302632570266724
0.244166642427444458 0.104180894792079926 -0.0572454445064067841
-0.195840805768966675 0.201117664575576782 0.349120229482650757
0.250352829694747925 0.0246069654822349548 0.323300302028656006
0.239713162183761597 0.0186980664730072021 0.32098841667175293
-0.0315277576446533203 0.162350207567214966 0.382510751485824585
-0.482772499322891235 -0.0162210296839475632 0.180036813020706177
0.483511209487915039 -0.369489282369613647 0.0461621060967445374
-0.643733024597167969 0.286696165800094604 0.0859956815838813782
0.275757372379302979 -0.166237279772758484 -0.0704580321907997131
-0.412097036838531494 -0.0574850589036941528 0.0787811130285263062
-0.643282115459442139 0.175218954682350159 -0.0822002142667770386
-0.226222291588783264 -0.13456234335899353 -0.0523238256573677063
0.254741251468658447 -0.265931904315948486 0.321114867925643921
-0.345602512359619141 0.0166693590581417084 -0.117035791277885437
-0.287415862083435059 -0.0922215729951858521 -0.10660688579082489
-0.585318326950073242 0.209279909729957581 -0.218171566724777222
0.267387717962265015 -0.297394454479217529 0.315194576978683472
-0.0258263237774372101 -0.187816128134727478 -0.0435565710067749023
-0.618282496929168701 0.276472598314285278 0.0311937760561704636
-0.609046876430511475 0.297801315784454346 0.0922694951295852661
-0.39783632755279541 -0.0634777173399925232 0.118764795362949371
-0.451974689960479736 -0.0387899130582809448 0.11936129629611969
0.430862218141555786 -0.272142320871353149 0.329255908727645874
-0.0525551661849021912 0.140360385179519653 0.091584913432598114
-0.503250420093536377 0.150636598467826843 0.355277061462402344
0.240602746605873108 -0.319696038961410522 0.322798311710357666
0.496886968612670898 -0.371310174465179443 0.05748024582862854
0.399070590734481812 -0.257256209850311279 0.32252618670463562
-0.15861782431602478 -0.26408722996711731 0.181484431028366089
-0.499431818723678589 0.0134373912587761879 0.157950237393379211
0.417342901229858398 -0.297774612903594971 0.328798651695251465
0.535039544105529785 -0.34069901704788208 -0.018306167796254158
0.344077318906784058 -0.267912149429321289 -0.127764135599136353
-0.496710538864135742 0.071415238082408905 0.203840062022209167
0.443400353193283081 -0.272588223218917847 0.333485960960388184
0.521783053874969482 -0.335891693830490112 0.0329268351197242737
0.453128576278686523 -0.320504158735275269 -0.292895376682281494
0.474007099866867065 -0.312145233154296875 0.11681809276342392
0.51697927713394165 -0.279029399156570435 -0.31267586350440979
0.502419054508209229 -0.326565980911254883 -0.314178526401519775
0.517876625061035156 -0.32759365439414978 0.102042391896247864
0.479077816009521484 -0.3120402991771698 -0.302028834819793701
0.114490412175655365 0.118186816573143005 0.288936525583267212
-0.122053518891334534 0.268170803785324097 0.158619508147239685
-0.615031778812408447 0.264948159456253052 0.051900181919336319
-0.479647397994995117 0.0024426034651696682 0.181215628981590271
0.426470756530761719 -0.355493307113647461 0.158662617206573486
-0.292596727609634399 -0.111297965049743652 -0.105869308114051819
0.130432054400444031 0.0651061683893203735 0.321163028478622437
0.25361207127571106 0.0382132790982723236 -0.0777749046683311462
0.235391989350318909 0.0934088379144668579 -0.0530721358954906464
0.417464196681976318 -0.262115836143493652 -0.202221497893333435
0.521435678005218506 -0.355178773403167725 -0.0193249769508838654
-0.609076797962188721 0.380610376596450806 0.181032940745353699
0.517330646514892578 -0.279930830001831055 -0.314598441123962402
0.498877048492431641 -0.35051274299621582 0.0242085885256528854
-0.588038921356201172 0.368778467178344727 0.112832553684711456
0.505775749683380127 -0.105171136558055878 0.147393539547920227
-0.198173508048057556 0.311042487621307373 0.11275540292263031
0.263839542865753174 -0.286979496479034424 0.319783061742782593
0.236835017800331116 0.0617491602897644043 0.310520440340042114
-0.144720986485481262 -0.0440637841820716858 0.00408505415543913841
-0.658023416996002197 0.214131757616996765 -0.046366427093744278
-0.28887176513671875 -0.0766567960381507874 -0.0687178149819374084
0.227140322327613831 0.0416976399719715118 -0.0481446050107479095
0.551317214965820312 -0.144955411553382874 0.132154256105422974
0.519523501396179199 -0.295862883329391479 0.0750209540128707886
0.517335653305053711 -0.284639567136764526 -0.181042224168777466
-0.35833972692489624 -0.0177811626344919205 -0.0280637126415967941
0.0914096683263778687 0.0877639204263687134 0.0857088789343833923
0.466405093669891357 -0.362416088581085205 -0.0105398334562778473
-0.433153867721557617 0.157085686922073364 -0.0666319504380226135
0.523548722267150879 -0.336152642965316772 0.0690233409404754639
0.26269984245300293 -0.286348521709442139 0.318505913019180298
0.00916891731321811676 -0.0915057659149169922 -0.0261935219168663025
0.0323557592928409576 -0.130895897746086121 0.0217995345592498779
-0.630949616432189941 0.264460623264312744 0.0288589857518672943
0.242038995027542114 0.0739199519157409668 0.318789005279541016
0.240102589130401611 0.0291675031185150146 0.318876117467880249
-0.174963086843490601 0.300332516431808472 0.116137556731700897
0.304452747106552124 -0.151697859168052673 0.307824105024337769
0.261733114719390869 -0.291150689125061035 0.320990681648254395
-0.47647896409034729 -0.00882128626108169556 0.166089996695518494
0.242675513029098511 0.0813566669821739197 0.312146812677383423
0.519971013069152832 -0.351804167032241821 0.0820552706718444824
-0.0351514220237731934 -0.238138481974601746 0.124005995690822601
-0.638545989990234375 0.289477348327636719 0.0986236631870269775
-0.234539225697517395 -0.133541017770767212 -0.0581092238426208496
-0.379601836204528809 -0.109498776495456696 0.10541950911283493
-0.236753389239311218 -0.148568689823150635 -0.0579556114971637726
-0.658234536647796631 0.213828772306442261 -0.0340715833008289337
0.528607070446014404 -0.353139996528625488 0.0779987648129463196
-0.621389985084533691 0.269725948572158813 0.0522953346371650696
-0.404458284378051758 -0.0650239437818527222 0.111938200891017914
-0.446635216474533081 -0.0421773269772529602 0.121867060661315918
0.267801284790039062 -0.28604009747505188 0.323468446731567383
0.127407461404800415 -0.327074766159057617 0.312524527311325073
0.152061894536018372 -0.343561112880706787 0.317804932594299316
0.447458863258361816 -0.336265712976455688 -0.292871654033660889
0.515470445156097412 -0.303529798984527588 -0.107826769351959229
0.51495206356048584 -0.280901193618774414 -0.312694370746612549
0.48458939790725708 -0.328329086303710938 -0.309661537408828735
0.464069604873657227 -0.346536517143249512 -0.302540302276611328
0.549310863018035889 -0.210862904787063599 -0.315839588642120361
0.52381587028503418 -0.300695836544036865 -0.322347372770309448
0.517682135105133057 -0.301504701375961304 -0.318243592977523804
0.246755048632621765 0.0566400513052940369 0.316386669874191284
0.241245314478874207 0.0871099308133125305 0.312712818384170532
-0.292045563459396362 -0.101301923394203186 -0.101994514465332031
-0.453898161649703979 -0.0526615791022777557 0.116961799561977386
0.404535800218582153 -0.27268064022064209 0.322570621967315674
-0.502695679664611816 0.00313845323398709297 0.188994541764259338
0.400825709104537964 -0.287661761045455933 0.324883788824081421
0.398977398872375488 -0.273975551128387451 0.323364406824111938
0.342013657093048096 -0.259429961442947388 0.0901688486337661743
-0.019048493355512619 -0.244924217462539673 0.128580719232559204
-0.464780032634735107 0.0353497788310050964 0.189415842294692993
-0.194571346044540405 0.221063554286956787 0.171893537044525146
0.366590321063995361 -0.329784870147705078 -0.0234280712902545929
0.323148608207702637 -0.390673667192459106 -0.158809512853622437
0.535127758979797363 -0.324169725179672241 -0.0580962486565113068
-0.442056626081466675 -0.00538531830534338951 0.15257340669631958
-0.0193188991397619247 -0.0600063540041446686 0.141641005873680115
-0.000487188546685501933 -0.236654549837112427 0.106305405497550964
0.525926530361175537 -0.202328979969024658 -0.079897955060005188
0.449517011642456055 -0.308945626020431519 -0.292751967906951904
0.526544570922851562 -0.276062905788421631 -0.31554606556892395
0.499614894390106201 -0.325514703989028931 -0.312548190355300903
0.474926739931106567 -0.305664986371994019 -0.297261744737625122
-0.127623304724693298 0.246128201484680176 0.138809666037559509
-0.649253129959106445 0.281507432460784912 0.0940066874027252197
-0.199123769998550415 0.286164343357086182 0.335725069046020508
0.497764289379119873 -0.0871844366192817688 0.136761844158172607
0.200494557619094849 -0.359716981649398804 -0.0908130630850791931
0.505112349987030029 -0.368201017379760742 -0.0225847996771335602
0.526978611946105957 -0.24313470721244812 0.173047453165054321
-0.586187362670898438 0.378822654485702515 0.170421749353408813
0.444734871387481689 -0.315537154674530029 -0.287629455327987671
0.498333632946014404 -0.111553452908992767 0.112280957400798798
-0.656075477600097656 0.174926549196243286 -0.103967241942882538
-0.20215095579624176 0.308233141899108887 0.0889722183346748352
0.201194897294044495 -0.0139920208603143692 0.29523015022277832
0.159860432147979736 -0.0626315101981163025 -0.0440712757408618927
-0.579785346984863281 0.301782399415969849 0.368470191955566406
0.274916917085647583 0.0979267358779907227 -0.0290942918509244919
-0.435527384281158447 0.154782935976982117 -0.0861527770757675171
0.534143924713134766 -0.333555728197097778 0.0128645887598395348
-0.569034874439239502 0.196721866726875305 -0.229250460863113403
-0.49794316291809082 0.0443681776523590088 -0.086985073983669281
0.0312277376651763916 -0.10449063777923584 0.0329498462378978729
0.533796489238739014 -0.265101641416549683 -0.3161906898021698
0.00965228956192731857 0.197201594710350037 0.027475941926240921
0.301998347043991089 0.0384179316461086273 -0.0844262763857841492
-0.332448661327362061 -0.0166458059102296829 -0.107793398201465607
0.236374065279960632 0.0140551729127764702 0.321792542934417725
0.124963335692882538 0.0125874364748597145 0.298893600702285767
0.527225077152252197 -0.355660617351531982 0.0664468631148338318
0.466808199882507324 -0.3104134202003479 -0.232997745275497437
-0.652232646942138672 0.284850478172302246 0.104112498462200165
0.546314716339111328 -0.220416098833084106 0.163612008094787598
0.527744650840759277 -0.323886126279830933 -0.0159199554473161697
-0.383271843194961548 -0.0570214353501796722 0.0761198773980140686
0.456635504961013794 -0.311428487300872803 -0.292447924613952637
0.504690647125244141 -0.340442270040512085 -0.317786276340484619
0.478546082973480225 -0.314915478229522705 -0.299388498067855835
0.520088732242584229 -0.301909595727920532 -0.317208141088485718
-0.00247665820643305779 -0.140506148338317871 -0.024865979328751564
0.397311985492706299 -0.273533254861831665 0.323539078235626221
0.400981932878494263 -0.271960467100143433 0.323845148086547852
0.505823731422424316 -0.332448005676269531 0.105967596173286438
-0.467773318290710449 0.0418849959969520569 0.170527920126914978
0.409809231758117676 -0.346310198307037354 0.156679511070251465
-0.361052155494689941 -0.035947997123003006 -0.148179918527603149
-0.128453239798545837 -0.268260002136230469 0.11232353001832962
0.512328624725341797 -0.369538426399230957 -0.0145292794331908226
-0.21377389132976532 0.312030792236328125 0.0975013673305511475
0.25040474534034729 -0.287492901086807251 0.322924971580505371
0.208847016096115112 0.0089894542470574379 -0.0460820794105529785
0.0698158368468284607 -0.152003481984138489 -0.0172574017196893692
-0.169802993535995483 0.30428779125213623 0.11870092898607254
0.470856040716171265 -0.364828169345855713 0.00718519417569041252
-0.291165202856063843 -0.100092321634292603 -0.10325159877538681
0.0362989231944084167 -0.150177806615829468 -0.0217351894825696945
0.232131361961364746 0.055865943431854248 0.309203475713729858
0.253210306167602539 -0.289054542779922485 0.320707708597183228
-0.471891015768051147 0.000572507211472839117 0.168553933501243591
0.24094940721988678 0.0623229853808879852 0.313105553388595581
0.508709490299224854 -0.352498412132263184 0.0640958324074745178
0.227235287427902222 -0.315211653709411621 0.314598917961120605
-0.375593245029449463 -0.0937621518969535828 0.0861016139388084412
-0.0628891661763191223 -0.242086336016654968 0.302496105432510376
-0.222885966300964355 -0.12827281653881073 -0.0531697310507297516
-0.41007581353187561 -0.0660418048501014709 0.0984317362308502197
-0.445180177688598633 -0.0452974997460842133 0.132640793919563293
0.23879830539226532 -0.294441372156143188 0.314476996660232544
0.153737455606460571 -0.324761837720870972 0.320118546485900879
0.425116002559661865 -0.256445348262786865 0.328697860240936279
0.438014566898345947 -0.343492120504379272 -0.292527705430984497
0.506109416484832764 -0.335143506526947021 -0.317930728197097778
0.444860756397247314 -0.35283958911895752 -0.286584168672561646
0.23821692168712616 0.0653859451413154602 0.312383264303207397
0.40305250883102417 -0.287890732288360596 0.326008468866348267
-0.494914144277572632 0.00616803299635648727 0.188280820846557617
0.48562324047088623 -0.0636160969734191895 0.131888389587402344
0.0124080348759889603 -0.171219363808631897 0.00981920678168535233
0.531329095363616943 -0.308101356029510498 -0.0620596297085285187
0.314642667770385742 -0.302749931812286377 -0.126710563898086548
0.445702642202377319 -0.291871786117553711 -0.285486429929733276
-0.336901932954788208 0.224158480763435364 0.125592201948165894
-0.400985270738601685 -0.0287698321044445038 -0.00198226515203714371
0.402967095375061035 -0.272103548049926758 0.324228942394256592
-0.133265882730484009 0.195333898067474365 0.167648613452911377
0.399017870426177979 -0.272039830684661865 0.324041306972503662
-0.446643441915512085 -0.0255335625261068344 0.021330561488866806
-0.137934878468513489 0.244397282600402832 0.19159013032913208
-0.612775743007659912 0.293576955795288086 0.183575794100761414
0.124604001641273499 0.115720666944980621 0.316671669483184814
-0.120872668921947479 0.2501373291015625 0.16172964870929718
-0.583271145820617676 0.347677886486053467 0.0579614676535129547
0.426713109016418457 -0.348485559225082397 0.153168871998786926
-0.566716194152832031 0.294573307037353516 -0.0691441148519515991
0.251869618892669678 0.0263418983668088913 -0.0794999971985816956
0.247687578201293945 0.100030228495597839 -0.0482869669795036316
-0.357534050941467285 -0.0562998279929161072 -0.141915261745452881
0.198766738176345825 0.119875207543373108 0.035793256014585495
0.545448482036590576 -0.131896749138832092 0.112157322466373444
-0.581598043441772461 0.321280330419540405 -0.0230136271566152573
0.206211909651756287 0.0243516359478235245 0.176883101463317871
-0.595280230045318604 0.374700009822845459 0.171835958957672119
0.44468533992767334 -0.319575637578964233 0.127514272928237915
0.255015462636947632 -0.279018044471740723 0.316553622484207153
0.2355937659740448 0.0234915968030691147 0.316636621952056885
-0.362967133522033691 -0.0502907149493694305 -0.0238340571522712708
-0.182605713605880737 0.11769549548625946 0.0422373414039611816
0.254727184772491455 -0.288458645343780518 0.319368958473205566
0.24202980101108551 0.0328678786754608154 0.32190290093421936
0.39983859658241272 0.0230465605854988098 0.115304440259933472
-0.340572476387023926 -0.0666538849472999573 -0.147357821464538574
0.0757226496934890747 -0.333279222249984741 0.298964738845825195
-0.386797428131103516 -0.0612693466246128082 0.0937513634562492371
-0.448211789131164551 -0.0417726039886474609 0.127649858593940735
0.43925243616104126 -0.27957528829574585 0.333771079778671265
0.0344596207141876221 -0.123225368559360504 -0.0256448071449995041
0.414225876331329346 -0.281025916337966919 0.327110052108764648
0.432925641536712646 -0.296326786279678345 0.333271116018295288
0.367833644151687622 -0.279042422771453857 -0.130151167511940002
-0.477365463972091675 0.000996682443656027317 0.18825116753578186
-0.291577130556106567 -0.0968008115887641907 -0.104583688080310822
0.241346657276153564 -0.313234031200408936 0.309723377227783203
0.473085016012191772 -0.354552149772644043 0.0071913721039891243
-0.296408683061599731 -0.0970491841435432434 -0.107038281857967377
0.244706153869628906 -0.288809388875961304 0.3201180100440979
0.0622568875551223755 -0.329985827207565308 0.297046571969985962
0.157981172204017639 -0.268102645874023438 -0.105502262711524963
0.250243276357650757 0.0631343349814414978 0.315535038709640503
-0.482496887445449829 -0.00833829306066036224 0.177856519818305969
0.236388623714447021 0.0663020089268684387 0.314883947372436523
0.238680899143218994 -0.33204352855682373 0.321449577808380127
-0.382278889417648315 -0.0924476459622383118 0.0366657599806785583
-0.216153338551521301 -0.14050842821598053 -0.0544033199548721313
-0.382702767848968506 -0.06407967209815979 0.0834684967994689941
0.149945065379142761 -0.331873685121536255 0.331907033920288086
0.445770829916000366 -0.280107825994491577 0.333695918321609497
0.407340019941329956 -0.280736446380615234 0.325221419334411621
-0.502004802227020264 0.00615297257900238037 0.188593015074729919
-0.321860969066619873 0.0967529192566871643 -0.0703370124101638794
0.532429277896881104 -0.207856595516204834 -0.0524779483675956726
0.450893372297286987 -0.294313311576843262 -0.29037320613861084
0.48734930157661438 -0.325681716203689575 -0.310791194438934326
0.446339845657348633 -0.310159027576446533 -0.290742248296737671
-0.577644288539886475 0.268786609172821045 0.365667521953582764
-0.461402595043182373 0.105262935161590576 -0.231077611446380615
0.374788820743560791 -0.318951576948165894 0.19917614758014679
-0.589651346206665039 0.366446346044540405 0.131057813763618469
0.392494827508926392 -0.353836983442306519 -0.217398345470428467
0.441037982702255249 -0.310700058937072754 -0.288953214883804321
-0.20053333044052124 0.304962664842605591 0.0948333665728569031
-0.155376598238945007 0.267488420009613037 0.151536732912063599
0.529708325862884521 -0.338784635066986084 0.0719393342733383179
0.463743925094604492 -0.266533106565475464 -0.217560723423957825
-0.633409976959228516 0.275244593620300293 0.106877177953720093
0.438360273838043213 -0.308991044759750366 -0.287124663591384888
0.515394866466522217 -0.277645766735076904 -0.316745281219482422
0.516511142253875732 -0.340800434350967407 -0.320667296648025513
0.454299390316009521 -0.307476073503494263 -0.293174713850021362
0.490813016891479492 -0.322249561548233032 0.0944978669285774231
0.0205860733985900879 -0.276195436716079712 -0.0186096224933862686
-0.654007971286773682 0.171460211277008057 -0.108244433999061584
-0.224564850330352783 0.318052172660827637 0.121220596134662628
0.465254992246627808 -0.364434182643890381 0.00602133246138691902
0.480985134840011597 -0.337144911289215088 0.0503878034651279449
0.511414527893066406 -0.339858591556549072 -0.319326341152191162
0.440122902393341064 -0.356995373964309692 -0.297539114952087402
-0.269885271787643433 0.321487665176391602 0.0417483970522880554
0.424085706472396851 -0.31370919942855835 -0.28182336688041687
0.415422886610031128 -0.295484811067581177 0.328555047512054443
-0.326103746891021729 -0.0758747458457946777 0.123407453298568726
-0.366888195276260376 -0.0671945512294769287 0.154609113931655884
-0.338156998157501221 0.214326277375221252 0.132730260491371155
0.0101880142465233803 0.119034022092819214 0.105090871453285217
0.541930258274078369 -0.309569746255874634 -0.0460926219820976257
0.0136204194277524948 -0.262166917324066162 0.0394707769155502319
-0.00355625152587890625 -0.236934319138526917 0.0942160040140151978
0.000207781558856368065 -0.219970762729644775 0.0814770609140396118
0.464839756488800049 -0.361286699771881104 0.0304157137870788574
-0.269419461488723755 -0.138474196195602417 0.177432283759117126
-0.34508967399597168 -0.0663671419024467468 0.141200751066207886
0.123466111719608307 -0.277013331651687622 0.128962770104408264
-0.133791983127593994 0.0783818140625953674 0.0902107283473014832
0.463457703590393066 -0.0547411814332008362 0.0176941342651844025
-0.0141327213495969772 -0.217289268970489502 0.0803153887391090393
-0.554617345333099365 0.391142785549163818 0.147572129964828491
0.49651491641998291 -0.3671703040599823 0.00535266613587737083
-0.610603272914886475 0.29357495903968811 0.186379820108413696
0.529924988746643066 -0.275713562965393066 -0.317582011222839355
0.370307624340057373 -0.264908254146575928 0.181600451469421387
0.420269906520843506 -0.344800889492034912 0.150934353470802307
0.252013593912124634 0.0388433076441287994 -0.0666345879435539246
0.54934537410736084 -0.150289788842201233 0.124342836439609528
-0.570423722267150879 0.283583074808120728 -0.00653258105739951134
0.500784516334533691 -0.363025575876235962 -0.00117848417721688747
0.208287894725799561 0.115326069295406342 -0.0104415519163012505
-0.289222240447998047 -0.0861648470163345337 -0.0664429888129234314
0.15923677384853363 -0.0835953578352928162 -0.0361548662185668945
-0.339975476264953613 -0.105938777327537537 0.141244888305664062
0.510935544967651367 -0.281871944665908813 -0.313098609447479248
-0.339298248291015625 -0.0801489800214767456 0.038570847362279892
-0.369255036115646362 0.28018110990524292 -0.0626777783036231995
0.509734570980072021 -0.341351211071014404 0.0652211084961891174
0.302238732576370239 -0.20621173083782196 0.247946470975875854
0.542670190334320068 -0.312460660934448242 -0.0606412552297115326
0.141599595546722412 0.0691764578223228455 0.336339086294174194
-0.594781100749969482 0.267043232917785645 0.0120611023157835007
0.222017854452133179 -0.00739659089595079422 0.295574605464935303
0.230877876281738281 0.0340226069092750549 0.31276702880859375
0.53338015079498291 -0.320051521062850952 -0.0126875583082437515
-0.389331221580505371 -0.0644783452153205872 0.105715900659561157
-0.447554290294647217 -0.0406249538064002991 0.126501500606536865
0.4958687424659729 -0.0916878357529640198 0.154553353786468506
0.25091022253036499 0.0628115907311439514 0.316653281450271606
-0.291360318660736084 -0.0931758135557174683 0.30766788125038147
-0.366579204797744751 -0.115256868302822113 0.104017317295074463
-0.563374638557434082 0.126795977354049683 -0.0785185769200325012
-0.50146186351776123 0.0230007320642471313 0.186636462807655334
0.517990767955780029 -0.297897189855575562 -0.313937097787857056
0.472455471754074097 -0.32878720760345459 -0.299796462059020996
-0.574176788330078125 0.26845058798789978 0.362594097852706909
-0.571053206920623779 0.354438364505767822 0.166917487978935242
-0.191614344716072083 0.304219216108322144 0.101194418966770172
-0.661996901035308838 0.239318475127220154 0.0415601432323455811
-0.504828333854675293 0.143979474902153015 0.35326424241065979
0.506998360157012939 -0.347726374864578247 -0.318224072456359863
-0.200442388653755188 0.304547637701034546 0.101853378117084503
0.474982231855392456 -0.358080178499221802 0.00477911951020359993
0.509622335433959961 -0.331167101860046387 0.0664975568652153015
-0.610606968402862549 0.367125004529953003 0.0876608490943908691
-0.562414944171905518 0.287794589996337891 -0.0560428015887737274
0.219954937696456909 0.00996331777423620224 0.309099644422531128
0.240509852766990662 0.00479908706620335579 0.321570724248886108
-0.35958552360534668 -0.0574437491595745087 -0.137911781668663025
0.399154871702194214 -0.253108203411102295 0.321971684694290161
0.399454474449157715 -0.263481497764587402 0.324722826480865479
0.223954707384109497 -0.324501603841781616 0.320674121379852295
0.410934150218963623 -0.268224447965621948 0.325144916772842407
-0.509088695049285889 0.0489745885133743286 0.195222765207290649
-0.631170690059661865 0.156027987599372864 -0.0527151636779308319
-0.501797795295715332 0.146543338894844055 0.345237046480178833
0.520799934864044189 -0.351292043924331665 -0.322968006134033203
0.495160102844238281 -0.348811894655227661 0.000298768834909424186
-0.197880849242210388 0.0156464427709579468 -0.0500113479793071747
-0.557643890380859375 0.341292321681976318 -0.00583954667672514915
0.488374948501586914 -0.360931903123855591 0.0411151312291622162
0.44905892014503479 -0.0746653899550437927 0.0020140551496297121
-0.556144833564758301 0.384753495454788208 0.157694712281227112
0.374513596296310425 -0.0816534161567687988 -0.119875073432922363
-0.389551013708114624 0.319090962409973145 0.168690979480743408
-0.384508371353149414 0.327659398317337036 0.197384029626846313
-0.364065825939178467 0.237444654107093811 -0.0835663527250289917
-0.407196372747421265 0.1989869624376297 0.0408189408481121063
-0.644359946250915527 0.286376416683197021 0.0935151129961013794
0.408437997102737427 -0.347677141427993774 0.136454328894615173
0.222352117300033569 0.0824735760688781738 -0.0335632413625717163
0.498431086540222168 -0.161715954542160034 0.123870640993118286
0.500202357769012451 -0.093303292989730835 0.134789273142814636
0.215367510914802551 0.00151924323290586472 0.299430578947067261
-0.353167146444320679 -0.0687022656202316284 -0.00912925694137811661
-0.385297149419784546 0.265435397624969482 -0.0717609375715255737
0.506300389766693115 -0.347574800252914429 0.0549741499125957489
-0.357006192207336426 -0.0569090284407138824 -0.145502209663391113
0.132230713963508606 0.0722330808639526367 0.32206118106842041
-0.0996660292148590088 -0.266097068786621094 0.00603944947943091393
0.242425650358200073 0.0229381397366523743 0.321875721216201782
-0.480359494686126709 -0.0122635597363114357 0.185239970684051514
0.242467001080513 0.0479227975010871887 0.317053884267807007
-0.2780495285987854 0.332155674695968628 0.040528569370508194
0.369743794202804565 -0.0313320942223072052 -0.0399334244430065155
0.519985437393188477 -0.348518639802932739 -0.0362679772078990936
0.293260365724563599 -0.012401217594742775 0.0369990579783916473
-0.644047379493713379 0.284294605255126953 0.0923630669713020325
0.0357815846800804138 0.136257007718086243 0.0850055515766143799
-0.397453099489212036 -0.0581803731620311737 0.125812232494354248
-0.441410213708877563 -0.0387770272791385651 0.131243810057640076
0.523659110069274902 -0.318114995956420898 -0.0654083937406539917
0.422283858060836792 -0.28041684627532959 0.331211119890213013
0.509464859962463379 -0.345470041036605835 0.0571421310305595398
0.403709679841995239 -0.259286433458328247 0.32361900806427002
-0.480259805917739868 0.0174964070320129395 0.176622062921524048
0.235516458749771118 0.0681042522192001343 0.314445257186889648
-0.479428648948669434 -0.00891731958836317062 0.167271316051483154
0.239139601588249207 0.0671137571334838867 0.314848870038986206
0.388088703155517578 0.0255108494311571121 0.105987131595611572
0.219481304287910461 -0.31650155782699585 0.310329943895339966
0.382912516593933105 0.0424121841788291931 0.0690256357192993164
0.462587058544158936 0.0102554764598608017 0.175058305263519287
0.399335354566574097 -0.259077310562133789 0.327191740274429321
-0.499573826789855957 0.0205780211836099625 0.180839627981185913
-0.573370993137359619 0.265723764896392822 0.359817445278167725
-0.664466142654418945 0.229379370808601379 0.021709078922867775
-0.149155139923095703 0.274821579456329346 0.0789040699601173401
0.521840870380401611 -0.335712343454360962 -0.322581946849822998
-0.22025744616985321 0.315097659826278687 0.0965742990374565125
0.4996909499168396 -0.347057998180389404 0.0670306310057640076
-0.189607962965965271 0.302201271057128906 0.114593386650085449
0.313549309968948364 -0.130601748824119568 0.300679922103881836
0.225075304508209229 -0.0356830358505249023 0.305080413818359375
0.0573058873414993286 -0.331261575222015381 0.291291743516921997
0.435074120759963989 -0.280453801155090332 0.332725882530212402
0.408805042505264282 -0.28624841570854187 0.330886989831924438
0.385523974895477295 -0.26627582311630249 0.318763643503189087
0.397237390279769897 -0.385288476943969727 -0.225692421197891235
-0.162126913666725159 0.277846187353134155 0.128445401787757874
0.380555272102355957 0.0434364788234233856 0.076966308057308197
0.390651226043701172 -0.256233781576156616 0.318773239850997925
-0.500291824340820312 0.0238614734262228012 0.185675755143165588
0.49939727783203125 -0.326584100723266602 -0.313210070133209229
0.38041725754737854 -0.376572340726852417 -0.216308340430259705
0.520906805992126465 -0.349938839673995972 -0.324984163045883179
0.520465970039367676 -0.349076598882675171 -0.321923136711120605
0.513088583946228027 -0.320316135883331299 -0.31854817271232605
0.254865646362304688 -0.222874179482460022 0.057407427579164505
0.185887590050697327 -0.142843529582023621 -0.10571250319480896
0.50758659839630127 -0.320765197277069092 0.0291939321905374527
-0.469455718994140625 -0.0125183360651135445 0.180934697389602661
0.495986223220825195 -0.349624156951904297 -0.309880226850509644
0.521247506141662598 -0.328194767236709595 -0.322054535150527954
0.475796371698379517 -0.320895642042160034 -0.303160607814788818
-0.341088533401489258 0.229235619306564331 -0.0444717593491077423
0.201700299978256226 0.13233126699924469 0.112075656652450562
-0.172590315341949463 0.0216399189084768295 0.0254448428750038147
0.2654876708984375 -0.166326403617858887 0.00595086999237537384
0.544477283954620361 -0.328884363174438477 -0.0478964745998382568
-0.456328153610229492 -0.053717002272605896 0.162051603198051453
0.469490647315979004 -0.356715589761734009 -0.30721774697303772
0.478236794471740723 -0.270444631576538086 -0.301637947559356689
0.467103630304336548 -0.36252477765083313 -0.308307379484176636
-0.320072799921035767 0.266041576862335205 0.0113249262794852257
0.0331617668271064758 0.0980811342597007751 0.128340721130371094
-0.284643083810806274 -0.100741147994995117 -0.0874632224440574646
-0.616700947284698486 0.216423764824867249 -0.104936614632606506
0.244339555501937866 0.103994846343994141 -0.0298681445419788361
0.466057330369949341 -0.235716238617897034 -0.228607997298240662
-0.293889254331588745 -0.0891958847641944885 -0.0960172936320304871
0.248972862958908081 -0.276364415884017944 0.322456449270248413
0.22197173535823822 0.0663698539137840271 -0.0280284211039543152
-0.250916093587875366 -0.130853608250617981 -0.055612567812204361
-0.211481824517250061 0.301443755626678467 0.148496821522712708
0.339676886796951294 -0.141043961048126221 0.318237155675888062
0.529461383819580078 -0.357111901044845581 0.0696140080690383911
-0.599735081195831299 0.356086015701293945 0.0602422431111335754
-0.346319794654846191 -0.0564340762794017792 -0.143740043044090271
-0.432690411806106567 0.156943053007125854 -0.0847595259547233582
0.526355862617492676 -0.332246899604797363 0.0203251913189888
0.527932167053222656 -0.288520902395248413 -0.070204317569732666
-0.498799264430999756 0.142019733786582947 -0.253974646329879761
0.14649471640586853 0.156268283724784851 0.0586409717798233032
0.253180444240570068 -0.00811537634581327438 0.327552556991577148
0.349814802408218384 -0.147628232836723328 0.320476055145263672
0.442069053649902344 -0.323092430830001831 -0.229428455233573914
-0.224145963788032532 -0.140656813979148865 -0.0539277754724025726
0.52228778600692749 -0.350739449262619019 0.0968791767954826355
-0.645962059497833252 0.252937197685241699 0.0237387344241142273
0.39301067590713501 -0.28054732084274292 0.322215229272842407
-0.474637389183044434 -0.0104626026004552841 0.164717197418212891
0.224242821335792542 -0.325504034757614136 0.318930894136428833
-0.36367449164390564 -0.121808819472789764 0.130250945687294006
-0.238593563437461853 -0.141288340091705322 -0.0540568679571151733
-0.113991431891918182 -0.00970866531133651733 -0.0168189201503992081
0.389237642288208008 -0.278817743062973022 0.320545375347137451
-0.5069427490234375 0.0106866834685206413 0.201798141002655029
0.462409347295761108 -0.297488808631896973 -0.294358909130096436
0.351157546043395996 -0.148586049675941467 0.321332663297653198
0.457661688327789307 -0.304263114929199219 -0.228890389204025269
0.0244057495146989822 -0.144280821084976196 -0.0202937610447406769
0.368789583444595337 -0.328212827444076538 0.31868097186088562
0.391462266445159912 -0.281970828771591187 0.316807806491851807
0.12843024730682373 -0.319720536470413208 -0.0972057506442070007
-0.134413674473762512 0.277923673391342163 0.11730995774269104
-0.33326449990272522 0.0938884839415550232 -0.102502234280109406
0.373854160308837891 -0.37643471360206604 -0.214863672852516174
0.519683957099914551 -0.346325904130935669 -0.322600811719894409
0.523250043392181396 -0.358593881130218506 -0.326460033655166626
-0.0684266537427902222 -0.255343049764633179 0.0987763553857803345
0.325624078512191772 -0.131288126111030579 0.314654558897018433
0.424129217863082886 -0.260211825370788574 0.328225880861282349
-0.479872226715087891 0.0313275307416915894 0.196550577878952026
0.526430070400238037 -0.300184071063995361 -0.322061210870742798
0.537864089012145996 -0.293036609888076782 -0.324473947286605835
0.377648711204528809 -0.374671846628189087 -0.213573083281517029
0.371158510446548462 -0.357609301805496216 -0.213580220937728882
0.523872137069702148 -0.352191329002380371 -0.324841916561126709
0.52517777681350708 -0.363969355821609497 -0.322930514812469482
0.515345513820648193 -0.327734291553497314 -0.319920778274536133
0.479295432567596436 -0.352876663208007812 -0.312059193849563599
0.478260606527328491 -0.366148054599761963 -0.312774389982223511
-0.361692309379577637 0.309891283512115479 0.239577874541282654
-0.320786535739898682 0.103526368737220764 0.0220957919955253601
-0.447540879249572754 0.203696310520172119 -0.0404757149517536163
-0.377624303102493286 0.278769046068191528 -0.00743311177939176559
-0.0226658899337053299 -0.261230051517486572 0.143741711974143982
-0.591837763786315918 0.360955923795700073 0.0640380755066871643
0.367356032133102417 -0.373999327421188354 -0.212368994951248169
-0.124130010604858398 -0.0111582158133387566 0.00787230860441923141
0.396425426006317139 -0.353887498378753662 -0.218180626630783081
0.507188856601715088 -0.159975454211235046 0.125258162617683411
0.195418253540992737 0.124342672526836395 0.00635364372283220291
-0.0268892962485551834 0.16644008457660675 0.382869035005569458
-0.334160327911376953 -0.121654018759727478 0.100250877439975739
-0.325162619352340698 0.302345603704452515 -0.0368568338453769684
0.533894896507263184 -0.347279340028762817 0.0379064008593559265
0.525146484375 -0.332308650016784668 0.0345789976418018341
-0.5956573486328125 0.381610602140426636 0.113212034106254578
-0.0111967390403151512 -0.144716620445251465 -0.0269231218844652176
-0.235241606831550598 0.171513155102729797 -0.00176844059024006128
-0.485524415969848633 -0.0111475801095366478 0.177137672901153564
-0.277969658374786377 0.335567623376846313 0.0420773811638355255
0.513242781162261963 -0.349524527788162231 0.0971412435173988342
-0.448656409978866577 -0.0363109447062015533 0.117342814803123474
0.434208422899246216 -0.253659963607788086 0.33182796835899353
0.414694070816040039 -0.278770983219146729 0.327294111251831055
-0.468911617994308472 0.0339402258396148682 0.19348771870136261
0.502072811126708984 -0.340033203363418579 0.00803780928254127502
-0.481481254100799561 -0.00331090088002383709 0.177467942237854004
-0.377549558877944946 -0.107245795428752899 0.0928480178117752075
-0.50104135274887085 0.0217131432145833969 0.184237584471702576
0.360479354858398438 -0.287393271923065186 -0.141720160841941833
0.00145499093923717737 -0.231835857033729553 0.0900006294250488281
-0.140204086899757385 0.264625370502471924 0.0882914438843727112
-0.129522979259490967 0.253947973251342773 0.0712899491190910339
0.312443852424621582 -0.293755501508712769 -0.131097704172134399
0.428043246269226074 -0.255899101495742798 0.330326169729232788
-0.615327596664428711 0.30619385838508606 0.392088323831558228
0.410580188035964966 -0.358477771282196045 -0.226247116923332214
0.50493919849395752 -0.347048491239547729 -0.319697290658950806
0.507634580135345459 -0.353086888790130615 -0.322405248880386353
0.523413240909576416 -0.299043059349060059 -0.318482488393783569
0.509594440460205078 -0.347396045923233032 -0.320022553205490112
0.269908249378204346 -0.169840574264526367 -0.0794975236058235168
0.13378925621509552 0.119974128901958466 0.329060465097427368
0.251698672771453857 -0.28538978099822998 0.328198015689849854
0.324381828308105469 -0.120582148432731628 0.310689389705657959
0.30232277512550354 -0.204782038927078247 0.251213639974594116
0.250065326690673828 -0.00412849849089980125 0.325106143951416016
0.507096529006958008 -0.343560844659805298 0.0876800194382667542
0.241751819849014282 0.0895354822278022766 0.310002565383911133
0.462712079286575317 -0.284570455551147461 -0.231006696820259094
-0.262128949165344238 0.313456743955612183 0.0457138866186141968
0.34401431679725647 -0.140338793396949768 0.329499870538711548
0.373701304197311401 -0.364356547594070435 -0.208572953939437866
0.337566524744033813 -0.129608258605003357 0.320741593837738037
0.526332259178161621 -0.347741186618804932 -0.323843926191329956
0.524098992347717285 -0.352598458528518677 -0.326397985219955444
0.479899376630783081 -0.372860252857208252 -0.312863916158676147
-0.36008918285369873 -0.0655545294284820557 0.0828392580151557922
-0.407502800226211548 0.0880445241928100586 -0.113223716616630554
0.0141475675627589226 0.0977454856038093567 0.217087909579277039
-0.378628164529800415 -0.0937788635492324829 -0.0283723138272762299
0.265451997518539429 0.0680180490016937256 -0.0917732194066047668
-0.108296744525432587 -0.0156177151948213577 0.0459590256214141846
-0.358198165893554688 -0.0925992950797080994 0.0128834778442978859
-0.290276646614074707 0.304291576147079468 0.166460826992988586
-0.355627894401550293 -0.0741317570209503174 0.0405849739909172058
-0.598503649234771729 0.294094949960708618 0.186430126428604126
0.249403640627861023 0.0963930115103721619 -0.0342644974589347839
0.378986209630966187 -0.355409711599349976 -0.209243759512901306
0.469586998224258423 -0.325136423110961914 0.138093963265419006
0.464307934045791626 -0.272288203239440918 -0.0928441435098648071
-0.439707726240158081 -0.0436395257711410522 0.0841718390583992004
-0.336430579423904419 -0.125319108366966248 0.127552196383476257
0.528124332427978516 -0.342350393533706665 0.05113949254155159
0.392684787511825562 0.0467570982873439789 0.133677393198013306
-0.185840487480163574 0.313605606555938721 0.107706986367702484
-0.441661238670349121 -0.0435269959270954132 0.117741145193576813
0.537156760692596436 -0.326649218797683716 -0.0555188916623592377
-0.352945983409881592 0.305857151746749878 0.114063382148742676
0.493943482637405396 -0.346535950899124146 0.0442215986549854279
-0.575485825538635254 0.304726511240005493 0.379229247570037842
0.430781751871109009 -0.28136095404624939 0.333782702684402466
-0.477664858102798462 0.00345804262906312943 0.164055049419403076
0.524764895439147949 -0.350320875644683838 -0.00244458555243909359
-0.0674598440527915955 -0.263310283422470093 0.298416554927825928
-0.511964023113250732 0.00402629468590021133 0.187981411814689636
0.389730572700500488 -0.360836535692214966 -0.215536043047904968
-0.118431933224201202 0.253925323486328125 0.0635189637541770935
-0.50047600269317627 0.00444003799930214882 0.19317162036895752
0.426266938447952271 -0.274862289428710938 0.330714672803878784
-0.333607584238052368 0.103528857231140137 -0.118582099676132202
-0.105785630643367767 0.253799229860305786 0.0935307890176773071
0.510514616966247559 -0.342288553714752197 -0.319499969482421875
-0.612790107727050781 0.302158117294311523 0.396111726760864258
-0.509027719497680664 0.0360296480357646942 0.188498169183731079
-0.291213780641555786 -0.0897783041000366211 -0.0786810442805290222
0.509369790554046631 -0.345568627119064331 -0.320925384759902954
0.0718671530485153198 0.138916462659835815 0.0724688544869422913
0.245607957243919373 0.106855325400829315 0.321449488401412964
0.472987741231918335 -0.287334173917770386 -0.230535045266151428
0.305073320865631104 -0.315092206001281738 0.331782341003417969
0.511583864688873291 -0.350637733936309814 -0.321950763463973999
-0.315494447946548462 -0.0876018330454826355 -0.0343388766050338745
0.514195621013641357 -0.356343775987625122 -0.322916954755783081
-0.625231742858886719 0.179828137159347534 -0.0862873941659927368
-0.353671073913574219 -0.0565339066088199615 -0.144039943814277649
-0.331208497285842896 0.268964469432830811 -0.0551968924701213837
-0.177283242344856262 0.13841518759727478 0.00491466093808412552
0.545214235782623291 -0.21788690984249115 0.159289300441741943
0.0306066107004880905 0.102119810879230499 0.065314754843711853
0.509642243385314941 -0.331501662731170654 -0.319299310445785522
0.585667312145233154 -0.325795918703079224 -0.319890379905700684
0.249566435813903809 -0.288705974817276001 0.318417400121688843
0.255534917116165161 -0.00343407224863767624 0.328046888113021851
0.301381856203079224 -0.282963365316390991 0.33130231499671936
-0.344312280416488647 -0.091401025652885437 0.0179091263562440872
-0.374502092599868774 -0.0906093493103981018 -0.0183319281786680222
-0.0655054524540901184 -0.273961752653121948 0.159339159727096558
-0.63045048713684082 0.275183349847793579 0.0757992193102836609
0.366444528102874756 -0.366181850433349609 -0.212146967649459839
-0.124472334980964661 -0.0296945329755544662 -0.00668995128944516182
-0.598527312278747559 0.341858655214309692 0.0903847888112068176
0.443784177303314209 -0.250024974346160889 -0.286170989274978638
0.382494926452636719 -0.348658621311187744 -0.212009504437446594
0.312234580516815186 -0.373267173767089844 -0.156043946743011475
-0.179474785923957825 0.312246412038803101 0.0998967960476875305
0.534921705722808838 -0.319825589656829834 -0.0323290154337882996
-0.655164837837219238 0.237893998622894287 0.013916507363319397
-0.453122824430465698 -0.0544435866177082062 0.163199663162231445
0.499751806259155273 -0.349080979824066162 0.0714432224631309509
0.440322726964950562 -0.261307179927825928 0.334395438432693481
0.50703507661819458 -0.344314724206924438 0.0299912244081497192
0.264503508806228638 0.121188580989837646 0.0271260794252157211
0.39978402853012085 0.0321589820086956024 0.139848023653030396
-0.106401637196540833 0.252194643020629883 0.0725608170032501221
0.316486060619354248 -0.381294339895248413 -0.156919345259666443
-0.56662064790725708 0.295039355754852295 -0.0515746772289276123
0.390188902616500854 -0.363354504108428955 -0.220916181802749634
0.358962506055831909 0.0330493971705436707 0.0486264750361442566
0.194425806403160095 -0.366012990474700928 -0.0958049967885017395
0.39106595516204834 -0.356278747320175171 -0.217041999101638794
0.519512832164764404 -0.3358040452003479 -0.322445541620254517
0.522716641426086426 -0.333989322185516357 -0.323886275291442871
0.244267284870147705 0.0237777531147003174 0.323963791131973267
0.212300047278404236 -0.338996231555938721 0.318597465753555298
0.237103268504142761 0.105708681046962738 0.315020948648452759
0.521472930908203125 -0.337714493274688721 -0.32553526759147644
0.317984789609909058 -0.380402982234954834 -0.151073426008224487
0.583998203277587891 -0.318680405616760254 -0.334106862545013428
-0.381114006042480469 -0.0940486863255500793 -0.0178370922803878784
0.458085298538208008 -0.325971037149429321 0.125107526779174805
0.388860970735549927 0.0531801693141460419 0.131666436791419983
-0.173708543181419373 0.306853562593460083 0.105778753757476807
-0.462255209684371948 -0.0306367315351963043 0.134428158402442932
0.439460575580596924 -0.261891067028045654 0.335173487663269043
0.400197595357894897 0.0243505816906690598 0.127982005476951599
0.42714005708694458 -0.264035075902938843 0.332102537155151367
-0.509821414947509766 0.00375031912699341774 0.190772250294685364
-0.131050348281860352 0.253161489963531494 0.0814650058746337891
-0.283904403448104858 0.335279971361160278 0.0341489464044570923
0.455143660306930542 -0.259917348623275757 0.336701363325119019
-0.33083641529083252 0.0971972346305847168 -0.117781028151512146
-0.508529543876647949 0.0355431996285915375 0.188455536961555481
0.258043676614761353 0.00714684231206774712 0.327537566423416138
0.445718735456466675 -0.256432801485061646 0.333884716033935547
0.236245304346084595 0.108715072274208069 0.308791369199752808
0.302284926176071167 -0.329583674669265747 0.33442312479019165
-0.320486962795257568 0.266380548477172852 -0.0470854304730892181
-0.133565336465835571 -0.269193857908248901 -0.00493768462911248207
-0.377203941345214844 -0.0760871171951293945 0.0238184891641139984
-0.375825256109237671 -0.064243510365486145 -0.160098806023597717
-0.494895279407501221 -0.0232972614467144012 0.173725411295890808
-0.527858912944793701 -0.00740738771855831146 0.186562627553939819
0.381917715072631836 -0.367148041725158691 -0.21910548210144043
0.388991832733154297 -0.330577939748764038 0.186609551310539246
-0.577932000160217285 0.291321665048599243 -0.0410583876073360443
0.241620525717735291 0.0879747197031974792 -0.0394823066890239716
0.374389529228210449 -0.352011561393737793 -0.20969294011592865
0.187228813767433167 0.107483454048633575 0.00177341059315949678
-0.341746151447296143 0.272470176219940186 -0.0520189851522445679
0.532251238822937012 -0.354227691888809204 0.053519129753112793
-0.11376025527715683 0.184962332248687744 0.354443281888961792
-0.215752974152565002 0.312934577465057373 0.111924536526203156
0.470250219106674194 -0.305599182844161987 -0.235611870884895325
0.536232352256774902 -0.321421116590499878 -0.0261101070791482925
-0.266294270753860474 0.309504568576812744 0.045227639377117157
0.278804987668991089 0.00794510170817375183 -0.0272785816341638565
0.38430708646774292 -0.362729042768478394 -0.21682266891002655
0.0278571099042892456 -0.0960331782698631287 0.0187551341950893402
-0.416925311088562012 -0.0582291558384895325 0.133046746253967285
0.385004431009292603 -0.288100063800811768 -0.109522134065628052
0.382003992795944214 -0.363789409399032593 -0.219406411051750183
0.199636712670326233 -0.366917639970779419 -0.0960329845547676086
0.387466311454772949 -0.354679584503173828 -0.216460689902305603
0.511525392532348633 -0.337470293045043945 -0.319726407527923584
0.512835085391998291 -0.337233662605285645 -0.321908384561538696
0.233121395111083984 0.0338887162506580353 0.31880757212638855
0.241905063390731812 0.0886734798550605774 0.309871196746826172
0.362451910972595215 -0.283283591270446777 0.31622314453125
0.53028184175491333 -0.347076445817947388 -0.329951971769332886
0.200523748993873596 -0.190958842635154724 -0.0717704072594642639
-0.19294370710849762 0.13306407630443573 0.00877516530454158783
0.320959687232971191 -0.374973267316818237 -0.15848366916179657
0.204370170831680298 -0.325994998216629028 0.315818995237350464
0.322643846273422241 -0.277920573949813843 0.317291080951690674
-0.499389678239822388 0.0156904403120279312 0.183620035648345947
0.347291141748428345 -0.273539602756500244 -0.132140055298805237
0.244825452566146851 0.0210565961897373199 0.321716427803039551
0.19536687433719635 -0.167890116572380066 -0.0677388608455657959
0.037638392299413681 0.131182014942169189 0.105411738157272339
-0.455072015523910522 -0.0513476245105266571 0.154779583215713501
-0.140332147479057312 0.268853753805160522 0.0797843188047409058
0.53978264331817627 -0.226625785231590271 0.17294156551361084
0.236351460218429565 0.104084894061088562 0.309385746717453003
-0.45258978009223938 -0.0280661638826131821 0.123985685408115387
-0.509390294551849365 0.000815599341876804829 0.173239231109619141
0.23627181351184845 0.0833000987768173218 0.310639739036560059
-0.487989813089370728 -0.0235127173364162445 0.177628099918365479
-0.520331084728240967 -0.00235595414415001869 0.186708360910415649
-0.0836845114827156067 0.0733004584908485413 0.0419437438249588013
0.367824584245681763 -0.0233518257737159729 -0.0820653513073921204
