ply
format ascii 1.0
element vertex 738
property float x
property float y
property float z
end_header
0.258040696382522583 -0.016789458692073822 -0.0719972699880599976
0.230859354138374329 0.0541303902864456177 -0.0450605638325214386
0.113343425095081329 0.10996720939874649 0.301804423332214355
-0.583954691886901855 0.218706294894218445 -0.221381857991218567
-0.598113954067230225 0.235503971576690674 -0.0106710158288478851
-0.366797834634780884 -0.0913895070552825928 0.122932605445384979
-0.329762428998947144 -0.125013634562492371 0.137384518980979919
-0.634493887424468994 0.199908629059791565 -0.0382184498012065887
-0.425499588251113892 -0.0545686706900596619 0.0993321090936660767
-0.477899819612503052 0.020487707108259201 -0.0364724062383174896
0.208981737494468689 0.00882046017795801163 0.300996661186218262
-0.634087800979614258 0.248362824320793152 -0.00589330820366740227
-0.127926990389823914 0.270108968019485474 0.132378756999969482
0.27147713303565979 -0.329977720975875854 0.180226147174835205
0.533344566822052002 -0.209811046719551086 -0.0987891331315040588
-0.126116335391998291 -0.112284213304519653 -0.0547277927398681641
0.454588204622268677 -0.338507890701293945 -0.298034101724624634
-0.212352246046066284 0.0365724489092826843 -0.0596119873225688934
-0.553094983100891113 0.17607562243938446 0.0128896450623869896
-0.19833807647228241 0.139930367469787598 0.0212291460484266281
-0.01216919906437397 -0.102171331644058228 -0.042879544198513031
0.26513981819152832 -0.27460092306137085 0.202580764889717102
0.349099665880203247 -0.320760101079940796 4.5759825297864154e-05
-0.155703172087669373 0.0701074227690696716 0.0276193749159574509
-0.249015897512435913 0.131112322211265564 -0.034365534782409668
0.199482753872871399 0.00196218769997358322 0.0191682502627372742
0.0766593217849731445 0.08116169273853302 0.0240401383489370346
-0.283330351114273071 0.288561046123504639 -0.00584934372454881668
0.477334648370742798 -0.289430469274520874 -0.30167272686958313
-0.55679243803024292 0.266048222780227661 -0.0171619337052106857
-0.237184643745422363 0.0979656428098678589 -0.0323817841708660126
0.13827049732208252 -0.280519664287567139 0.150177836418151855
0.296790212392807007 -0.297047674655914307 0.0570115894079208374
-0.285920113325119019 0.25754663348197937 0.000637794844806194305
-0.0207335855811834335 -0.0400350987911224365 0.0890873819589614868
0.204819798469543457 0.0430462099611759186 0.0658077597618103027
-0.143426284193992615 -0.0848355889320373535 0.0917993709444999695
0.372835546731948853 -0.0730612874031066895 0.0316485129296779633
0.521651029586791992 -0.198750942945480347 -0.0984793975949287415
0.487472295761108398 -0.297431379556655884 -0.305329740047454834
0.480747908353805542 -0.314500749111175537 0.122389227151870728
0.513931393623352051 -0.306834429502487183 -0.102376386523246765
0.496391803026199341 -0.309062421321868896 -0.309698522090911865
0.506483018398284912 -0.32747948169708252 -0.00408145878463983536
0.512031912803649902 -0.324200928211212158 0.118417836725711823
0.466269880533218384 -0.288330972194671631 -0.296526819467544556
0.438364803791046143 -0.263051986694335938 -0.19425569474697113
0.135326087474822998 0.117190591990947723 0.337185591459274292
0.396856099367141724 -0.24401894211769104 0.318882793188095093
-0.601590812206268311 0.354580909013748169 0.065685659646987915
-0.505196154117584229 0.357450485229492188 0.178475826978683472
0.542891621589660645 -0.28217780590057373 0.0979753062129020691
0.256730556488037109 0.037243526428937912 -0.0719975903630256653
-0.233038038015365601 0.156297564506530762 -0.00521169742569327354
0.50647437572479248 -0.331646651029586792 -0.00250426190905272961
0.445167452096939087 -0.249632284045219421 -0.22797761857509613
-0.639106571674346924 0.254837661981582642 0.0546947084367275238
0.532868146896362305 -0.26235044002532959 0.0932935550808906555
-0.393029242753982544 -0.0588991641998291016 0.100516907870769501
0.524217188358306885 -0.289302021265029907 -0.09207133948802948
0.0283984169363975525 -0.273780316114425659 -0.0352608896791934967
0.385502606630325317 -0.305707365274429321 0.118886247277259827
-0.58228689432144165 0.367111563682556152 0.131887570023536682
0.24048420786857605 0.00325186341069638729 0.181235566735267639
-0.112921468913555145 0.165784865617752075 0.34767267107963562
0.482527315616607666 -0.368009388446807861 -0.0220291018486022949
0.412636101245880127 -0.320776283740997314 -0.210998207330703735
0.50750434398651123 -0.155182749032974243 0.124083653092384338
0.529109001159667969 -0.334375470876693726 0.0128509057685732841
-0.58421027660369873 0.336730897426605225 0.0342525653541088104
-0.590863585472106934 0.382207244634628296 0.131447538733482361
0.526634514331817627 -0.243966415524482727 -0.310618668794631958
0.474806278944015503 -0.290351629257202148 -0.299424648284912109
-0.597329795360565186 0.353992253541946411 0.169854357838630676
-0.587453067302703857 0.371750473976135254 0.101287230849266052
-0.211849480867385864 -0.129161611199378967 -0.0576335303485393524
0.234693542122840881 -0.292688131332397461 0.315118402242660522
0.238254323601722717 0.0674314424395561218 0.320214331150054932
0.542152762413024902 -0.313506990671157837 -0.0580886602401733398
-0.444654166698455811 -0.0480296909809112549 0.127176865935325623
0.359989821910858154 -0.387970507144927979 -0.208977237343788147
-0.556595444679260254 0.211530193686485291 -0.113573230803012848
0.521138668060302734 -0.279194563627243042 -0.17709176242351532
0.242131367325782776 0.035080835223197937 0.31468963623046875
0.24303831160068512 0.000810131081379950047 0.0237438902258872986
0.380893915891647339 0.0392401926219463348 0.0119829867035150528
0.527101993560791016 -0.230265349149703979 -0.310124248266220093
0.32719770073890686 0.0965917780995368958 -0.0358234979212284088
-0.374117374420166016 -0.0598510615527629852 -0.132854923605918884
0.513129651546478271 -0.167183443903923035 0.13597753643989563
-0.574585676193237305 0.322334200143814087 0.0496233776211738586
-0.559109032154083252 0.283723235130310059 0.364322453737258911
0.224711641669273376 0.0323435403406620026 -0.0581184476613998413
-0.574340224266052246 0.215023055672645569 -0.221018090844154358
-0.0441948473453521729 0.15693625807762146 0.0813132673501968384
0.114278145134449005 0.110432751476764679 0.0255451463162899017
0.343118906021118164 -0.246607810258865356 -0.0968319252133369446
-0.285117238759994507 0.300758868455886841 -0.00273390952497720718
0.153582170605659485 -0.0039949323982000351 -0.00349221960641443729
0.0692025423049926758 0.139206200838088989 0.0757688730955123901
-0.270102083683013916 0.28051447868347168 0.00179005099926143885
0.503689825534820557 -0.292245030403137207 -0.159329280257225037
0.137253552675247192 -0.0254222825169563293 0.0131948953494429588
-0.338956207036972046 -0.0316108167171478271 0.0228674057871103287
0.373652994632720947 -0.091456286609172821 0.0443625748157501221
0.200146421790122986 0.101635217666625977 -0.00172687682788819075
-0.297183305025100708 -0.0246495697647333145 0.0360068641602993011
0.132062196731567383 -0.0174109693616628647 -0.0260176658630371094
0.101640217006206512 0.0164304245263338089 0.0913188308477401733
0.175854727625846863 0.119745545089244843 0.0381348803639411926
-0.230381593108177185 -0.0632923468947410583 0.104740627110004425
0.486456751823425293 -0.296294510364532471 -0.303558111190795898
-0.60329592227935791 0.289821267127990723 0.185303807258605957
0.467475146055221558 -0.30837935209274292 0.120147503912448883
0.378501206636428833 -0.014068111777305603 0.0064607253298163414
0.514676332473754883 -0.294968903064727783 -0.103467658162117004
0.519178092479705811 -0.239355981349945068 -0.30762442946434021
0.478299260139465332 -0.309360653162002563 -0.300312459468841553
0.483756422996520996 -0.274146467447280884 -0.29993864893913269
0.117382586002349854 0.119091242551803589 0.297749906778335571
-0.584295094013214111 0.356643825769424438 0.0659047961235046387
0.384060084819793701 -0.336993992328643799 0.125577405095100403
-0.574545383453369141 0.318009525537490845 -0.0264957565814256668
-0.604491233825683594 0.21749018132686615 -0.086862511932849884
0.268003523349761963 0.0396433398127555847 -0.0861944630742073059
-0.356302231550216675 -0.0217708740383386612 -0.131145134568214417
-0.564358949661254883 0.314638376235961914 -0.00784872099757194519
0.191067948937416077 -0.340452671051025391 -0.0747396796941757202
0.404580503702163696 -0.357259958982467651 -0.224054455757141113
-0.500286877155303955 0.145909026265144348 0.35478624701499939
0.509804368019104004 -0.151143059134483337 0.115054436028003693
0.497206956148147583 -0.263556420803070068 -0.304420024156570435
0.458354026079177856 -0.280506521463394165 -0.289773672819137573
0.441317975521087646 -0.264589279890060425 -0.283724814653396606
-0.588110804557800293 0.357748597860336304 0.0618172325193881989
0.505400478839874268 -0.126462846994400024 0.124477915465831757
-0.206275880336761475 0.312724858522415161 0.108858175575733185
0.268497824668884277 -0.283721625804901123 0.31929895281791687
0.23277321457862854 0.00384452566504478455 0.31798708438873291
0.513568520545959473 -0.175306528806686401 -0.281778693199157715
-0.115036047995090485 0.0102525763213634491 0.00595857296139001846
0.404313176870346069 -0.359288513660430908 -0.224678024649620056
0.417917191982269287 -0.312932610511779785 0.143835768103599548
-0.555612146854400635 0.37674906849861145 0.186925590038299561
-0.175690218806266785 0.309394657611846924 0.118542991578578949
-0.389755517244338989 0.276338189840316772 -0.0850175917148590088
0.365450501441955566 0.0521739162504673004 0.0246925018727779388
0.129353791475296021 0.115983627736568451 0.318980962038040161
-0.286331683397293091 -0.100195959210395813 -0.0920576378703117371
0.258339524269104004 0.101259343326091766 -0.0619538165628910065
-0.36112290620803833 -0.0594071447849273682 -0.144118770956993103
0.134306624531745911 0.113942444324493408 0.337928950786590576
-0.563102304935455322 0.199683859944343567 -0.22899879515171051
-0.276441186666488647 0.288286387920379639 -0.000844818423502147198
0.455260604619979858 -0.246081247925758362 -0.288312852382659912
0.460614770650863647 -0.275038272142410278 -0.290840625762939453
-0.634949386119842529 0.308448344469070435 0.170510292053222656
0.512792587280273438 -0.3171406090259552 -0.0385559424757957458
0.4693126380443573 -0.265437096357345581 -0.297969430685043335
0.478532016277313232 -0.294653385877609253 -0.300250113010406494
0.458516150712966919 -0.245864748954772949 -0.289884805679321289
0.38155817985534668 -0.360624164342880249 -0.213864803314208984
-0.479403436183929443 -0.0122079281136393547 0.185949265956878662
-0.516569972038269043 0.366023123264312744 0.174177840352058411
-0.618571102619171143 0.202385976910591125 -0.0871238186955451965
-0.237147584557533264 0.0191779080778360367 -0.072516903281211853
-0.382477790117263794 -0.0586645826697349548 0.0237512551248073578
0.47520020604133606 -0.368007153272628784 0.0218487363308668137
-0.649317622184753418 0.237087354063987732 0.0323144234716892242
0.412998378276824951 -0.346359848976135254 -0.221651136875152588
0.526343584060668945 -0.336821258068084717 0.0801119506359100342
0.506380856037139893 -0.238655924797058105 -0.308084011077880859
0.249856129288673401 -0.281903743743896484 0.31835705041885376
0.239409357309341431 0.0668624788522720337 0.314758509397506714
0.539874911308288574 -0.30149918794631958 -0.09365052729845047
-0.447812676429748535 -0.0410336852073669434 0.126609832048416138
-0.0436957739293575287 0.104769967496395111 0.317929297685623169
0.248192429542541504 0.0213261246681213379 0.322318315505981445
-0.284654378890991211 -0.0993270650506019592 -0.0990746244788169861
-0.137543901801109314 -0.0147352805361151695 -0.048768460750579834
-0.277909368276596069 0.33812183141708374 0.0470818765461444855
-0.254720360040664673 0.290184915065765381 -0.00316514866426587105
-0.218935653567314148 0.322146713733673096 0.0699450597167015076
-0.573264062404632568 0.152620568871498108 -0.0744440704584121704
-0.289970189332962036 0.2929859459400177 0.0161112919449806213
0.52592003345489502 -0.320331275463104248 0.0272163413465023041
0.346391350030899048 -0.0301536023616790771 -0.034412819892168045
0.522537529468536377 -0.362582862377166748 0.0894470512866973877
-0.0830514654517173767 -0.111477367579936981 0.0785372257232666016
-0.404035657644271851 0.326306551694869995 0.12132561206817627
0.505085468292236328 -0.366736829280853271 -0.00445320224389433861
-0.118703514337539673 0.266363769769668579 0.121065147221088409
0.519025027751922607 -0.342623710632324219 0.0358867235481739044
0.130615264177322388 -0.334318220615386963 0.301362454891204834
0.466933190822601318 -0.310720980167388916 0.0725183263421058655
0.483190357685089111 -0.37366873025894165 0.05237540602684021
0.421312779188156128 -0.025716954842209816 0.0649377703666687012
0.494487464427947998 -0.363195300102233887 -0.015502256341278553
-0.232979044318199158 0.28742450475692749 0.0842319205403327942
0.53152388334274292 -0.331425875425338745 -0.00719238724559545517
-0.271987825632095337 0.315658092498779297 0.114066213369369507
0.308498978614807129 0.00292060221545398235 0.046380460262298584
0.467794179916381836 -0.263046085834503174 -0.296040475368499756
0.474115282297134399 -0.304000675678253174 0.114299364387989044
0.51150667667388916 -0.313297271728515625 -0.104365669190883636
0.509529411792755127 -0.245003581047058105 -0.308403581380844116
0.448340833187103271 -0.292137265205383301 -0.292730033397674561
0.466770172119140625 -0.282901525497436523 -0.297250181436538696
0.138539537787437439 0.113060981035232544 0.336868911981582642
-0.652191519737243652 0.286040604114532471 0.0981437787413597107
-0.638337969779968262 0.245173156261444092 -0.0381296388804912567
0.136545732617378235 0.0695537850260734558 0.337988197803497314
-0.577134907245635986 0.304140478372573853 -0.0555016025900840759
0.262782812118530273 0.0308214928954839706 -0.0734032019972801208
0.542185068130493164 -0.21640622615814209 0.111625775694847107
-0.359928309917449951 -0.035405866801738739 -0.134324043989181519
-0.574786603450775146 0.327812045812606812 -0.0295037943869829178
-0.361634552478790283 -0.0705865323543548584 -0.033970315009355545
-0.130286306142807007 -0.267250329256057739 0.119127802550792694
0.495455265045166016 -0.365491598844528198 -0.000337073404807597399
0.3742503821849823 -0.359022349119186401 -0.210030168294906616
-0.378266692161560059 -0.106573238968849182 0.101352967321872711
-0.0668067112565040588 -0.26370471715927124 0.296580523252487183
0.520202934741973877 -0.242958128452301025 -0.309424042701721191
0.509762406349182129 -0.330232411623001099 0.0153095405548810959
-0.593432724475860596 0.369285762310028076 0.120703555643558502
-0.655371665954589844 0.176040276885032654 -0.102964602410793304
-0.222793102264404297 -0.143794730305671692 -0.0537139326333999634
-0.191270783543586731 0.316905349493026733 0.10081404447555542
0.256958514451980591 -0.283194661140441895 0.319790571928024292
0.239397779107093811 0.0325110442936420441 0.31922641396522522
-0.119889616966247559 -0.0457629039883613586 0.00734548410400748253
-0.641624569892883301 0.308969765901565552 0.10199139267206192
0.365144312381744385 -0.373565852642059326 -0.206945821642875671
0.537969231605529785 -0.217429503798484802 0.161917835474014282
-0.552824854850769043 0.38275301456451416 0.158099859952926636
-0.122482486069202423 0.259583830833435059 0.115195527672767639
0.119644977152347565 0.102774299681186676 0.08952370285987854
-0.375418633222579956 0.26618492603302002 -0.0895559340715408325
0.517167448997497559 -0.348733723163604736 0.0988162830471992493
-0.29332810640335083 -0.106792978942394257 -0.109309427440166473
0.275248557329177856 0.103312663733959198 -0.0575929209589958191
-0.575078248977661133 0.219928666949272156 -0.212611168622970581
-0.115526989102363586 0.268854975700378418 0.179890915751457214
0.236316725611686707 -0.287673711776733398 0.314478039741516113
0.310442745685577393 -0.187036275863647461 0.241109922528266907
0.542050600051879883 -0.325510412454605103 -0.0208915695548057556
0.0792986080050468445 -0.337409108877182007 0.282308995723724365
-0.00609647855162620544 -0.171520322561264038 0.0042818835936486721
-0.282245725393295288 0.262048840522766113 0.00707805994898080826
0.513458132743835449 -0.236728280782699585 -0.309418976306915283
-0.646980881690979004 0.278602093458175659 0.0796582847833633423
-0.64630812406539917 0.183549806475639343 -0.09081239253282547
0.514390766620635986 -0.32219347357749939 0.0243219323456287384
-0.406847894191741943 -0.0632961168885231018 0.113564655184745789
0.517133355140686035 -0.355375736951828003 -0.0205968525260686874
-0.566637635231018066 0.374630987644195557 0.15260690450668335
0.236148223280906677 0.0433228388428688049 0.313774466514587402
-0.664834916591644287 0.227488324046134949 0.0231963600963354111
-0.448022127151489258 -0.0381361059844493866 0.127119049429893494
0.503337860107421875 -0.30192267894744873 -0.178859874606132507
-0.589175939559936523 0.361352503299713135 0.0861948207020759583
-0.194112300872802734 0.315179586410522461 0.104931853711605072
0.247174933552742004 0.0242292061448097229 0.323912590742111206
0.531214714050292969 -0.323469698429107666 -0.0580583065748214722
-0.182857617735862732 0.307279765605926514 0.128549858927726746
0.247429654002189636 0.00730614224448800087 0.324043184518814087
0.0588189885020256042 0.139941513538360596 0.345823615789413452
-0.505713045597076416 0.149709418416023254 0.356989175081253052
0.271020054817199707 -0.310938924551010132 0.326333850622177124
-0.25358852744102478 0.0239155180752277374 -0.0707315504550933838
0.241366192698478699 -0.29498589038848877 0.322581201791763306
0.249197959899902344 0.0441088080406188965 0.314502567052841187
0.46860891580581665 -0.101625874638557434 0.034658823162317276
-0.124699443578720093 0.19540955126285553 0.115455813705921173
0.240266233682632446 -0.326303243637084961 0.318031668663024902
0.500539839267730713 -0.366273432970046997 0.0746869370341300964
0.5237160325050354 -0.324398159980773926 0.0262395832687616348
0.444860607385635376 -0.252963662147521973 0.332430750131607056
0.321847468614578247 -0.131098523736000061 -0.106643907725811005
0.063601665198802948 -0.0104529894888401031 0.321769893169403076
0.511591732501983643 -0.360572934150695801 0.0475435107946395874
0.135999009013175964 -0.100365243852138519 0.0405567362904548645
0.0498003140091896057 0.0118767060339450836 0.0297436658293008804
0.0210273414850234985 0.0485610179603099823 0.0426115803420543671
0.0883933752775192261 -0.0657670274376869202 0.289703488349914551
-0.161844134330749512 -0.265340089797973633 0.148024305701255798
0.265233129262924194 -0.0198437105864286423 0.061586327850818634
-0.0286887921392917633 -0.0287209339439868927 0.295624524354934692
0.502534449100494385 -0.23997284471988678 -0.302002638578414917
0.476339191198348999 -0.314593195915222168 -0.301947236061096191
-0.630929231643676758 0.306598782539367676 0.167493060231208801
0.475761353969573975 -0.320516139268875122 0.121063396334648132
0.509414851665496826 -0.300523728132247925 -0.105526939034461975
0.528576910495758057 -0.274550527334213257 -0.317185550928115845
0.493947625160217285 -0.332062631845474243 -0.3107014000415802
0.503794372081756592 -0.319835454225540161 0.0980531126260757446
0.474584877490997314 -0.305426567792892456 -0.298099786043167114
-0.55933988094329834 0.268377691507339478 0.364645510911941528
0.125217318534851074 0.1171155646443367 0.314281612634658813
-0.6335640549659729 0.282572478055953979 0.0543784685432910919
-0.587367236614227295 0.363103955984115601 0.102538444101810455
0.371981650590896606 -0.373717635869979858 -0.212723061442375183
0.438779264688491821 -0.347692191600799561 0.154395297169685364
0.0583169572055339813 0.12157372385263443 0.321196317672729492
-0.57458794116973877 0.369101017713546753 0.215678170323371887
0.265038609504699707 0.0249281227588653564 -0.0586056448519229889
0.369148552417755127 -0.336511194705963135 0.160681009292602539
0.510858714580535889 -0.301242470741271973 -0.111976176500320435
0.134104892611503601 -0.320296704769134521 -0.0977663546800613403
0.516909539699554443 -0.348501086235046387 -0.0202530063688755035
0.389756202697753906 -0.346447288990020752 -0.214079514145851135
-0.577007710933685303 0.319398611783981323 0.0408769659698009491
0.536390185356140137 -0.277521967887878418 -0.320590227842330933
0.468300461769104004 -0.310562372207641602 -0.299235761165618896
0.507524251937866211 -0.346843421459197998 0.017972288653254509
-0.555909454822540283 0.310033261775970459 0.102357447147369385
0.194372206926345825 -0.339074164628982544 -0.0591469854116439819
0.070576690137386322 -0.281933069229125977 -0.0778886079788208008
0.25282248854637146 -0.250052958726882935 0.320255041122436523
0.240192800760269165 0.0311538632959127426 0.31700405478477478
-0.120750546455383301 -0.0475614778697490692 0.00819969549775123596
0.179157152771949768 -0.0999188348650932312 -0.0147601412609219551
0.532786786556243896 -0.332031816244125366 -0.0131320254877209663
0.370837211608886719 -0.349172323942184448 -0.208858981728553772
0.535234451293945312 -0.245591640472412109 0.177332043647766113
0.561517596244812012 -0.315479934215545654 -0.330926001071929932
0.55479055643081665 -0.211473703384399414 0.133980616927146912
-0.543287575244903564 0.381052166223526001 0.164638727903366089
0.123127520084381104 0.117424830794334412 0.133204430341720581
-0.582245051860809326 0.352227389812469482 0.0979259833693504333
-0.481504529714584351 0.186283841729164124 -0.0915018320083618164
0.515965759754180908 -0.338921070098876953 0.0388805679976940155
0.253838419914245605 -0.278970390558242798 0.322075605392456055
0.279021471738815308 -0.355682969093322754 -0.12603151798248291
0.508317947387695312 -0.286329448223114014 -0.313657611608505249
-0.43199506402015686 -0.0569735318422317505 0.116793207824230194
0.202238142490386963 0.0907062143087387085 0.223459035158157349
0.244593098759651184 0.104810155928134918 -0.0571618266403675079
-0.195591703057289124 0.201756179332733154 0.34940636157989502
0.250755846500396729 0.0251165814697742462 0.323436856269836426
0.240119025111198425 0.0192092601209878922 0.321128249168395996
-0.0312369372695684433 0.162912502884864807 0.382764339447021484
-0.48239484429359436 -0.0154199302196502686 0.180302262306213379
0.484188854694366455 -0.368836671113967896 0.0461288914084434509
-0.643505990505218506 0.287412881851196289 0.0863770470023155212
0.276399940252304077 -0.165578603744506836 -0.0704435780644416809
-0.411647200584411621 -0.0566411428153514862 0.0789967253804206848
-0.642962634563446045 0.176014736294746399 -0.0818954035639762878
-0.225637763738632202 -0.133690983057022095 -0.0521728917956352234
0.255337536334991455 -0.265384018421173096 0.321237176656723022
-0.34513285756111145 0.0175721589475870132 -0.116873569786548615
-0.286850124597549438 -0.0913079604506492615 -0.106478534638881683
-0.584974765777587891 0.210143163800239563 -0.217916801571846008
0.26800161600112915 -0.296838909387588501 0.315312951803207397
-0.0251875407993793488 -0.187053143978118896 -0.0434237383306026459
-0.618041336536407471 0.277215510606765747 0.031544174998998642
-0.608832001686096191 0.298520982265472412 0.0926386639475822449
-0.397388726472854614 -0.0626503154635429382 0.118985168635845184
-0.451558828353881836 -0.0379639789462089539 0.119601577520370483
0.43145182728767395 -0.271591842174530029 0.329306602478027344
-0.0522292293608188629 0.141006246209144592 0.0918069556355476379
-0.502979397773742676 0.151333391666412354 0.355604052543640137
0.241224944591522217 -0.319128364324569702 0.322930455207824707
0.497558116912841797 -0.370660006999969482 0.0574472025036811829
0.399658292531967163 -0.25671619176864624 0.322585314512252808
-0.157998353242874146 -0.26332932710647583 0.181668370962142944
-0.499071031808853149 0.0142318801954388618 0.158227205276489258
0.417946815490722656 -0.297217637300491333 0.328856080770492554
0.535713672637939453 -0.340021431446075439 -0.0183632839471101761
0.344790548086166382 -0.267205566167831421 -0.127789214253425598
-0.496400326490402222 0.0721805542707443237 0.204136282205581665
0.443987756967544556 -0.272035509347915649 0.333533376455307007
0.52244192361831665 -0.335235297679901123 0.0328820832073688507
0.453873157501220703 -0.319696933031082153 -0.292976707220077515
0.474639147520065308 -0.311528652906417847 0.116802297532558441
0.5176888108253479 -0.278219938278198242 -0.312769323587417603
0.503150641918182373 -0.325748294591903687 -0.314267665147781372
0.518511533737182617 -0.326961904764175415 0.102014787495136261
0.479813694953918457 -0.311229169368743896 -0.302117675542831421
0.114814974367618561 0.118722818791866302 0.289138168096542358
-0.121839061379432678 0.268800556659698486 0.158903807401657104
-0.614792883396148682 0.265688300132751465 0.0522514320909976959
-0.479290962219238281 0.00324615440331399441 0.181478142738342285
0.427122741937637329 -0.354884058237075806 0.158677294850349426
-0.292023658752441406 -0.110376976430416107 -0.105733625590801239
0.130796536803245544 0.0656344443559646606 0.321351081132888794
0.254104942083358765 0.0388524830341339111 -0.077718585729598999
0.235824942588806152 0.0940354913473129272 -0.0529874861240386963
0.418181777000427246 -0.261372268199920654 -0.202283874154090881
0.522119641304016113 -0.354500323534011841 -0.0193796493113040924
-0.608888924121856689 0.381280213594436646 0.181442111730575562
0.518040359020233154 -0.279120355844497681 -0.314691901206970215
0.499551147222518921 -0.349853754043579102 0.0241659041494131088
-0.587852835655212402 0.369474202394485474 0.113226033747196198
0.506281137466430664 -0.104587480425834656 0.147384002804756165
-0.197971537709236145 0.311714142560958862 0.113050505518913269
0.264447689056396484 -0.286426931619644165 0.319902747869491577
0.237209931015968323 0.0622603073716163635 0.310668319463729858
-0.144202947616577148 -0.0433007627725601196 0.00426350440829992294
-0.657726526260375977 0.21490795910358429 -0.0460438355803489685
-0.288333117961883545 -0.0757696256041526794 -0.0685670152306556702
0.227614685893058777 0.0423231050372123718 -0.0480699539184570312
0.551843225955963135 -0.144353613257408142 0.132129460573196411
0.520150423049926758 -0.295227795839309692 0.0749845430254936218
0.518032252788543701 -0.283899039030075073 -0.181123390793800354
-0.357873737812042236 -0.0169084388762712479 -0.027883622795343399
0.0917707234621047974 0.0883555784821510315 0.0858760252594947815
0.467106670141220093 -0.361745715141296387 -0.010586167685687542
-0.432823389768600464 0.157940670847892761 -0.0664050206542015076
0.524195551872253418 -0.335508286952972412 0.0689868181943893433
0.263307690620422363 -0.285795927047729492 0.318625926971435547
0.00973907299339771271 -0.0908087044954299927 -0.0260506719350814819
0.0329323448240756989 -0.130219072103500366 0.0219362266361713409
-0.630700230598449707 0.265205115079879761 0.0292082522064447403
0.242405980825424194 0.0744278430938720703 0.318937838077545166
0.240501105785369873 0.0296786278486251831 0.319017320871353149
-0.174758955836296082 0.300994038581848145 0.116428613662719727
0.304984897375106812 -0.151181310415267944 0.307918071746826172
0.262343078851699829 -0.290596365928649902 0.321111679077148438
-0.476102173328399658 -0.00801828969269990921 0.166352808475494385
0.243037059903144836 0.0818655416369438171 0.312296599149703979
0.520621657371520996 -0.351162135601043701 0.0820229575037956238
-0.034539002925157547 -0.237437605857849121 0.124168373644351959
-0.638322353363037109 0.290191203355789185 0.0990051776170730591
-0.233955591917037964 -0.132662743330001831 -0.0579593516886234283
-0.379112869501113892 -0.10865512490272522 0.105622351169586182
-0.236161381006240845 -0.147683635354042053 -0.0578066073358058929
-0.657941758632659912 0.214600622653961182 -0.0337458290159702301
0.529257476329803467 -0.352495402097702026 0.0779639109969139099
-0.62115103006362915 0.270463645458221436 0.0526498220860958099
-0.404009461402893066 -0.0641924589872360229 0.112158305943012238
-0.446215987205505371 -0.0413518436253070831 0.122105740010738373
0.268408894538879395 -0.285488665103912354 0.323586702346801758
0.128031164407730103 -0.32647550106048584 0.312697261571884155
0.152693137526512146 -0.342965602874755859 0.317971140146255493
0.448210150003433228 -0.335456013679504395 -0.292950212955474854
0.516158401966094971 -0.302821606397628784 -0.107896700501441956
0.515663027763366699 -0.280091375112533569 -0.312787652015686035
0.485327690839767456 -0.327512413263320923 -0.309748739004135132
0.464821338653564453 -0.345719665288925171 -0.302623480558395386
0.549983084201812744 -0.210062846541404724 -0.315937817096710205
0.524530947208404541 -0.299879074096679688 -0.322440117597579956
0.518399715423583984 -0.300689399242401123 -0.318335860967636108
0.247134879231452942 0.0571495592594146729 0.316529989242553711
0.241602569818496704 0.0876183733344078064 0.312864452600479126
-0.291475027799606323 -0.100385844707489014 -0.101868264377117157
-0.453471511602401733 -0.0518313534557819366 0.117199867963790894
0.405130535364151001 -0.272134989500045776 0.322629064321517944
-0.50233304500579834 0.00392604246735572815 0.189276143908500671
0.401428043842315674 -0.287111908197402954 0.324945181608200073
0.399573564529418945 -0.27343064546585083 0.323425024747848511
0.342646420001983643 -0.258823126554489136 0.0901935696601867676
-0.0184338409453630447 -0.244232162833213806 0.128741815686225891
-0.464436799287796021 0.0361332930624485016 0.189689293503761292
-0.194329917430877686 0.221738770604133606 0.172169074416160583
0.367297470569610596 -0.329117268323898315 -0.0234420411288738251
0.323922872543334961 -0.389925897121429443 -0.158825695514678955
0.535805642604827881 -0.323477864265441895 -0.0581600479781627655
-0.441671490669250488 -0.00457964232191443443 0.152823880314826965
-0.0188375264406204224 -0.0593629367649555206 0.141822576522827148
0.000128474042867310345 -0.23596617579460144 0.106458179652690887
0.526553988456726074 -0.201645538210868835 -0.0799666643142700195
0.450258821249008179 -0.30814012885093689 -0.292833775281906128
0.527249693870544434 -0.275252938270568848 -0.315640300512313843
0.50034719705581665 -0.324697792530059814 -0.312637180089950562
0.475663810968399048 -0.304856240749359131 -0.297352403402328491
-0.12739090621471405 0.246772855520248413 0.139082744717597961
-0.649029850959777832 0.282219022512435913 0.0943976789712905884
-0.198920786380767822 0.286784499883651733 0.336037307977676392
0.498260647058486938 -0.0865992754697799683 0.136752992868423462
0.201245531439781189 -0.35898900032043457 -0.0907721817493438721
0.505807340145111084 -0.367521166801452637 -0.022637413814663887
0.527556240558624268 -0.242537319660186768 0.173036038875579834
-0.586010992527008057 0.379497319459915161 0.170826002955436707
0.445479452610015869 -0.314733743667602539 -0.287708550691604614
0.498849838972091675 -0.110959149897098541 0.11226218193769455
-0.655749857425689697 0.175724446773529053 -0.103661619126796722
-0.201943010091781616 0.308915525674819946 0.0892616286873817444
0.201616555452346802 -0.0134738991037011147 0.29538080096244812
0.160412818193435669 -0.0619882382452487946 -0.0439896769821643829
-0.579576492309570312 0.302419185638427734 0.368863493204116821
0.27534019947052002 0.0985443517565727234 -0.0290187448263168335
-0.435188740491867065 0.155647203326225281 -0.0859313607215881348
0.534805595874786377 -0.332890987396240234 0.0128129934892058372
-0.568682372570037842 0.197599664330482483 -0.229007869958877563
-0.497536778450012207 0.0452449247241020203 -0.0867583751678466797
0.0317807234823703766 -0.103825442492961884 0.0330930054187774658
0.534494936466217041 -0.264293372631072998 -0.31628572940826416
0.00994597654789686203 0.197837308049201965 0.0276919510215520859
0.302497893571853638 0.0390634089708328247 -0.0843902304768562317
-0.331953555345535278 -0.0157422423362731934 -0.10763656347990036
0.236782819032669067 0.0145666562020778656 0.321933090686798096
0.125363126397132874 0.0131268547847867012 0.29907459020614624
0.527880191802978516 -0.355012089014053345 0.0664097815752029419
0.467539548873901367 -0.309642612934112549 -0.233075603842735291
-0.652011454105377197 0.285557776689529419 0.104507811367511749
0.546878576278686523 -0.219815343618392944 0.163594335317611694
0.528412342071533203 -0.323212563991546631 -0.0159764345735311508
-0.382814913988113403 -0.0561802312731742859 0.0763269737362861633
0.457376927137374878 -0.310622483491897583 -0.292531728744506836
0.505426168441772461 -0.339620858430862427 -0.317874729633331299
0.47928309440612793 -0.314105331897735596 -0.299476772546768188
0.520805716514587402 -0.301094859838485718 -0.317300528287887573
-0.00187405163887888193 -0.139785006642341614 -0.0247292164713144302
0.397908151149749756 -0.272988855838775635 0.323600262403488159
0.401576757431030273 -0.271415829658508301 0.323904961347579956
0.506462335586547852 -0.331818550825119019 0.105943523347377777
-0.46743282675743103 0.0426724478602409363 0.170800507068634033
0.410460352897644043 -0.345704048871994019 0.156698957085609436
-0.36053737998008728 -0.0350116640329360962 -0.148027762770652771
-0.127818018198013306 -0.267488718032836914 0.112489156424999237
0.513019740581512451 -0.368860870599746704 -0.0145815741270780563
-0.213567376136779785 0.312715321779251099 0.0977942422032356262
0.25101199746131897 -0.286937803030014038 0.323050856590270996
0.209346309304237366 0.00961507577449083328 -0.046008136123418808
0.0704221427440643311 -0.151320502161979675 -0.0171452965587377548
-0.169599741697311401 0.304945021867752075 0.118993714451789856
0.471554368734359741 -0.364164739847183228 0.00713839335367083549
-0.290594816207885742 -0.0991762354969978333 -0.103125788271427155
0.036906268447637558 -0.149475589394569397 -0.021611509844660759
0.232509911060333252 0.0563781820237636566 0.309351980686187744
0.253818660974502563 -0.288499325513839722 0.320832222700119019
-0.471522241830825806 0.00137388310395181179 0.168816417455673218
0.241324439644813538 0.0628332123160362244 0.313252091407775879
0.509368240833282471 -0.351851910352706909 0.0640614256262779236
0.227855131030082703 -0.314642846584320068 0.314735680818557739
-0.375110536813735962 -0.0929116606712341309 0.0862979814410209656
-0.0623003318905830383 -0.241428732872009277 0.302698045969009399
-0.222304224967956543 -0.12740500271320343 -0.0530184656381607056
-0.409624248743057251 -0.0652038305997848511 0.0986498594284057617
-0.444760352373123169 -0.0444757416844367981 0.132881104946136475
0.239408716559410095 -0.293881416320800781 0.314607560634613037
0.154359742999076843 -0.32417258620262146 0.320283800363540649
0.425699025392532349 -0.255901128053665161 0.328749030828475952
0.43877062201499939 -0.342681288719177246 -0.29260331392288208
0.506842613220214844 -0.334322929382324219 -0.318019568920135498
0.445619523525238037 -0.352030038833618164 -0.286661356687545776
0.23858940601348877 0.0658962801098823547 0.312531441450119019
0.403654485940933228 -0.287340372800827026 0.326069295406341553
-0.494554996490478516 0.00695848558098077774 0.18855777382850647
0.486106395721435547 -0.0630315840244293213 0.131884455680847168
0.0130207240581512451 -0.170516639947891235 0.0099551565945148468
0.532001852989196777 -0.307410329580307007 -0.0621244870126247406
0.315373897552490234 -0.302034109830856323 -0.126722738146781921
0.446439504623413086 -0.291072875261306763 -0.285568535327911377
-0.336665242910385132 0.224909722805023193 0.125872030854225159
-0.40052834153175354 -0.0278987567871809006 -0.00178691220935434103
0.403561651706695557 -0.271558493375778198 0.324288129806518555
-0.133002176880836487 0.195985093712806702 0.167910709977149963
0.399612993001937866 -0.271495580673217773 0.324101865291595459
-0.446207940578460693 -0.0246730819344520569 0.021551329642534256
-0.137707963585853577 0.245031863451004028 0.191872298717498779
-0.612569332122802734 0.294269740581512451 0.183961346745491028
0.124931603670120239 0.116247452795505524 0.316870719194412231
-0.12064671516418457 0.250770598649978638 0.162007734179496765
-0.583063960075378418 0.348398655652999878 0.058331809937953949
0.427363038063049316 -0.347876310348510742 0.153181537985801697
-0.566460609436035156 0.295356541872024536 -0.068829655647277832
0.252373158931732178 0.0269818659871816635 -0.079446643590927124
0.248114123940467834 0.100655697286128998 -0.0482039377093315125
-0.357005834579467773 -0.0553617328405380249 -0.141764432191848755
0.199134290218353271 0.120466671884059906 0.0359210222959518433
0.545970559120178223 -0.131291165947914124 0.112128034234046936
-0.581360459327697754 0.322035610675811768 -0.0226718578487634659
0.206619188189506531 0.0248995237052440643 0.177013590931892395
-0.595097899436950684 0.375375181436538696 0.17224004864692688
0.445324569940567017 -0.318963468074798584 0.127511903643608093
0.255619078874588013 -0.278466075658798218 0.316676229238510132
0.235995680093765259 0.0240038372576236725 0.316778570413589478
-0.362478762865066528 -0.0494115836918354034 -0.0236560627818107605
-0.18224845826625824 0.118429549038410187 0.0424545630812644958
0.255335420370101929 -0.287903815507888794 0.31949266791343689
0.242426022887229919 0.033377964049577713 0.322044134140014648
0.400271475315093994 0.0236259941011667252 0.115341387689113617
-0.340031981468200684 -0.0657127872109413147 -0.147212028503417969
0.0763518884778022766 -0.332656592130661011 0.299149274826049805
-0.38634297251701355 -0.0604334697127342224 0.0939626991748809814
-0.447794407606124878 -0.0409495234489440918 0.127890512347221375
0.439843803644180298 -0.279021024703979492 0.3338204026222229
0.0350499376654624939 -0.122528977692127228 -0.0255173221230506897
0.41482272744178772 -0.280475705862045288 0.327166646718978882
0.433525890111923218 -0.29576757550239563 0.33332398533821106
0.368551850318908691 -0.27833440899848938 -0.130186513066291809
-0.47703126072883606 0.00182016997132450342 0.188497275114059448
-0.291009247303009033 -0.0958851724863052368 -0.104456387460231781
0.241966560482978821 -0.312667727470397949 0.309853196144104004
0.473774999380111694 -0.353889167308807373 0.00714791147038340569
-0.295844048261642456 -0.0961312428116798401 -0.106904268264770508
0.245313823223114014 -0.28825262188911438 0.320246189832687378
0.0628854632377624512 -0.32935759425163269 0.29723319411277771
0.158690035343170166 -0.267369747161865234 -0.105447858572006226
0.250618845224380493 0.063643328845500946 0.315678209066390991
-0.482126891613006592 -0.00753640476614236832 0.178121402859687805
0.236760318279266357 0.0668117925524711609 0.315033197402954102
0.239308744668960571 -0.331471353769302368 0.321583211421966553
-0.381781995296478271 -0.0915806218981742859 0.0368561036884784698
-0.215562611818313599 -0.139638528227806091 -0.054253261536359787
-0.382242381572723389 -0.0632396116852760315 0.0836758315563201904
0.150570467114448547 -0.331281721591949463 0.332075029611587524
0.446361303329467773 -0.279552072286605835 0.333743274211883545
0.407937973737716675 -0.280187696218490601 0.32528001070022583
-0.501644313335418701 0.00694008311256766319 0.188874781131744385
-0.321468830108642578 0.0976086556911468506 -0.0701509714126586914
0.533049464225769043 -0.207182943820953369 -0.0525426976382732391
0.451631098985671997 -0.293510735034942627 -0.290457844734191895
0.488085746765136719 -0.324864983558654785 -0.310878962278366089
0.447082489728927612 -0.309354603290557861 -0.290822714567184448
-0.577426671981811523 0.26943206787109375 0.366050899028778076
-0.460984379053115845 0.106206409633159637 -0.23089282214641571
0.375424504280090332 -0.318370699882507324 0.199218630790710449
-0.5894622802734375 0.367138147354125977 0.131450533866882324
0.393259674310684204 -0.353067278861999512 -0.217451483011245728
0.441781699657440186 -0.309896796941757202 -0.289031803607940674
-0.200327649712562561 0.305642843246459961 0.0951227545738220215
-0.155159413814544678 0.268137484788894653 0.151821479201316833
0.530354082584381104 -0.338140010833740234 0.0719024911522865295
0.464455157518386841 -0.265779376029968262 -0.217638313770294189
-0.633183181285858154 0.275961250066757202 0.107252523303031921
0.439103901386260986 -0.308189153671264648 -0.287202417850494385
0.516104161739349365 -0.276834577322006226 -0.316838681697845459
0.517242670059204102 -0.339978456497192383 -0.320756494998931885
0.455040186643600464 -0.306670248508453369 -0.293258488178253174
0.491452574729919434 -0.321621090173721313 0.0944727510213851929
0.0212714727967977524 -0.275445371866226196 -0.0184921547770500183
-0.653677821159362793 0.172262951731681824 -0.10794251412153244
-0.224364340305328369 0.318732351064682007 0.121520914137363434
0.465953648090362549 -0.363770395517349243 0.00597703643143177032
0.481647878885269165 -0.336499243974685669 0.0503553338348865509
0.512147486209869385 -0.339037001132965088 -0.319415271282196045
0.44088369607925415 -0.356179177761077881 -0.297615349292755127
-0.26966211199760437 0.322217375040054321 0.0420330017805099487
0.42483404278755188 -0.312909841537475586 -0.28189617395401001
0.416026115417480469 -0.29492911696434021 0.328612834215164185
-0.325631380081176758 -0.0750634744763374329 0.123612992465496063
-0.366438060998916626 -0.0663866177201271057 0.154831260442733765
-0.337916374206542969 0.215078100562095642 0.133008897304534912
0.0105267846956849098 0.119652979075908661 0.105295568704605103
0.542596340179443359 -0.308884024620056152 -0.0461563840508460999
0.0142753161489963531 -0.261447608470916748 0.0396030358970165253
-0.00293635856360197067 -0.23623889684677124 0.0943663343787193298
0.000821335706859827042 -0.219278141856193542 0.0816249251365661621
0.465524464845657349 -0.360631316900253296 0.0303820818662643433
-0.268898934125900269 -0.137690961360931396 0.177635803818702698
-0.344632714986801147 -0.0655594542622566223 0.141415700316429138
0.124093130230903625 -0.276383429765701294 0.129090040922164917
-0.133412078022956848 0.07907838374376297 0.0904261097311973572
0.463973939418792725 -0.0541174747049808502 0.017673226073384285
-0.0135201029479503632 -0.216588720679283142 0.0804658606648445129
-0.554440081119537354 0.391827136278152466 0.147963717579841614
0.49720531702041626 -0.366502851247787476 0.00530396541580557823
-0.61039811372756958 0.294267117977142334 0.186765074729919434
0.530628859996795654 -0.274902820587158203 -0.317676573991775513
0.370921492576599121 -0.26434028148651123 0.181635826826095581
0.42091977596282959 -0.344192445278167725 0.150948420166969299
0.252500861883163452 0.0394774749875068665 -0.0665747746825218201
0.549876272678375244 -0.149685412645339966 0.124315857887268066
-0.570224523544311523 0.284333676099777222 -0.0061788465827703476
0.501473128795623779 -0.362355530261993408 -0.00122811249457299709
0.208679690957069397 0.115931198000907898 -0.0103308763355016708
-0.288677334785461426 -0.085275605320930481 -0.0662934109568595886
0.159801706671714783 -0.0829527825117111206 -0.0360743924975395203
-0.339487135410308838 -0.105124406516551971 0.141453325748443604
0.511648356914520264 -0.28106158971786499 -0.313191652297973633
-0.33880189061164856 -0.0792963802814483643 0.038756001740694046
-0.368983477354049683 0.281003266572952271 -0.0624271519482135773
0.510387957096099854 -0.340706676244735718 0.0651864036917686462
0.302808463573455811 -0.205673709511756897 0.248031437397003174
0.543341457843780518 -0.311768233776092529 -0.0607071854174137115
0.141962110996246338 0.0696975141763687134 0.33652457594871521
-0.594540059566497803 0.267798364162445068 0.0123996511101722717
0.222439363598823547 -0.00687808729708194733 0.29571610689163208
0.231271803379058838 0.034535534679889679 0.312912344932556152
0.534043729305267334 -0.319379091262817383 -0.0127447377890348434
-0.38887786865234375 -0.0636462196707725525 0.105930320918560028
-0.447137385606765747 -0.0398016758263111115 0.126741856336593628
0.496365725994110107 -0.0911095589399337769 0.154548868536949158
0.251286089420318604 0.0633203014731407166 0.316796183586120605
-0.290885806083679199 -0.0924330428242683411 0.307903289794921875
-0.366082280874252319 -0.11441599577665329 0.104218177497386932
-0.56303715705871582 0.127621367573738098 -0.0782488361001014709
-0.501112639904022217 0.0237830914556980133 0.186921641230583191
0.518707156181335449 -0.297084420919418335 -0.314029663801193237
0.473198056221008301 -0.327975064516067505 -0.299881666898727417
-0.573959469795227051 0.269098043441772461 0.36297607421875
-0.5708732008934021 0.355124413967132568 0.16730809211730957
-0.191411808133125305 0.30489271879196167 0.101484611630439758
-0.66173166036605835 0.240061715245246887 0.0419115759432315826
-0.504553377628326416 0.144677922129631042 0.353590905666351318
0.507735610008239746 -0.346903741359710693 -0.318312287330627441
-0.200238198041915894 0.305225521326065063 0.102144047617912292
0.475675195455551147 -0.357415854930877686 0.00473346328362822533
0.51027071475982666 -0.330524653196334839 0.0664627552032470703
-0.610404253005981445 0.367827147245407104 0.0880507603287696838
-0.562160015106201172 0.288576990365982056 -0.0557283200323581696
0.220364078879356384 0.0104786418378353119 0.30924561619758606
0.24092566967010498 0.00531076733022928238 0.321708142757415771
-0.35905805230140686 -0.056507159024477005 -0.137759953737258911
0.399740517139434814 -0.252569347620010376 0.322030365467071533
0.400045156478881836 -0.262939751148223877 0.324782639741897583
0.224578544497489929 -0.323929578065872192 0.320813447237014771
0.411525458097457886 -0.267679065465927124 0.325201183557510376
-0.50875931978225708 0.0497445724904537201 0.19551888108253479
-0.630850434303283691 0.156822457909584045 -0.0524117313325405121
-0.501525759696960449 0.147244051098823547 0.34556308388710022
0.521533489227294922 -0.350467681884765625 -0.323056787252426147
0.495842993259429932 -0.348144829273223877 0.000250795419560745358
-0.197399824857711792 0.0164518337696790695 -0.0498337522149085999
-0.557420492172241211 0.342039883136749268 -0.00549206649884581566
0.489049822092056274 -0.36027836799621582 0.0410792231559753418
0.449597537517547607 -0.0740371420979499817 0.00199038931168615818
-0.55597001314163208 0.385435730218887329 0.15808771550655365
0.375116020441055298 -0.0809785127639770508 -0.119901187717914581
-0.389367073774337769 0.319806963205337524 0.169018998742103577
-0.384329229593276978 0.328361988067626953 0.197718456387519836
-0.363765805959701538 0.238287851214408875 -0.0833372622728347778
-0.406929075717926025 0.199789807200431824 0.0410804376006126404
-0.644135534763336182 0.287090003490447998 0.0939003750681877136
0.409094095230102539 -0.34706413745880127 0.136468395590782166
0.222784563899040222 0.0830908343195915222 -0.0334725342690944672
0.498977333307266235 -0.161122605204582214 0.12385258823633194
0.500702619552612305 -0.0927168205380439758 0.134778633713722229
0.215781271457672119 0.00203636474907398224 0.299576878547668457
-0.352666944265365601 -0.0678267478942871094 -0.00895299669355154037
-0.385017842054367065 0.266269057989120483 -0.0715152248740196228
0.506960511207580566 -0.346926212310791016 0.0549379028379917145
-0.356476455926895142 -0.0559688471257686615 -0.145352229475975037
0.132590204477310181 0.0727599039673805237 0.322249859571456909
-0.0990002751350402832 -0.26528775691986084 0.00618732906877994537
0.242828875780105591 0.0234487242996692657 0.322015136480331421
-0.479989826679229736 -0.011460496112704277 0.185502827167510986
0.242852538824081421 0.048433057963848114 0.317197293043136597
-0.27782931923866272 0.332885682582855225 0.0408173687756061554
0.370278835296630859 -0.0306971054524183273 -0.0399268269538879395
0.5206717848777771 -0.347834348678588867 -0.0363251417875289917
0.293747991323471069 -0.0118080778047442436 0.0370551012456417084
-0.643822073936462402 0.285009145736694336 0.0927471667528152466
0.0361112430691719055 0.136872410774230957 0.0852051526308059692
