ply
format ascii 1.0
element vertex 738
property float x
property float y
property float z
end_header
-0.0321570858359336853 0.163065433502197266 0.382443279027938843
-0.483237713575363159 -0.0153536973521113396 0.180081561207771301
0.482948124408721924 -0.36898687481880188 0.0458992868661880493
-0.644182145595550537 0.28738856315612793 0.0860406085848808289
0.275071591138839722 -0.165718942880630493 -0.0706979855895042419
-0.412603944540023804 -0.0566049516201019287 0.0788149610161781311
-0.643754899501800537 0.175933972001075745 -0.0822038725018501282
-0.226816445589065552 -0.133711472153663635 -0.0523370429873466492
0.254109650850296021 -0.265363037586212158 0.320907473564147949
-0.346158325672149658 0.0175285637378692627 -0.117052115499973297
-0.287991493940353394 -0.0913438946008682251 -0.106624096632003784
-0.585816025733947754 0.210008814930915833 -0.218210950493812561
0.266760528087615967 -0.296830862760543823 0.314984232187271118
-0.0265147220343351364 -0.187064990401268005 -0.0436094515025615692
-0.618748605251312256 0.277181416749954224 0.0312240570783615112
-0.609503746032714844 0.298514515161514282 0.0923173874616622925
-0.398340791463851929 -0.062596932053565979 0.118797868490219116
-0.452461659908294678 -0.0379180647432804108 0.119400478899478912
0.430305629968643188 -0.271642327308654785 0.328989803791046143
-0.0532144680619239807 0.141046151518821716 0.0914876013994216919
-0.503688633441925049 0.151452571153640747 0.355325013399124146
0.239972427487373352 -0.319111555814743042 0.322606891393661499
0.496333777904510498 -0.37080681324005127 0.057217676192522049
0.398492246866226196 -0.256751298904418945 0.322262436151504517
-0.159187644720077515 -0.263270258903503418 0.181465193629264832
-0.499898910522460938 0.0142854442819952965 0.157995074987411499
0.416778147220611572 -0.297268956899642944 0.328540116548538208
0.534517824649810791 -0.340193629264831543 -0.0185713116079568863
0.343428343534469604 -0.267396867275238037 -0.128007709980010986
-0.497171759605407715 0.072256140410900116 0.203889667987823486
0.442852914333343506 -0.272090375423431396 0.333218216896057129
0.521250903606414795 -0.335392147302627563 0.0326578244566917419
0.452562600374221802 -0.319987714290618896 -0.293151289224624634
0.473444283008575439 -0.311658203601837158 0.116542816162109375
0.516467452049255371 -0.278518646955490112 -0.312943965196609497
0.501889824867248535 -0.326041340827941895 -0.314432680606842041
0.517343044281005859 -0.327098369598388672 0.101770743727684021
0.478534281253814697 -0.311525136232376099 -0.302289366722106934
0.113796375691890717 0.118816860020160675 0.288784235715866089
-0.122655004262924194 0.268889516592025757 0.158574134111404419
-0.615495383739471436 0.265663892030715942 0.0519352443516254425
-0.480113774538040161 0.0033189249224960804 0.181262701749801636
0.425871461629867554 -0.354985922574996948 0.158407315611839294
-0.293166816234588623 -0.110418535768985748 -0.105876199901103973
0.129736334085464478 0.065731242299079895 0.320999890565872192
0.252925455570220947 0.0386842228472232819 -0.0780678689479827881
0.23471347987651825 0.0938797146081924438 -0.0533626526594161987
0.416870534420013428 -0.261622220277786255 -0.20249195396900177
0.52090299129486084 -0.354672104120254517 -0.0195876490324735641
-0.609512150287628174 0.381319224834442139 0.181104466319084167
0.5168190598487854 -0.279419511556625366 -0.314866065979003906
0.498327016830444336 -0.350012838840484619 0.0239418279379606247
-0.588491380214691162 0.369490385055541992 0.112896859645843506
0.505237817764282227 -0.104729235172271729 0.147058784961700439
-0.198754370212554932 0.311793118715286255 0.112733446061611176
0.263212084770202637 -0.286414742469787598 0.31957322359085083
0.236151143908500671 0.0622950717806816101 0.310278922319412231
-0.145360440015792847 -0.0432877093553543091 0.00403588823974132538
-0.658492684364318848 0.214838191866874695 -0.0463619045913219452
-0.289444029331207275 -0.0757909491658210754 -0.0687295570969581604
0.226443082094192505 0.0421879515051841736 -0.0484180748462677002
0.550810158252716064 -0.144500166177749634 0.131833046674728394
0.51899343729019165 -0.295375734567642212 0.0747405365109443665
0.516814947128295898 -0.284139841794967651 -0.181315943598747253
-0.358881950378417969 -0.0169102661311626434 -0.0280571542680263519
0.090675942599773407 0.0883621573448181152 0.0855348855257034302
0.465829372406005859 -0.36191675066947937 -0.0108048319816589355
-0.433683693408966064 0.157914415001869202 -0.0666324198246002197
0.523017525672912598 -0.335653930902481079 0.0687540695071220398
0.262071698904037476 -0.285783171653747559 0.318296551704406738
0.00845579802989959717 -0.0908166319131851196 -0.0262874029576778412
0.0316414348781108856 -0.130205810070037842 0.0217035822570323944
-0.631413698196411133 0.265166610479354858 0.0288860965520143509
0.241360932588577271 0.0744621381163597107 0.31854364275932312
0.239416882395744324 0.0297156162559986115 0.318634182214736938
-0.175550445914268494 0.301070541143417358 0.116106376051902771
0.30380856990814209 -0.151168465614318848 0.307570338249206543
0.261105716228485107 -0.290583968162536621 0.32078281044960022
-0.476949870586395264 -0.00795631669461727142 0.166133314371109009
0.241997331380844116 0.0818963497877120972 0.311900228261947632
0.519436419010162354 -0.351302653551101685 0.0817893743515014648
-0.0358214527368545532 -0.23737315833568573 0.12396027147769928
-0.638994574546813965 0.290174901485443115 0.0986715257167816162
-0.235129758715629578 -0.13268616795539856 -0.0581207238137722015
-0.380113095045089722 -0.108602672815322876 0.105458281934261322
-0.23734089732170105 -0.147708937525749207 -0.0579622052609920502
-0.658702254295349121 0.214534983038902283 -0.0340646542608737946
0.528078436851501465 -0.352636575698852539 0.0777338296175003052
-0.62185215950012207 0.270437657833099365 0.0523302406072616577
-0.404961585998535156 -0.0641425251960754395 0.111972592771053314
-0.447123259305953979 -0.0413042977452278137 0.121905766427516937
0.267175853252410889 -0.285477757453918457 0.323256522417068481
0.12676452100276947 -0.326414376497268677 0.312395781278610229
0.151421621441841125 -0.342914879322052002 0.31766471266746521
0.446885347366333008 -0.335744112730026245 -0.293122351169586182
0.51494210958480835 -0.303031235933303833 -0.10809827595949173
0.514438629150390625 -0.280390173196792603 -0.31296202540397644
0.484046697616577148 -0.327806621789932251 -0.309916019439697266
0.463507741689682007 -0.346010953187942505 -0.302790135145187378
0.548827588558197021 -0.210370317101478577 -0.316129475831985474
0.523306369781494141 -0.30017542839050293 -0.322607070207595825
0.517168045043945312 -0.300985515117645264 -0.318503916263580322
0.246074840426445007 0.0571803189814090729 0.316138327121734619
0.240568161010742188 0.0876501202583312988 0.312467217445373535
-0.292618542909622192 -0.100419029593467712 -0.102008551359176636
-0.454384058713912964 -0.0517875254154205322 0.117002040147781372
0.403961658477783203 -0.272175818681716919 0.322308629751205444
-0.503154218196868896 0.00399048114195466042 0.189041167497634888
0.400250405073165894 -0.287154346704483032 0.324625611305236816
0.398400336503982544 -0.273469299077987671 0.323103785514831543
0.341356724500656128 -0.25892031192779541 0.0899186581373214722
-0.0197256896644830704 -0.244165986776351929 0.128530696034431458
-0.465252697467803955 0.0362077243626117706 0.189458832144737244
-0.19515499472618103 0.221838727593421936 0.171877861022949219
0.365942865610122681 -0.329268127679824829 -0.0236716475337743759
0.322478592395782471 -0.390112310647964478 -0.159010887145996094
0.53460848331451416 -0.323665887117385864 -0.0583634823560714722
-0.442542552947998047 -0.00451729027554392815 0.152611330151557922
-0.0200159512460231781 -0.059295952320098877 0.141553223133087158
-0.00117803760804235935 -0.235906898975372314 0.106249719858169556
0.525412619113922119 -0.201861202716827393 -0.0802029743790626526
0.44895055890083313 -0.308433264493942261 -0.293011128902435303
0.526039958000183105 -0.275551080703735352 -0.315814077854156494
0.49908369779586792 -0.324991017580032349 -0.312802940607070923
0.474382102489471436 -0.305153697729110718 -0.297525674104690552
-0.128229573369026184 0.246850639581680298 0.138759523630142212
-0.649697422981262207 0.282190263271331787 0.0940549671649932861
-0.19967670738697052 0.286938995122909546 0.335728436708450317
0.497220665216445923 -0.0867490097880363464 0.136420354247093201
0.199775323271751404 -0.359078019857406616 -0.0909408926963806152
0.504566490650177002 -0.367694109678268433 -0.0228459220379590988
0.526459693908691406 -0.242654502391815186 0.172756597399711609
-0.5866280198097229 0.379539728164672852 0.170496731996536255
0.44416278600692749 -0.315022766590118408 -0.287885934114456177
0.497791916131973267 -0.111118845641613007 0.11194329708814621
-0.656546950340270996 0.175630807876586914 -0.103977389633655548
-0.202734798192977905 0.308982163667678833 0.0889452472329139709
0.200480520725250244 -0.013414689339697361 0.295018136501312256
0.159135401248931885 -0.062060333788394928 -0.0442674309015274048
-0.580201923847198486 0.302508741617202759 0.36853829026222229
0.274251580238342285 0.0983691513538360596 -0.0294121243059635162
-0.436057746410369873 0.155610993504524231 -0.0861579328775405884
0.533621490001678467 -0.333054065704345703 0.0125962560996413231
-0.569536745548248291 0.19746263325214386 -0.22929227352142334
-0.498444259166717529 0.045200001448392868 -0.0869746804237365723
0.030510464683175087 -0.103808850049972534 0.0328472629189491272
0.533297836780548096 -0.264592289924621582 -0.316461712121963501
0.0089953811839222908 0.197822436690330505 0.0273337848484516144
0.301334470510482788 0.0388590767979621887 -0.0847503989934921265
-0.333007633686065674 -0.0157817937433719635 -0.10780700296163559
0.235686361789703369 0.0146078579127788544 0.321554481983184814
0.124252237379550934 0.013219168409705162 0.298735141754150391
0.526695072650909424 -0.355156481266021729 0.0661825388669967651
0.466249436140060425 -0.309905141592025757 -0.233260467648506165
-0.652674555778503418 0.285531699657440186 0.104163222014904022
0.545807778835296631 -0.219939246773719788 0.163314685225486755
0.52721935510635376 -0.323386520147323608 -0.0161902345716953278
-0.383790045976638794 -0.0561407916247844696 0.0761484131217002869
0.456074357032775879 -0.310915470123291016 -0.292707532644271851
0.504160881042480469 -0.339912503957748413 -0.31803622841835022
0.478001415729522705 -0.314399600028991699 -0.299648284912109375
0.51957625150680542 -0.301389962434768677 -0.317468225955963135
-0.00317864795215427876 -0.139789566397666931 -0.0249423440545797348
0.396733939647674561 -0.27302667498588562 0.323278695344924927
0.400405973196029663 -0.271454811096191406 0.323583841323852539
0.505281269550323486 -0.331953138113021851 0.105696797370910645
-0.468249648809432983 0.0427398420870304108 0.170570984482765198
0.409197717905044556 -0.345801055431365967 0.156426355242729187
-0.361599773168563843 -0.0350756198167800903 -0.148184448480606079
-0.129069581627845764 -0.267437547445297241 0.11231251060962677
0.511788070201873779 -0.369030624628067017 -0.0147900404408574104
-0.214353278279304504 0.312788456678390503 0.0974814370274543762
0.249775007367134094 -0.286919265985488892 0.322722971439361572
0.208134844899177551 0.00950129050761461258 -0.046335369348526001
0.069096885621547699 -0.151331767439842224 -0.0173662435263395309
-0.170390516519546509 0.305023044347763062 0.118668109178543091
0.470283061265945435 -0.364332228899002075 0.00691727781668305397
-0.291738778352737427 -0.0992098450660705566 -0.103266410529613495
0.0355870053172111511 -0.149483367800712585 -0.0218270923942327499
0.231444805860519409 0.0564156956970691681 0.308965623378753662
0.252580642700195312 -0.288482546806335449 0.320504337549209595
-0.47236335277557373 0.00143892306368798018 0.168597236275672913
0.240267515182495117 0.0628662630915641785 0.312861084938049316
0.508166372776031494 -0.351997852325439453 0.0638296902179718018
0.226599976420402527 -0.314618885517120361 0.314414232969284058
-0.376113265752792358 -0.0928603783249855042 0.086142316460609436
-0.0634732246398925781 -0.241344749927520752 0.302426576614379883
-0.223482623696327209 -0.127425134181976318 -0.0531857572495937347
-0.410579562187194824 -0.0651598051190376282 0.0984670147299766541
-0.445666313171386719 -0.0444242358207702637 0.132679522037506104
0.238163992762565613 -0.293859153985977173 0.314282625913619995
0.153097346425056458 -0.32411995530128479 0.319974899291992188
0.424554646015167236 -0.255945742130279541 0.328429490327835083
0.437432378530502319 -0.342968106269836426 -0.292775064706802368
0.505581557750701904 -0.334615170955657959 -0.318181991577148438
0.444281846284866333 -0.35231393575668335 -0.286831289529800415
0.237534523010253906 0.065930783748626709 0.312140673398971558
0.402478694915771484 -0.28738364577293396 0.325750082731246948
-0.495375216007232666 0.00702585699036717415 0.188327282667160034
0.485070914030075073 -0.0631856322288513184 0.131540045142173767
0.011701616458594799 -0.170500218868255615 0.0097464974969625473
0.530809283256530762 -0.307602256536483765 -0.0623313486576080322
0.313973695039749146 -0.302208870649337769 -0.126928403973579407
0.445135742425918579 -0.29136618971824646 -0.285751193761825562
-0.337447822093963623 0.22499065101146698 0.125620543956756592
-0.401507645845413208 -0.0278934892266988754 -0.00195955461822450161
0.402392327785491943 -0.271598249673843384 0.323967307806015015
-0.1338767409324646 0.196076750755310059 0.167605027556419373
0.398440808057785034 -0.271533697843551636 0.323780417442321777
-0.44714704155921936 -0.0246642418205738068 0.0213638376444578171
-0.138532012701034546 0.245136529207229614 0.19155670702457428
-0.613215923309326172 0.294298171997070312 0.183640703558921814
0.123918391764163971 0.116345614194869995 0.3165130615234375
-0.121477797627449036 0.250859588384628296 0.161683008074760437
-0.583737969398498535 0.348394393920898438 0.0580086968839168549
0.42611384391784668 -0.347979873418807983 0.152912065386772156
-0.567206859588623047 0.295290917158126831 -0.0691353902220726013
0.251178890466690063 0.0268167462199926376 -0.0797892361879348755
0.247015669941902161 0.100491315126419067 -0.0485868863761425018
-0.358081519603729248 -0.0554231218993663788 -0.141915231943130493
0.198078647255897522 0.120376564562320709 0.0355347581207752228
0.54493868350982666 -0.131448790431022644 0.111829660832881927
-0.582079470157623291 0.321993082761764526 -0.0229894518852233887
0.205484658479690552 0.0248983092606067657 0.176652535796165466
-0.59571993350982666 0.375414550304412842 0.171908557415008545
0.444099515676498413 -0.319081366062164307 0.12724652886390686
0.254384100437164307 -0.278448373079299927 0.316347569227218628
0.234905406832695007 0.0240431297570466995 0.31639823317527771
-0.363505274057388306 -0.0494141764938831329 -0.0238204803317785263
-0.183218613266944885 0.118465401232242584 0.0421834103763103485
0.254097402095794678 -0.287887722253799438 0.31916460394859314
0.24134594202041626 0.0334147587418556213 0.321659564971923828
0.399222612380981445 0.0234711542725563049 0.11494830995798111
-0.34112626314163208 -0.0657772347331047058 -0.147360831499099731
0.0750810205936431885 -0.332584798336029053 0.298862278461456299
-0.387311249971389771 -0.0603871941566467285 0.0937823206186294556
-0.448698192834854126 -0.0409001149237155914 0.127688795328140259
0.43870246410369873 -0.279075890779495239 0.333505481481552124
0.03374515101313591 -0.122540272772312164 -0.0257437527179718018
0.413658708333969116 -0.280521810054779053 0.326848417520523071
0.432371556758880615 -0.295824140310287476 0.333010017871856689
0.367197602987289429 -0.278535038232803345 -0.130403324961662292
-0.477828621864318848 0.00190906447824090719 0.188305392861366272
-0.292150646448135376 -0.0959198474884033203 -0.104598760604858398
0.24071204662322998 -0.312650501728057861 0.309530794620513916
0.472515076398849487 -0.354054480791091919 0.00692445458844304085
-0.296979039907455444 -0.0961705446243286133 -0.107049085199832916
0.244074389338493347 -0.288231849670410156 0.319919407367706299
0.0616178512573242188 -0.329284399747848511 0.296949237585067749
0.15726839005947113 -0.267455130815505981 -0.105625130236148834
0.249564915895462036 0.0636712312698364258 0.315283715724945068
-0.482962965965270996 -0.00746919587254524231 0.177901968359947205
0.235706493258476257 0.0668485164642333984 0.314642876386642456
0.238050088286399841 -0.331455886363983154 0.321261137723922729
-0.382799774408340454 -0.0915600880980491638 0.0366972722113132477
-0.216751858592033386 -0.139660671353340149 -0.0544179864227771759
-0.383219718933105469 -0.0631970018148422241 0.0834985822439193726
0.149309158325195312 -0.331229507923126221 0.331765472888946533
0.445225358009338379 -0.279609650373458862 0.333429336547851562
0.406768381595611572 -0.280231177806854248 0.32496073842048645
-0.502463817596435547 0.00700472341850399971 0.188639655709266663
-0.322428911924362183 0.097593650221824646 -0.0703659281134605408
0.531917154788970947 -0.207387357950210571 -0.0527817010879516602
0.450331121683120728 -0.293806850910186768 -0.290638148784637451
0.486809194087982178 -0.325159698724746704 -0.311046302318572998
0.445770382881164551 -0.309646278619766235 -0.291000545024871826
-0.578061521053314209 0.269522428512573242 0.365732342004776001
-0.461927950382232666 0.106090009212493896 -0.231105789542198181
0.374161601066589355 -0.318436235189437866 0.198928296566009521
-0.59010159969329834 0.367163032293319702 0.131122112274169922
0.391870439052581787 -0.353310346603393555 -0.217636361718177795
0.440463930368423462 -0.310187101364135742 -0.28921043872833252
-0.201117217540740967 0.305711567401885986 0.0948077365756034851
-0.155969515442848206 0.26822662353515625 0.151503622531890869
0.529181241989135742 -0.33828437328338623 0.0716710612177848816
0.463187962770462036 -0.2660408616065979 -0.217837527394294739
-0.633859574794769287 0.275951385498046875 0.10692548006772995
0.437784165143966675 -0.308478713035583496 -0.287382066249847412
0.514882266521453857 -0.277135342359542847 -0.317013561725616455
0.515989959239959717 -0.340268343687057495 -0.320916086435317993
0.4537372887134552 -0.30696442723274231 -0.293435275554656982
0.490260511636734009 -0.321759730577468872 0.0942238420248031616
0.019878830760717392 -0.275443583726882935 -0.0186553820967674255
-0.65448153018951416 0.172170460224151611 -0.108254238963127136
-0.225137367844581604 0.318819642066955566 0.121211692690849304
0.464677870273590088 -0.363936871290206909 0.00575487269088625908
0.480422765016555786 -0.336649656295776367 0.0501184500753879547
0.510889768600463867 -0.339327812194824219 -0.319575875997543335
0.439540505409240723 -0.356467217206954956 -0.297783613204956055
-0.270459443330764771 0.322268694639205933 0.0417333804070949554
0.423496842384338379 -0.313195079565048218 -0.28207695484161377
0.414856910705566406 -0.294979065656661987 0.328296303749084473
-0.326633870601654053 -0.0750035494565963745 0.123423650860786438
-0.367395520210266113 -0.066318221390247345 0.154635235667228699
-0.338701128959655762 0.215161547064781189 0.132759496569633484
0.00949736312031745911 0.119686856865882874 0.104964487254619598
0.54141688346862793 -0.309069603681564331 -0.0463641136884689331
0.0129188010469079018 -0.261418670415878296 0.039419468492269516
-0.00424768682569265366 -0.23618413507938385 0.0941626280546188354
-0.000488102872623130679 -0.219227001070976257 0.0814196318387985229
0.464262843132019043 -0.360786199569702148 0.0301520247012376785
-0.269950121641159058 -0.137622028589248657 0.177433773875236511
-0.345608800649642944 -0.0654942691326141357 0.141221150755882263
0.122752107679843903 -0.276338309049606323 0.128853559494018555
-0.134427875280380249 0.079131007194519043 0.0901490300893783569
0.462897241115570068 -0.0543229617178440094 0.017338927835226059
-0.0148226739838719368 -0.21653786301612854 0.0802627205848693848
-0.555072188377380371 0.391878992319107056 0.147641509771347046
0.495961815118789673 -0.366668939590454102 0.00508764246478676796
-0.611043393611907959 0.294297218322753906 0.186445221304893494
0.5294228196144104 -0.275201022624969482 -0.317849695682525635
0.369673103094100952 -0.264404654502868652 0.181340798735618591
0.419665783643722534 -0.344294756650924683 0.150678202509880066
0.251325994729995728 0.0393159277737140656 -0.0669257268309593201
0.548837602138519287 -0.149834305047988892 0.124022461473941803
-0.57090383768081665 0.28426814079284668 -0.00648906268179416656
0.500235199928283691 -0.362523019313812256 -0.00144298048689961433
0.207601919770240784 0.115812666714191437 -0.0107138911262154579
-0.289793461561203003 -0.08529634028673172 -0.0664523616433143616
0.158510908484458923 -0.0830168798565864563 -0.0363435372710227966
-0.340491801500320435 -0.105062611401081085 0.141266971826553345
0.510419249534606934 -0.281361281871795654 -0.31336626410484314
-0.339837104082107544 -0.0792712941765785217 0.0385882481932640076
-0.369815558195114136 0.280990272760391235 -0.0626868084073066711
0.509193062782287598 -0.340853095054626465 0.0649524852633476257
0.301587671041488647 -0.20567755401134491 0.247704580426216125
0.542157828807830811 -0.311958551406860352 -0.0609110072255134583
0.140908733010292053 0.0697948262095451355 0.336168646812438965
-0.595255136489868164 0.267760187387466431 0.012090001255273819
0.221315816044807434 -0.00683505414053797722 0.295347332954406738
0.230188578367233276 0.0345759429037570953 0.31253129243850708
0.532859325408935547 -0.319552183151245117 -0.0129586318507790565
-0.389841616153717041 -0.063595890998840332 0.105747997760772705
-0.448041200637817383 -0.0397524945437908173 0.126540303230285645
0.495323330163955688 -0.0912488773465156555 0.154214426875114441
0.250232279300689697 0.0633482486009597778 0.316401541233062744
-0.291835278272628784 -0.0923477858304977417 0.307650744915008545
-0.367093712091445923 -0.114366330206394196 0.104050979018211365
-0.56386035680770874 0.127564072608947754 -0.0785137861967086792
-0.501922667026519775 0.0238474477082490921 0.186683058738708496
0.517477273941040039 -0.297379672527313232 -0.314198970794677734
0.471903085708618164 -0.328266799449920654 -0.300051361322402954
-0.57459568977355957 0.269189417362213135 0.362659037113189697
-0.57150191068649292 0.355168581008911133 0.16698947548866272
-0.192199558019638062 0.304963439702987671 0.101167269051074982
-0.662454843521118164 0.240024015307426453 0.0415864959359169006
-0.505265712738037109 0.144795984029769897 0.35331195592880249
0.506469130516052246 -0.347194045782089233 -0.318472027778625488
-0.20102536678314209 0.305297791957855225 0.101829677820205688
0.474413305521011353 -0.357582837343215942 0.00451185973361134529
0.509081661701202393 -0.330671608448028564 0.0662264302372932434
-0.611060023307800293 0.367827177047729492 0.087713778018951416
-0.562905848026275635 0.288520336151123047 -0.0560303367674350739
0.219257652759552002 0.0105263916775584221 0.308873146772384644
0.239822611212730408 0.0053497040644288063 0.321330338716506958
-0.360131889581680298 -0.0565664917230606079 -0.13791048526763916
0.398576200008392334 -0.252603650093078613 0.321707099676132202
0.398877263069152832 -0.262976020574569702 0.324460357427597046
0.223321184515953064 -0.323905676603317261 0.320492416620254517
0.410364091396331787 -0.267721116542816162 0.324881136417388916
-0.509546935558319092 0.0498111322522163391 0.195271149277687073
-0.631643354892730713 0.156758993864059448 -0.0527098998427391052
-0.502237558364868164 0.147361278533935547 0.345285683870315552
0.520280420780181885 -0.3507557213306427 -0.323213487863540649
0.494607806205749512 -0.348312437534332275 3.16288314934354275e-05
-0.198497489094734192 0.0164434425532817841 -0.0500636249780654907
-0.558128714561462402 0.342016428709030151 -0.00580605026334524155
0.487816065549850464 -0.360430926084518433 0.0408505275845527649
0.448487073183059692 -0.0742439478635787964 0.0016656054649502039
-0.556597292423248291 0.38548886775970459 0.157766774296760559
0.373884469270706177 -0.0812145918607711792 -0.120200283825397491
-0.390071898698806763 0.31991279125213623 0.168750301003456116
-0.385025888681411743 0.328481703996658325 0.19744621217250824
-0.364628255367279053 0.238260522484779358 -0.0835868716239929199
-0.407728284597396851 0.199820980429649353 0.0408445410430431366
-0.644806981086730957 0.287066787481307983 0.0935623422265052795
0.407822936773300171 -0.347168862819671631 0.136200889945030212
0.221663177013397217 0.082957245409488678 -0.033841155469417572
0.497890263795852661 -0.161263883113861084 0.123551659286022186
0.499660611152648926 -0.0928669273853302002 0.134449392557144165
0.214663207530975342 0.00208514719270169735 0.299207448959350586
-0.353706568479537964 -0.0678228959441184998 -0.00911295320838689804
-0.385853111743927002 0.266247659921646118 -0.0717676654458045959
0.505755841732025146 -0.347075283527374268 0.0547069795429706573
-0.357553929090499878 -0.0560321919620037079 -0.145502522587776184
0.131536334753036499 0.0728565305471420288 0.321896851062774658
-0.100317902863025665 -0.265276312828063965 0.00603300007060170174
0.241740584373474121 0.023485647514462471 0.321632623672485352
-0.480824023485183716 -0.0113890627399086952 0.185286015272140503
0.241784289479255676 0.0484671369194984436 0.316809177398681641
-0.278620988130569458 0.332939267158508301 0.0405167676508426666
0.369111299514770508 -0.0309022311121225357 -0.0402692444622516632
0.519452393054962158 -0.348012477159500122 -0.0365312658250331879
0.292571991682052612 -0.0119362659752368927 0.0366980880498886108
-0.644494831562042236 0.284985780715942383 0.0924098417162895203
0.0350952744483947754 0.136886164546012878 0.08486214280128479
-0.397956609725952148 -0.0573011599481105804 0.125844597816467285
-0.441898435354232788 -0.037904202938079834 0.131281763315200806
0.523132801055908203 -0.317614138126373291 -0.0656776055693626404
0.421722352504730225 -0.279914140701293945 0.330948352813720703
0.508922755718231201 -0.344970673322677612 0.0568745657801628113
0.403134465217590332 -0.258782356977462769 0.323354810476303101
-0.480728864669799805 0.0183563232421875 0.176666721701622009
0.234834253787994385 0.0686511397361755371 0.314204752445220947
-0.479898422956466675 -0.00805295445024967194 0.167315036058425903
0.238458424806594849 0.0676581487059593201 0.314605683088302612
0.387462824583053589 0.0259350612759590149 0.10563177615404129
0.218843504786491394 -0.315903425216674805 0.310149788856506348
0.382293134927749634 0.0428317859768867493 0.068670421838760376
0.46201738715171814 0.0106798708438873291 0.174690216779708862
0.398758262395858765 -0.258571892976760864 0.32692873477935791
-0.500036358833312988 0.0214263405650854111 0.180885851383209229
-0.573791563510894775 0.266465693712234497 0.35988202691078186
-0.664926469326019287 0.230083897709846497 0.0217291656881570816
-0.149756759405136108 0.275539934635162354 0.0788491666316986084
0.521324336528778076 -0.335180789232254028 -0.322831481695175171
-0.220835089683532715 0.315858930349349976 0.0965567678213119507
0.4991416335105896 -0.346560001373291016 0.0667629390954971313
-0.190191909670829773 0.302947491407394409 0.114568375051021576
0.312900662422180176 -0.130080536007881165 0.300416469573974609
0.22438107430934906 -0.0351187773048877716 0.304855138063430786
0.0566659234464168549 -0.330556213855743408 0.291197329759597778
0.434521228075027466 -0.279953539371490479 0.332461088895797729
0.408235430717468262 -0.285742282867431641 0.330627679824829102
0.384938091039657593 -0.265767365694046021 0.318504065275192261
0.396613210439682007 -0.384754210710525513 -0.225924938917160034
-0.162719234824180603 0.278582155704498291 0.128410026431083679
0.379933208227157593 0.043857477605342865 0.0766119807958602905
0.390067338943481445 -0.255727201700210571 0.318510830402374268
-0.500753283500671387 0.0247085709124803543 0.185722261667251587
0.498865753412246704 -0.326059997081756592 -0.31346440315246582
0.379779040813446045 -0.376038998365402222 -0.216539248824119568
0.520387649536132812 -0.349402666091918945 -0.325229793787002563
0.519946515560150146 -0.348541170358657837 -0.322169333696365356
0.512568175792694092 -0.319791406393051147 -0.318803071975708008
0.254168450832366943 -0.222319811582565308 0.0571983307600021362
0.185175970196723938 -0.142264306545257568 -0.105897709727287292
0.507045924663543701 -0.320271581411361694 0.0289202742278575897
-0.469924747943878174 -0.011643601581454277 0.180978775024414062
0.495448172092437744 -0.349093973636627197 -0.310129314661026001
0.520731747150421143 -0.327665776014328003 -0.322306245565414429
0.475248396396636963 -0.320377260446548462 -0.303417742252349854
-0.341654747724533081 0.230051726102828979 -0.0444902367889881134
0.201011180877685547 0.132845610380172729 0.111828185617923737
-0.173213601112365723 0.0224209912121295929 0.0253957323729991913
0.264792948961257935 -0.165802180767059326 0.00571522954851388931
0.543963372707366943 -0.328378468751907349 -0.048162311315536499
-0.456803470849990845 -0.0528446882963180542 0.162092030048370361
0.468931525945663452 -0.35618668794631958 -0.307465851306915283
0.477699607610702515 -0.269944548606872559 -0.301912486553192139
0.466541826725006104 -0.361994445323944092 -0.308554232120513916
-0.320640534162521362 0.266849547624588013 0.0113176871091127396
0.032461218535900116 0.0987287983298301697 0.128208324313163757
-0.285220563411712646 -0.0998547002673149109 -0.0874832794070243835
-0.617182552814483643 0.217140361666679382 -0.104944437742233276
0.243666067719459534 0.104458354413509369 -0.0301648974418640137
0.46550634503364563 -0.235232755541801453 -0.228894531726837158
-0.294462233781814575 -0.0883158221840858459 -0.0960332825779914856
0.248341619968414307 -0.275790989398956299 0.322253674268722534
0.221277296543121338 0.0668583065271377563 -0.028302432969212532
-0.251498937606811523 -0.129992112517356873 -0.0556197464466094971
-0.212055489420890808 0.302209764719009399 0.148488923907279968
0.339047998189926147 -0.140531435608863831 0.317965537309646606
0.52893298864364624 -0.356607139110565186 0.0693501383066177368
-0.60019683837890625 0.35679355263710022 0.0602885708212852478
-0.346871852874755859 -0.055559113621711731 -0.143743634223937988
-0.433221936225891113 0.157771438360214233 -0.0847647935152053833
0.525827765464782715 -0.331747144460678101 0.0200557541102170944
0.527412772178649902 -0.288027286529541016 -0.0704814642667770386
-0.499318897724151611 0.142818152904510498 -0.254011631011962891
0.145813167095184326 0.156808465719223022 0.0584210343658924103
0.252498000860214233 -0.00757135450839996338 0.327304571866989136
0.349192947149276733 -0.147118940949440002 0.320201992988586426
0.441488742828369141 -0.322579711675643921 -0.229684397578239441
-0.224740460515022278 -0.139805212616920471 -0.0539400316774845123
0.521755337715148926 -0.350238054990768433 0.0966132208704948425
-0.646424412727355957 0.253639787435531616 0.0237619858235120773
0.392430305480957031 -0.280039310455322266 0.321956813335418701
-0.475109189748764038 -0.00959747564047574997 0.164760112762451172
0.223608776926994324 -0.324908018112182617 0.31874924898147583
-0.364182263612747192 -0.120924301445484161 0.130281224846839905
-0.239180892705917358 -0.140429884195327759 -0.0540646649897098541
-0.114649675786495209 -0.00896779447793960571 -0.0168809965252876282
0.388654798269271851 -0.278309255838394165 0.320287227630615234
-0.507397770881652832 0.0115332808345556259 0.201845258474349976
0.461857348680496216 -0.296981871128082275 -0.294625580310821533
0.350536733865737915 -0.148077115416526794 0.321058362722396851
0.457096576690673828 -0.303757250308990479 -0.229154139757156372
0.0236959978938102722 -0.143580660223960876 -0.0203814804553985596
0.368195980787277222 -0.327690005302429199 0.318438827991485596
0.390879958868026733 -0.281463295221328735 0.316549152135848999
0.127712756395339966 -0.319032847881317139 -0.0972958356142044067
-0.135014384984970093 0.278639376163482666 0.117259271442890167
-0.333829760551452637 0.0947314873337745667 -0.102532684803009033
0.373211562633514404 -0.375899583101272583 -0.215092375874519348
0.519164323806762695 -0.345791369676589966 -0.322847723960876465
0.522731482982635498 -0.358054518699645996 -0.326703131198883057
-0.0690837576985359192 -0.254551738500595093 0.0987483784556388855
0.32498517632484436 -0.130770906805992126 0.314386576414108276
0.423567384481430054 -0.259711682796478271 0.327958434820175171
-0.480338066816329956 0.0321820825338363647 0.196595430374145508
0.525922536849975586 -0.299663394689559937 -0.322320878505706787
0.537365615367889404 -0.29251590371131897 -0.324734598398208618
0.377007871866226196 -0.374138981103897095 -0.213804006576538086
0.370518594980239868 -0.357076406478881836 -0.213810458779335022
0.523354768753051758 -0.351654022932052612 -0.325086683034896851
0.52465975284576416 -0.363428443670272827 -0.323172420263290405
0.514825582504272461 -0.327206641435623169 -0.320173263549804688
0.478744626045227051 -0.352347254753112793 -0.312307655811309814
0.477706998586654663 -0.365615308284759521 -0.313020497560501099
-0.362209796905517578 0.310715198516845703 0.239634469151496887
-0.321346282958984375 0.104371257126331329 0.0220874417573213577
-0.448066592216491699 0.204511761665344238 -0.0404668748378753662
-0.378184854984283447 0.279609650373458862 -0.00740302028134465218
-0.023337140679359436 -0.260467499494552612 0.143694177269935608
-0.592300057411193848 0.361666232347488403 0.0640873685479164124
0.36670982837677002 -0.373462527990341187 -0.212595522403717041
-0.124781638383865356 -0.0104079116135835648 0.00781439989805221558
0.395803987979888916 -0.353361576795578003 -0.218419685959815979
0.506653845310211182 -0.15952262282371521 0.124938994646072388
0.194731622934341431 0.124839134514331818 0.0060915481299161911
-0.0275198556482791901 0.167153477668762207 0.382800161838531494
-0.334686607122421265 -0.120772659778594971 0.100274749100208282
-0.325733482837677002 0.30314287543296814 -0.0368768908083438873
0.533370256423950195 -0.346775203943252563 0.0376409813761711121
0.52461695671081543 -0.331809550523757935 0.0343092568218708038
-0.596107244491577148 0.382318973541259766 0.113274604082107544
-0.0118948984891176224 -0.14399254322052002 -0.0269946735352277756
-0.23583810031414032 0.172301918268203735 -0.00181878288276493549
-0.48598971962928772 -0.0102819595485925674 0.177182793617248535
-0.278540581464767456 0.33635103702545166 0.0420662090182304382
0.512703835964202881 -0.34902489185333252 0.0968744158744812012
-0.449145019054412842 -0.0354388616979122162 0.117381446063518524
0.433653265237808228 -0.253162205219268799 0.331557720899581909
0.414127111434936523 -0.278267204761505127 0.327031970024108887
-0.469381868839263916 0.0347975082695484161 0.193531259894371033
0.501526474952697754 -0.339534789323806763 0.00776906730607151985
-0.481947928667068481 -0.00244047609157860279 0.177513763308525085
-0.378065794706344604 -0.106343209743499756 0.0928899645805358887
-0.501502752304077148 0.0225604269653558731 0.184284061193466187
0.359838902950286865 -0.286879092454910278 -0.141965702176094055
0.000760781113058328629 -0.231089964509010315 0.0899444371461868286
-0.140808671712875366 0.265341341495513916 0.0882345959544181824
-0.130133539438247681 0.254655718803405762 0.0712231993675231934
0.311775028705596924 -0.293215662240982056 -0.131316527724266052
0.427483975887298584 -0.255400002002716064 0.330057293176651001
-0.615740478038787842 0.30690610408782959 0.392152070999145508
0.409969687461853027 -0.357952147722244263 -0.226488262414932251
0.504408657550811768 -0.346516460180282593 -0.319945394992828369
0.50710529088973999 -0.352552264928817749 -0.322651475667953491
0.522903621196746826 -0.298523634672164917 -0.318743109703063965
0.509067237377166748 -0.346863150596618652 -0.320270240306854248
0.269220471382141113 -0.169317632913589478 -0.0797325596213340759
0.133108660578727722 0.120593085885047913 0.328895866870880127
0.251070648431777954 -0.284817248582839966 0.327995091676712036
0.32373848557472229 -0.12006647139787674 0.310418993234634399
0.301672756671905518 -0.204248189926147461 0.250971138477325439
0.249381378293037415 -0.00358315440826117992 0.324859857559204102
0.506553292274475098 -0.343063414096832275 0.087411537766456604
0.241074651479721069 0.090074494481086731 0.309756338596343994
0.462153881788253784 -0.284070909023284912 -0.231277018785476685
-0.262705057859420776 0.314235329627990723 0.0456968322396278381
0.34338986873626709 -0.139826938509941101 0.329227060079574585
0.373059302568435669 -0.363824933767318726 -0.208804398775100708
0.336934417486190796 -0.129096120595932007 0.320468157529830933
0.525817155838012695 -0.347204864025115967 -0.324089735746383667
0.523581862449645996 -0.352060794830322266 -0.326642483472824097
0.479346007108688354 -0.372325688600540161 -0.313108950853347778
-0.36061471700668335 -0.0646746978163719177 0.0828637182712554932
-0.408039063215255737 0.0888932943344116211 -0.113232292234897614
0.0134536018595099449 0.0984278768301010132 0.216983392834663391
-0.379157125949859619 -0.0928898453712463379 -0.0283452365547418594
0.264777690172195435 0.0684707984328269958 -0.0920833870768547058
-0.108954682946205139 -0.0148736331611871719 0.0458964966237545013
-0.358731091022491455 -0.0917122811079025269 0.012909487821161747
-0.290827333927154541 0.305100530385971069 0.166490629315376282
-0.35616031289100647 -0.0732518956065177917 0.0406064465641975403
-0.598945558071136475 0.29482153058052063 0.186496347188949585
0.248729601502418518 0.0968543738126754761 -0.0345638766884803772
0.378350555896759033 -0.354880601167678833 -0.209478005766868591
0.469020456075668335 -0.32464262843132019 0.13782443106174469
0.463747233152389526 -0.271807730197906494 -0.0931265726685523987
-0.440204769372940063 -0.0427646972239017487 0.0842086896300315857
-0.336949020624160767 -0.124440096318721771 0.127575695514678955
0.527595758438110352 -0.341848820447921753 0.0508722476661205292
0.392068862915039062 0.0471850521862506866 0.133324652910232544
-0.186424493789672852 0.314347535371780396 0.107678689062595367
-0.442151665687561035 -0.0426529236137866974 0.11777922511100769
0.536638557910919189 -0.326144576072692871 -0.055785447359085083
-0.353488266468048096 0.306676656007766724 0.114102751016616821
0.49338996410369873 -0.34603765606880188 0.0439540669322013855
-0.575901567935943604 0.305451899766921997 0.379296630620956421
0.430226147174835205 -0.280859649181365967 0.333518892526626587
-0.478136688470840454 0.00431992020457983017 0.164098486304283142
0.5242348313331604 -0.349815845489501953 -0.00270896614529192448
-0.0680381879210472107 -0.262564927339553833 0.29834902286529541
-0.512420177459716797 0.0048716873861849308 0.188028648495674133
0.389102190732955933 -0.360308319330215454 -0.215772300958633423
-0.1190456822514534 0.254624009132385254 0.0634455382823944092
-0.500934362411499023 0.00529343541711568832 0.193218246102333069
0.425707697868347168 -0.274361014366149902 0.330450057983398438
-0.334174364805221558 0.104368634521961212 -0.118617013096809387
-0.106400765478610992 0.254494339227676392 0.0934597253799438477
0.509988844394683838 -0.341757118701934814 -0.319748908281326294
-0.613203167915344238 0.302871882915496826 0.396174639463424683
-0.509486675262451172 0.0368687696754932404 0.188545763492584229
-0.291785538196563721 -0.0889044329524040222 -0.0786926671862602234
0.508842825889587402 -0.345036208629608154 -0.32117345929145813
0.0711766183376312256 0.139517933130264282 0.0723020806908607483
0.244940102100372314 0.107391580939292908 0.32120099663734436
0.472437053918838501 -0.286833733320236206 -0.230805560946464539
0.304460614919662476 -0.314545005559921265 0.331559598445892334
0.511057734489440918 -0.350103259086608887 -0.32219734787940979
-0.316050887107849121 -0.0867272466421127319 -0.0343342907726764679
0.513670623302459717 -0.355807065963745117 -0.323161810636520386
-0.625708699226379395 0.180551081895828247 -0.0862907916307449341
-0.354220151901245117 -0.0556576885282993317 -0.14404122531414032
-0.331780046224594116 0.269768208265304565 -0.0552212558686733246
-0.177899986505508423 0.139173194766044617 0.00484844809398055077
0.544706165790557861 -0.217411130666732788 0.158990994095802307
0.0299097634851932526 0.102753117680549622 0.065173707902431488
0.509117603302001953 -0.330973774194717407 -0.319551199674606323
0.585189461708068848 -0.325256377458572388 -0.32013586163520813
0.248935192823410034 -0.288131624460220337 0.318215996026992798
0.254853218793869019 -0.00289217592217028141 0.327796667814254761
0.300767183303833008 -0.282418996095657349 0.331074953079223633
-0.344850540161132812 -0.0905190408229827881 0.0179291982203722
-0.375031977891921997 -0.0897189900279045105 -0.0183032527565956116
-0.0661463662981987 -0.273178637027740479 0.159303545951843262
-0.630906224250793457 0.27589002251625061 0.0758401602506637573
0.365799605846405029 -0.365645915269851685 -0.212374091148376465
-0.125123739242553711 -0.0289379823952913284 -0.00674680573865771294
-0.598984718322753906 0.342570692300796509 0.090437769889831543
0.443220019340515137 -0.249532938003540039 -0.286447644233703613
0.381863981485366821 -0.348131269216537476 -0.212245702743530273
0.311559170484542847 -0.372704267501831055 -0.156242713332176208
-0.180061444640159607 0.312983006238937378 0.0998636782169342041
0.534402012825012207 -0.319324761629104614 -0.0325989760458469391
-0.655627310276031494 0.238597333431243896 0.0139356432482600212
-0.453598827123641968 -0.0535707324743270874 0.163239672780036926
0.499202370643615723 -0.34858277440071106 0.0711758360266685486
0.439772576093673706 -0.26080968976020813 0.33412596583366394
0.506491541862487793 -0.34381517767906189 0.0297235008329153061
0.263839930295944214 0.12164132297039032 0.0268197953701019287
0.399169892072677612 0.0325887277722358704 0.139495536684989929
-0.107018075883388519 0.25288701057434082 0.072484530508518219
0.315812528133392334 -0.380731850862503052 -0.157118901610374451
-0.567110002040863037 0.295762062072753906 -0.0515604428946971893
0.389561355113983154 -0.362824946641921997 -0.22115151584148407
0.358325719833374023 0.0334766246378421783 0.0482830256223678589
0.193698912858963013 -0.365366578102111816 -0.0959243327379226685
0.390439927577972412 -0.355751395225524902 -0.217279210686683655
0.518994629383087158 -0.335272848606109619 -0.322695255279541016
0.522201061248779297 -0.333457976579666138 -0.324136078357696533
0.243583410978317261 0.0243242103606462479 0.323719412088394165
0.211664631962776184 -0.338390529155731201 0.318424105644226074
0.236430823802947998 0.106250256299972534 0.314778566360473633
0.520956039428710938 -0.337182044982910156 -0.325783967971801758
0.317312031984329224 -0.379841625690460205 -0.151274189352989197
0.583521187305450439 -0.318141907453536987 -0.334353178739547729
-0.381641000509262085 -0.0931562483310699463 -0.0178054925054311752
0.457509160041809082 -0.32547721266746521 0.124838896095752716
0.388243705034255981 0.053607545793056488 0.131313860416412354
-0.174296528100967407 0.307588160037994385 0.105744585394859314
-0.462736308574676514 -0.0297686122357845306 0.134468495845794678
0.438909977674484253 -0.261393308639526367 0.334904342889785767
0.399582356214523315 0.0247784256935119629 0.127628371119499207
0.426581054925918579 -0.263534903526306152 0.331835657358169556
-0.510277628898620605 0.00459717260673642159 0.19081936776638031
-0.13165988028049469 0.253872334957122803 0.0814016088843345642
-0.284475326538085938 0.33606526255607605 0.0341373048722743988
0.454603791236877441 -0.259422570466995239 0.336429446935653687
-0.331403821706771851 0.0980378836393356323 -0.117816157639026642
-0.508988618850708008 0.0363826975226402283 0.188503041863441467
0.257362902164459229 0.00768575584515929222 0.327284395694732666
0.44517180323600769 -0.25593683123588562 0.333613306283950806
0.235571965575218201 0.109255820512771606 0.308549225330352783
0.301672011613845825 -0.329033076763153076 0.334204137325286865
-0.321061134338378906 0.267182379961013794 -0.0471120439469814301
-0.134195193648338318 -0.268355876207351685 -0.00493712862953543663
-0.377729624509811401 -0.0752023980021476746 0.0238462109118700027
-0.376365572214126587 -0.06336192786693573 -0.160093024373054504
-0.495358198881149292 -0.0224385019391775131 0.173770129680633545
-0.528309881687164307 -0.00656893337145447731 0.186611205339431763
0.38128325343132019 -0.366616100072860718 -0.219337806105613708
0.388370752334594727 -0.330065071582794189 0.186359688639640808
-0.578417122364044189 0.29203951358795166 -0.0410415604710578918
0.240941256284713745 0.0884433537721633911 -0.0397749990224838257
0.373752206563949585 -0.351481348276138306 -0.20992577075958252
0.186521768569946289 0.107981599867343903 0.00151373713742941618
-0.342313915491104126 0.273276150226593018 -0.0520374774932861328
0.531724810600280762 -0.353722631931304932 0.0532550178468227386
-0.114353179931640625 0.185713589191436768 0.354407638311386108
-0.216329619288444519 0.313695788383483887 0.111909404397010803
0.469695031642913818 -0.305092126131057739 -0.235876262187957764
0.535713374614715576 -0.320920079946517944 -0.0263798851519823074
-0.266869843006134033 0.310285836458206177 0.0452120192348957062
0.27811548113822937 0.00840643420815467834 -0.0275808479636907578
0.383674651384353638 -0.362198978662490845 -0.217056795954704285
0.0271386299282312393 -0.0953534021973609924 0.0186529550701379776
-0.417420119047164917 -0.0573511645197868347 0.133082166314125061
0.38437354564666748 -0.287605345249176025 -0.109785385429859161
0.381370335817337036 -0.363258004188537598 -0.219639226794242859
0.198912292718887329 -0.366275399923324585 -0.0961563736200332642
0.386837989091873169 -0.354151815176010132 -0.21669711172580719
0.511001110076904297 -0.336940169334411621 -0.319976538419723511
0.512311935424804688 -0.33670315146446228 -0.322158277034759521
0.23243434727191925 0.0344413965940475464 0.318570524454116821
0.241227671504020691 0.0892124474048614502 0.309624850749969482
0.361855000257492065 -0.282766252756118774 0.315972894430160522
0.529769957065582275 -0.34653899073600769 -0.330196946859359741
0.199814051389694214 -0.190374240279197693 -0.0719475224614143372
-0.193554595112800598 0.133834406733512878 0.00871576182544231415
0.320288866758346558 -0.374414622783660889 -0.15868687629699707
0.203732624650001526 -0.325385987758636475 0.315648168325424194
0.322031289339065552 -0.277386397123336792 0.317054420709609985
-0.4998512864112854 0.0165407266467809677 0.183666378259658813
0.346643716096878052 -0.27302396297454834 -0.132383450865745544
0.244140788912773132 0.0216025430709123611 0.321471661329269409
0.194655761122703552 -0.167309567332267761 -0.0679215118288993835
0.0369489528238773346 0.131815865635871887 0.105271190404891968
-0.455549627542495728 -0.0504754297435283661 0.154819801449775696
-0.140936747193336487 0.269567340612411499 0.0797254294157028198
0.53927236795425415 -0.22614772617816925 0.172646254301071167
0.235676705837249756 0.10462622344493866 0.309143543243408203
-0.453076273202896118 -0.027196073904633522 0.124024637043476105
-0.50985032320022583 0.00166261824779212475 0.173285588622093201
0.235591679811477661 0.0838441178202629089 0.310397952795028687
-0.488453775644302368 -0.0226501449942588806 0.177672430872917175
-0.520784616470336914 -0.00151427765376865864 0.186756223440170288
-0.084346286952495575 0.0740086212754249573 0.0418599769473075867
0.36719059944152832 -0.0229269564151763916 -0.0824067741632461548
-0.232597261667251587 0.0473391711711883545 -0.0687232539057731628
0.494384169578552246 -0.34125933051109314 -0.449920326471328735
-0.628436088562011719 0.292208462953567505 0.175417840480804443
-0.112145207822322845 0.15374581515789032 0.0491049438714981079
0.522037506103515625 -0.344836950302124023 -0.0210693478584289551
-0.583647787570953369 0.37466922402381897 0.185000360012054443
