ply
format ascii 1.0
element vertex 737
property float x
property float y
property float z
end_header
0.504720807075500488 -0.160251498222351074 0.131220191717147827
0.343078792095184326 -0.0702961832284927368 0.162336155772209167
0.399696379899978638 -0.237378507852554321 0.130658924579620361
-0.359852045774459839 -0.119328565895557404 0.116460025310516357
-0.479166418313980103 0.189055696129798889 0.0638121142983436584
-0.574811279773712158 0.341495901346206665 0.0250155515968799591
-0.359205394983291626 -0.0638822093605995178 0.0908281728625297546
-0.342966973781585693 0.0110167330130934715 -0.114448927342891693
0.302909046411514282 -0.296144574880599976 0.162343576550483704
-0.504773080348968506 0.220444336533546448 0.141744941473007202
-0.485397666692733765 0.0278419293463230133 -0.0470017977058887482
0.0332357324659824371 0.0875323712825775146 0.0878891423344612122
-0.231573641300201416 0.346717804670333862 0.148738235235214233
0.0319208018481731415 0.0100851962342858315 0.0421260818839073181
-0.365935176610946655 -0.0373216979205608368 -0.03278321772813797
-0.0482042618095874786 -0.234559968113899231 0.301823973655700684
0.185791745781898499 -0.293227225542068481 0.00389223755337297916
0.234716907143592834 -0.0119145661592483521 0.230451345443725586
-0.526631712913513184 0.140133067965507507 0.0678769946098327637
-0.520464599132537842 0.200843110680580139 -0.0675306692719459534
-0.552379727363586426 0.285232037305831909 0.107327505946159363
0.143836334347724915 0.00744728930294513702 0.307925641536712646
0.0678129643201828003 -0.286633968353271484 -0.081348031759262085
-0.362206250429153442 0.0346286073327064514 -0.161201655864715576
0.307222545146942139 -0.294021666049957275 0.0298171509057283401
-0.339359462261199951 0.212892711162567139 0.159151226282119751
-0.188184678554534912 0.199630856513977051 0.367791861295700073
-0.540232658386230469 0.254307717084884644 -0.0842839553952217102
0.522313952445983887 -0.200095951557159424 -0.0923182293772697449
-0.519197344779968262 0.184819459915161133 0.136362358927726746
-0.543819546699523926 0.269453674554824829 -0.00260835792869329453
0.470843136310577393 -0.326666414737701416 0.0449296608567237854
0.288855522871017456 0.0306012555956840515 0.0539760254323482513
0.43298003077507019 -0.306588709354400635 -0.284757107496261597
-0.518853247165679932 0.0894305109977722168 -0.135193333029747009
-0.600758016109466553 0.284867763519287109 0.183790847659111023
0.467394143342971802 -0.32156720757484436 0.127709254622459412
0.467304140329360962 -0.261123359203338623 -0.293315291404724121
-0.404142171144485474 0.300008565187454224 0.142733111977577209
-0.454482108354568481 0.118801236152648926 -0.223978549242019653
0.481208294630050659 -0.312415122985839844 -0.302139163017272949
0.467915385961532593 -0.331160396337509155 -0.00267186854034662247
0.456956624984741211 -0.305843472480773926 -0.292078346014022827
0.523934483528137207 -0.262453705072402954 -0.101699471473693848
-0.40890166163444519 0.318124711513519287 0.162590265274047852
-0.560983002185821533 0.267148882150650024 0.365134328603744507
-0.576388299465179443 0.209983587265014648 -0.200943633913993835
0.447115570306777954 -0.297122746706008911 -0.222711518406867981
0.310353517532348633 -0.0766207128763198853 0.149075254797935486
0.534368813037872314 -0.248712599277496338 0.101512201130390167
-0.562855541706085205 0.119183287024497986 -0.233371898531913757
-0.408434897661209106 0.0760475695133209229 -0.116586863994598389
-0.57988584041595459 0.355896204710006714 0.0824139714241027832
0.0414016619324684143 0.114092804491519928 0.312371164560317993
-0.456900328397750854 0.0083482302725315094 0.181587949395179749
0.409224539995193481 -0.344339430332183838 0.160208836197853088
-0.554931819438934326 0.287960082292556763 -0.049413774162530899
0.542867839336395264 -0.256369739770889282 0.113948605954647064
0.0238974764943122864 -0.25020262598991394 0.205109536647796631
0.195511385798454285 0.129586845636367798 0.0349911637604236603
0.315275251865386963 -0.371003001928329468 -0.156756654381752014
0.110617309808731079 0.0591497533023357391 0.319122880697250366
-0.315023213624954224 0.305967479944229126 0.284092724323272705
-0.254749685525894165 -0.133296027779579163 -0.0731586888432502747
-0.386789202690124512 -0.0607558786869049072 0.106390051543712616
0.452946692705154419 -0.0732283443212509155 -0.116135276854038239
0.315701425075531006 -0.333473473787307739 0.196035608649253845
0.297698855400085449 0.037742123007774353 0.0502830334007740021
0.475638747215270996 -0.331385523080825806 0.136681467294692993
0.439518898725509644 -0.268027037382125854 -0.281937897205352783
0.461208909749984741 -0.273465931415557861 0.138247713446617126
0.503770172595977783 -0.346844285726547241 0.0177408214658498764
0.518669426441192627 -0.270038604736328125 -0.0868318155407905579
0.498494476079940796 -0.0884779319167137146 0.162103995680809021
0.5420265793800354 -0.215677335858345032 0.111140862107276917
-0.57730942964553833 0.32640501856803894 0.0802372023463249207
0.246603533625602722 0.110842861235141754 -0.0542478151619434357
0.0335898101329803467 0.0679540038108825684 0.27255365252494812
-0.562281429767608643 0.274749726057052612 0.0237640067934989929
-0.614218831062316895 0.271553456783294678 0.0383509621024131775
0.53538590669631958 -0.239657744765281677 0.103169150650501251
-0.576324164867401123 0.21216718852519989 -0.116880007088184357
-0.425365567207336426 0.0300247315317392349 -0.188578546047210693
0.304352551698684692 -0.126880154013633728 -0.10809028148651123
-0.385403037071228027 -0.0562723875045776367 0.100630708038806915
-0.603521347045898438 0.25907781720161438 0.0172542668879032135
-0.460899591445922852 0.305780023336410522 0.0810843855142593384
0.504625856876373291 -0.264410227537155151 -0.108944959938526154
0.534373700618743896 -0.192792177200317383 0.0289890877902507782
-0.616478383541107178 0.209974482655525208 -0.0563093982636928558
0.452407211065292358 -0.123997904360294342 0.0896484255790710449
0.0334577895700931549 -0.279971301555633545 -0.0357445850968360901
0.40179908275604248 -0.319184422492980957 0.131180331110954285
-0.0939061418175697327 0.0735750645399093628 0.29319348931312561
0.243127211928367615 -0.137177914381027222 0.0113034844398498535
0.161249324679374695 -0.271924376487731934 0.0440235882997512817
-0.59083092212677002 0.368695050477981567 0.0900060832500457764
0.0269924495369195938 -0.0121504375711083412 0.0279891770333051682
0.195777103304862976 0.0336351096630096436 0.178291797637939453
-0.306372016668319702 -0.0918957963585853577 0.305467844009399414
0.493452668190002441 -0.367263823747634888 0.0201198961585760117
0.521349072456359863 -0.311819970607757568 0.0463414192199707031
0.502434253692626953 -0.153880000114440918 0.119273588061332703
0.0807015970349311829 -0.272495746612548828 -0.0594308003783226013
-0.32570183277130127 -0.103782437741756439 0.0884119048714637756
-0.586447179317474365 0.334329605102539062 0.0183774996548891068
-0.0739927813410758972 -0.236124306917190552 0.301686912775039673
0.194188699126243591 -0.340310096740722656 -0.062171105295419693
-0.399087071418762207 0.27146458625793457 -0.0546988807618618011
-0.522049248218536377 0.0435529351234436035 -0.0578309334814548492
-0.257970362901687622 0.141687974333763123 0.0912932083010673523
-0.213789716362953186 -0.136310681700706482 -0.0632332563400268555
0.508321106433868408 -0.105052486062049866 0.144593894481658936
0.214004948735237122 -0.280046045780181885 -0.00910631939768791199
0.238085478544235229 -0.0764177888631820679 0.127057179808616638
-0.140535831451416016 0.296084493398666382 0.147806033492088318
-0.656284987926483154 0.170952200889587402 -0.112661711871623993
0.253301918506622314 -0.00978304538875818253 0.250123739242553711
0.250163793563842773 -0.179121971130371094 0.302871227264404297
-0.26333203911781311 -0.137587234377861023 -0.0676418468356132507
-0.200939193367958069 0.313871324062347412 0.0989255830645561218
0.257652163505554199 -0.278328299522399902 0.323192209005355835
0.178769513964653015 -0.0544743351638317108 -0.0508272759616374969
-0.4435901939868927 -0.0672115162014961243 0.129038766026496887
-0.504057884216308594 0.029559476301074028 0.247084662318229675
-0.497326523065567017 0.035930335521697998 -0.011762615293264389
0.232629150152206421 0.0225076023489236832 0.314205408096313477
-0.371647477149963379 -0.0463063456118106842 0.143348962068557739
-0.349130988121032715 0.105990171432495117 0.0659588202834129333
0.307472735643386841 -0.199093669652938843 0.243119075894355774
0.30833318829536438 -0.0058428705669939518 0.219776928424835205
-0.442995220422744751 0.26599806547164917 -0.0373630672693252563
0.516821742057800293 -0.326975703239440918 -0.080991111695766449
-0.539039552211761475 0.137877345085144043 -0.0972929894924163818
0.465556025505065918 -0.124814867973327637 0.00229954486712813377
-0.385531604290008545 0.254762768745422363 0.0326996631920337677
0.493677228689193726 -0.302268624305725098 0.121415019035339355
0.465113043785095215 -0.106543488800525665 0.0598901882767677307
0.203677460551261902 0.0147863868623971939 -0.0420394614338874817
-0.224692866206169128 0.295259028673171997 0.158659309148788452
-0.125266730785369873 -0.0494599342346191406 0.0109389312565326691
-0.231820270419120789 0.227932736277580261 0.34815526008605957
-0.381043910980224609 -0.054865710437297821 0.145459979772567749
0.34109160304069519 -0.0741219669580459595 0.0479484982788562775
-0.436212480068206787 -0.0128106055781245232 0.0340204611420631409
0.205353975296020508 0.0162529740482568741 0.0705854892730712891
0.0562040545046329498 -0.0863185450434684753 0.239385917782783508
-0.38413846492767334 -0.060063578188419342 0.116569817066192627
-0.136967778205871582 -0.265318810939788818 -0.00113170896656811237
-0.243878751993179321 0.0630721226334571838 0.244843840599060059
-0.542306423187255859 0.210351079702377319 0.16264033317565918
-0.590932130813598633 0.286646276712417603 -0.00744586437940597534
0.306882947683334351 0.0172504223883152008 0.0431183278560638428
0.478206098079681396 -0.315236985683441162 -0.305018424987792969
0.503479123115539551 -0.345925241708755493 -0.0634060651063919067
0.471428453922271729 -0.305480688810348511 0.115427635610103607
0.526830434799194336 -0.303307294845581055 -0.10897885262966156
-0.403020501136779785 0.310949563980102539 0.134633034467697144
0.517631769180297852 -0.251745343208312988 -0.306994110345840454
0.50730586051940918 -0.329524695873260498 -0.314380824565887451
0.518572509288787842 -0.331709980964660645 0.0919761508703231812
0.477090954780578613 -0.30470690131187439 -0.302651315927505493
0.527290582656860352 -0.286048442125320435 -0.10759078711271286
-0.560098886489868164 0.266764253377914429 0.365521103143692017
-0.640342831611633301 0.289092451333999634 0.0850114598870277405
0.371188461780548096 -0.401579499244689941 -0.217183426022529602
-0.449980705976486206 -0.00156862172298133373 0.17507760226726532
0.176419928669929504 0.0725509598851203918 0.0068314610980451107
-0.45377078652381897 0.134030625224113464 -0.213684812188148499
0.402946174144744873 -0.336191624402999878 0.129319190979003906
-0.599098145961761475 0.206857219338417053 0.00068077153991907835
0.247469708323478699 -0.114915840327739716 -0.0705346837639808655
-0.483361303806304932 0.182077214121818542 -0.210115760564804077
-0.376312434673309326 -0.0636182725429534912 0.0917073637247085571
0.522667884826660156 -0.321321278810501099 0.0362732075154781342
0.542168140411376953 -0.217744112014770508 0.108667612075805664
0.525487422943115234 -0.27388569712638855 0.0557183772325515747
0.111219309270381927 0.0837036892771720886 0.317416459321975708
-0.351069718599319458 -0.0484366081655025482 0.0450221486389636993
0.105138793587684631 0.0718448758125305176 0.295652151107788086
-0.165339753031730652 0.132550030946731567 0.151394680142402649
0.502531528472900391 -0.256882369518280029 -0.102061346173286438
0.428765535354614258 -0.304180264472961426 0.136308073997497559
-0.355882585048675537 -0.101915322244167328 0.15906621515750885
0.498403280973434448 -0.202025160193443298 -0.107515454292297363
-0.578586101531982422 0.347581982612609863 0.151998758316040039
0.10504671186208725 -0.0119109731167554855 0.0213368739932775497
-0.341383159160614014 -0.123866967856884003 0.104622557759284973
-0.120795875787734985 -0.276025980710983276 0.174142450094223022
-0.161156177520751953 0.166839748620986938 0.325220763683319092
0.51477581262588501 -0.358954131603240967 0.0271965153515338898
0.520816445350646973 -0.287950903177261353 -0.0112647749483585358
0.478712737560272217 -0.140307784080505371 0.108043782413005829
-0.180930629372596741 0.028801431879401207 0.0259708762168884277
-0.342098981142044067 -0.122088894248008728 0.103765420615673065
-0.600293099880218506 0.376309305429458618 0.188244432210922241
-0.119779869914054871 -0.267122238874435425 0.21839478611946106
0.523214101791381836 -0.309213697910308838 -0.0743746161460876465
0.516078531742095947 -0.252559542655944824 -0.309117913246154785
0.4547596275806427 -0.308652728796005249 -0.294069796800613403
0.240593835711479187 -0.0962913185358047485 0.158919245004653931
-0.620309412479400635 0.271743118762969971 0.0370394438505172729
-0.430052638053894043 -0.00430866517126560211 0.1773233562707901
-0.250532090663909912 -0.137357369065284729 -0.0710206925868988037
0.317220985889434814 -0.319287121295928955 0.122869193553924561
0.539094865322113037 -0.250061243772506714 0.107046283781528473
0.452562272548675537 -0.140138685703277588 0.015843002125620842
0.429197400808334351 -0.321333557367324829 0.124094501137733459
0.413106292486190796 -0.331203579902648926 -0.209414750337600708
0.473657935857772827 -0.128885030746459961 0.10992807149887085
-0.549033820629119873 0.378086775541305542 0.172472476959228516
0.190454930067062378 -0.340143412351608276 -0.0130631905049085617
-0.201798126101493835 -0.135865628719329834 -0.0683534294366836548
-0.185572192072868347 0.31160011887550354 0.117922738194465637
0.103382810950279236 0.107362799346446991 0.174642294645309448
-0.444440543651580811 -0.0547918453812599182 0.0918506830930709839
-0.489476770162582397 0.0295669939368963242 0.0168255511671304703
0.231402084231376648 0.0107138818129897118 0.315282434225082397
-0.0246528517454862595 0.112801499664783478 0.312576383352279663
0.24325522780418396 -0.0389291942119598389 0.204941391944885254
-0.384880602359771729 0.244780182838439941 0.0342939645051956177
-0.654153585433959961 0.2162494957447052 -0.0393595509231090546
0.482826739549636841 -0.116590812802314758 0.0238744206726551056
0.122226543724536896 0.0791596248745918274 0.138774514198303223
-0.382020562887191772 -0.0730502009391784668 0.0956534296274185181
0.319640964269638062 -0.0726775452494621277 0.0627632215619087219
-0.440759569406509399 -0.0121452230960130692 0.00686485366895794868
-0.502239584922790527 0.2331380695104599 -0.0711536407470703125
-0.547313094139099121 0.202921628952026367 -0.0685762092471122742
0.0886324942111968994 0.0913271158933639526 0.0802374705672264099
-0.519938051700592041 0.204017400741577148 -0.0472145862877368927
-0.168211266398429871 0.0719813182950019836 0.232581645250320435
-0.0573622249066829681 -0.187186509370803833 0.0269536133855581284
-0.212514221668243408 0.290288060903549194 0.109173640608787537
0.249625876545906067 -0.00575323542580008507 0.0226698778569698334
-0.555845499038696289 0.203876689076423645 0.118289411067962646
-0.457364797592163086 0.215893387794494629 0.0245115440338850021
-0.462650060653686523 0.265922695398330688 -0.00276462733745574951
-0.575502634048461914 0.247074291110038757 -0.0765259712934494019
-0.389378398656845093 0.274542033672332764 -0.084117405116558075
0.343723028898239136 -0.134924829006195068 0.319158226251602173
-0.49865114688873291 0.206296682357788086 -0.0116504793986678123
-0.346010506153106689 0.292263925075531006 -0.050120919942855835
0.525771558284759521 -0.361378848552703857 0.042097967118024826
-0.54000389575958252 0.214651644229888916 0.201011508703231812
-0.569342374801635742 0.293871164321899414 -0.00326411891728639603
0.316553771495819092 0.0233735628426074982 0.0491065047681331635
0.481823354959487915 -0.307382404804229736 -0.303321987390518188
0.479530125856399536 -0.326601117849349976 0.125698626041412354
0.52298128604888916 -0.307355910539627075 -0.098367057740688324
0.490172833204269409 -0.311152249574661255 -0.307085245847702026
0.516025960445404053 -0.325334042310714722 0.12016761302947998
0.44437253475189209 -0.300570398569107056 -0.290308356285095215
0.522998571395874023 -0.304906755685806274 -0.0970290899276733398
0.134292125701904297 0.116014592349529266 0.337274014949798584
-0.642488181591033936 0.242109552025794983 -0.00955220498144626617
-0.292740195989608765 -0.114359676837921143 -0.105599090456962585
0.539028942584991455 -0.25580248236656189 0.0925450176000595093
0.129157766699790955 0.0972289294004440308 0.317547261714935303
-0.23532886803150177 -0.143993064761161804 -0.0712500810623168945
0.252421379089355469 0.0296604558825492859 -0.0856166929006576538
0.530744075775146484 -0.323473960161209106 0.00716275768354535103
-0.599431157112121582 0.306855499744415283 0.10438450425863266
0.531890153884887695 -0.244976669549942017 0.0868992507457733154
-0.374196559190750122 -0.0613150447607040405 0.0923679545521736145
0.526346862316131592 -0.275679558515548706 -0.122901178896427155
-0.501249551773071289 0.148256212472915649 0.353029161691665649
0.385050445795059204 -0.297922134399414062 0.132141008973121643
0.132659792900085449 -0.332342296838760376 -0.100238852202892303
0.52254486083984375 -0.355199575424194336 -0.0146106723695993423
-0.436564117670059204 0.149940669536590576 -0.0849955379962921143
0.515563666820526123 -0.300425112247467041 0.0650426670908927917
0.392941564321517944 -0.368241280317306519 -0.213380366563796997
0.50035548210144043 -0.17177446186542511 0.130402088165283203
0.533014655113220215 -0.334337711334228516 0.0287168249487876892
-0.580000877380371094 0.348340868949890137 0.0401751697063446045
0.519759297370910645 -0.241319403052330017 -0.308358490467071533
-0.601107239723205566 0.370135337114334106 0.104529596865177155
-0.500751316547393799 0.146627813577651978 0.35523456335067749
0.23393695056438446 -0.278111428022384644 0.317573666572570801
-0.181434422731399536 -0.137478858232498169 -0.055510547012090683
-0.228485614061355591 -0.138447940349578857 -0.0534168966114521027
-0.204319044947624207 0.297896414995193481 0.126755401492118835
0.262480378150939941 -0.289919406175613403 0.323879241943359375
-0.362404346466064453 -0.0310192815959453583 0.119588829576969147
-0.500257670879364014 0.018917180597782135 0.0318575762212276459
0.242878973484039307 -0.000203435585717670619 0.322528958320617676
0.141335576772689819 -0.29069209098815918 0.311866164207458496
0.308047860860824585 -0.207806572318077087 0.248454421758651733
-0.386190056800842285 0.254303514957427979 0.0343440994620323181
0.530906319618225098 -0.262587100267410278 0.103268660604953766
0.224103301763534546 0.0224297121167182922 0.305678218603134155
0.530376791954040527 -0.147803157567977905 -0.307864248752593994
-0.645003080368041992 0.230888381600379944 -0.0475930869579315186
0.54104316234588623 -0.31128653883934021 -0.0441119857132434845
0.507599890232086182 -0.268136769533157349 -0.311145424842834473
0.514076352119445801 -0.316481560468673706 -0.29475286602973938
0.458655774593353271 -0.291251450777053833 -0.296232074499130249
-0.543220996856689453 0.267604470252990723 -0.189411327242851257
-0.621546328067779541 0.28849753737449646 0.0665538087487220764
0.36332365870475769 -0.384566634893417358 -0.205808311700820923
-0.0924989506602287292 0.266836315393447876 0.189416304230690002
-0.448585212230682373 0.130745843052864075 -0.208786547183990479
-0.575576126575469971 0.203278541564941406 -0.127163022756576538
-0.630212783813476562 0.19124370813369751 -0.0400089062750339508
-0.469893157482147217 0.138394534587860107 -0.231104522943496704
0.257641971111297607 -0.0174035318195819855 -0.0718097090721130371
0.230518266558647156 0.0535185188055038452 -0.0449022762477397919
0.113116756081581116 0.109425567090511322 0.301803737878799438
-0.584245502948760986 0.217886552214622498 -0.221530541777610779
-0.598336756229400635 0.234760671854019165 -0.0108819762244820595
-0.36716344952583313 -0.0921681448817253113 0.122838743031024933
-0.330145329236984253 -0.125778600573539734 0.137296795845031738
-0.634742379188537598 0.199163183569908142 -0.0384280532598495483
-0.425846636295318604 -0.0553602762520313263 0.0992207899689674377
-0.478237152099609375 0.0196612309664487839 -0.0365822799503803253
0.208699360489845276 0.00830538757145404816 0.301047533750534058
-0.634314417839050293 0.247635513544082642 -0.0061234012246131897
-0.12807890772819519 0.269471138715744019 0.132283791899681091
0.271010994911193848 -0.330517351627349854 0.180312931537628174
0.53282088041305542 -0.210444644093513489 -0.0985106080770492554
-0.126550659537315369 -0.113025769591331482 -0.0547182038426399231
0.453964322805404663 -0.339218944311141968 -0.297773599624633789
-0.212696567177772522 0.0357985161244869232 -0.0596199259161949158
-0.553321421146392822 0.175312846899032593 0.0127079365774989128
-0.198585450649261475 0.139199733734130859 0.0211912058293819427
-0.012590351514518261 -0.102841876447200775 -0.0428388603031635284
0.264702975749969482 -0.2751273512840271 0.202663600444793701
0.348563611507415771 -0.321348726749420166 0.000243767630308866501
-0.155996844172477722 0.0693995878100395203 0.0275932010263204575
-0.249285608530044556 0.130334019660949707 -0.0343946516513824463
0.199136584997177124 0.00138788530603051186 0.0193046275526285172
0.0763767436146736145 0.0805506035685539246 0.0240983869880437851
-0.283501654863357544 0.287789046764373779 -0.00592156313359737396
0.476721018552780151 -0.290141403675079346 -0.301389127969741821
-0.556999027729034424 0.265294909477233887 -0.0173644479364156723
-0.237475946545600891 0.0971924588084220886 -0.0324051603674888611
0.137827619910240173 -0.281082630157470703 0.150212138891220093
0.296290665864944458 -0.297614395618438721 0.0571710355579853058
-0.286115348339080811 0.256782412528991699 0.000557040970306843519
-0.0210703276097774506 -0.040660567581653595 0.0890917405486106873
0.204515010118484497 0.042474646121263504 0.0659231469035148621
-0.14379766583442688 -0.0855276286602020264 0.0917731150984764099
0.372428417205810547 -0.0736424177885055542 0.0318649634718894958
0.521132469177246094 -0.199383050203323364 -0.0982000306248664856
0.486860156059265137 -0.298143565654754639 -0.305052399635314941
0.480252474546432495 -0.315062016248703003 0.122598841786384583
0.513364493846893311 -0.307466506958007812 -0.102115578949451447
0.495778262615203857 -0.309776365756988525 -0.309426546096801758
0.505938112735748291 -0.328079760074615479 -0.00383921689353883266
0.511529862880706787 -0.324769407510757446 0.118631377816200256
0.465655058622360229 -0.289039939641952515 -0.296242028474807739
0.437788099050521851 -0.263712942600250244 -0.19398835301399231
0.135099291801452637 0.116661921143531799 0.337190210819244385
0.396430462598800659 -0.24452286958694458 0.31901213526725769
-0.601778566837310791 0.353891551494598389 0.0654127076268196106
-0.505350410938262939 0.356766045093536377 0.1782197505235672
0.542397737503051758 -0.282752096652984619 0.0982097238302230835
0.256365001201629639 0.0366223901510238647 -0.0718177184462547302
-0.233282715082168579 0.155539736151695251 -0.00525002926588058472
0.505928456783294678 -0.332246690988540649 -0.00226324726827442646
0.444589108228683472 -0.250308722257614136 -0.227704629302024841
-0.639320909976959229 0.254129111766815186 0.0544436164200305939
0.532382011413574219 -0.262924045324325562 0.0935290902853012085
-0.39338076114654541 -0.0596875250339508057 0.100419238209724426
0.523660719394683838 -0.289931803941726685 -0.0918074995279312134
0.0278912764042615891 -0.274456530809402466 -0.0352093763649463654
0.385013103485107422 -0.306259512901306152 0.119067557156085968
-0.582457542419433594 0.366439521312713623 0.131601184606552124
0.240179508924484253 0.00271664257161319256 0.181338340044021606
-0.113105699419975281 0.165169492363929749 0.347568094730377197
0.481960505247116089 -0.368614643812179565 -0.0217925235629081726
0.412032514810562134 -0.321446686983108521 -0.210747778415679932
0.507076144218444824 -0.15574347972869873 0.124320365488529205
0.528566896915435791 -0.334973633289337158 0.0130902593955397606
-0.584402143955230713 0.336023032665252686 0.0340002104640007019
-0.591036736965179443 0.381541192531585693 0.131154701113700867
0.526048004627227783 -0.24467882513999939 -0.310335159301757812
0.474190890789031982 -0.291061937808990479 -0.29913938045501709
-0.597501516342163086 0.35332942008972168 0.169560924172401428
-0.587621688842773438 0.371076583862304688 0.100994043052196503
-0.212293282151222229 -0.129955887794494629 -0.0576377175748348236
0.234264522790908813 -0.293205142021179199 0.315139561891555786
0.237990528345108032 0.0669192895293235779 0.320276618003845215
0.541597127914428711 -0.314128220081329346 -0.0578338690102100372
-0.444989234209060669 -0.0488124974071979523 0.127048477530479431
0.359363079071044922 -0.388644963502883911 -0.208757400512695312
-0.556847810745239258 0.210734367370605469 -0.113727912306785583
0.520562708377838135 -0.279854744672775269 -0.17681846022605896
0.241852208971977234 0.0345690473914146423 0.314756631851196289
0.242687225341796875 0.000231367492233403027 0.0238957945257425308
0.380540430545806885 0.0386345721781253815 0.0121930055320262909
0.526520788669586182 -0.230977505445480347 -0.30983811616897583
0.326870471239089966 0.0959657207131385803 -0.0356330275535583496
-0.374538809061050415 -0.0607205517590045929 -0.132886037230491638
0.512698173522949219 -0.167741134762763977 0.136210843920707703
-0.574773073196411133 0.321622997522354126 0.0493763461709022522
-0.559279501438140869 0.283080130815505981 0.364056259393692017
0.224353209137916565 0.0317299254238605499 -0.0579565390944480896
-0.574630796909332275 0.214198246598243713 -0.221160292625427246
-0.0444097518920898438 0.156298339366912842 0.0812899842858314514
0.114012941718101501 0.109827920794487 0.0256180949509143829
0.342580825090408325 -0.247227370738983154 -0.0966060683131217957
-0.285298198461532593 0.300003260374069214 -0.00282616843469440937
0.153230085968971252 -0.00458872225135564804 -0.00337708648294210434
0.0689744502305984497 0.138601243495941162 0.0757981464266777039
-0.270283699035644531 0.27975890040397644 0.00171023246366530657
0.503112375736236572 -0.29289659857749939 -0.159060746431350708
0.136896610260009766 -0.026014234870672226 0.0132963592186570168
-0.339317202568054199 -0.0324123427271842957 0.0228135399520397186
0.373240947723388672 -0.0920309498906135559 0.0445771068334579468
0.199857205152511597 0.1010466068983078 -0.00158881547395139933
-0.297536730766296387 -0.0254316329956054688 0.0359615273773670197
0.131696075201034546 -0.0180183220654726028 -0.0259088948369026184
0.101342737674713135 0.0158534683287143707 0.0913797169923782349
0.175592586398124695 0.1191529780626297 0.038232114166021347
-0.230739206075668335 -0.0640255510807037354 0.104691386222839355
0.48584437370300293 -0.297006070613861084 -0.30327954888343811
-0.603472292423248291 0.289146155118942261 0.185025900602340698
0.466982185840606689 -0.308938354253768921 0.120356455445289612
0.378109902143478394 -0.0146623514592647552 0.00667725317180156708
0.514113724231719971 -0.295601099729537964 -0.10320398211479187
0.518593192100524902 -0.240067258477210999 -0.307339727878570557
0.477683484554290771 -0.310071229934692383 -0.300039023160934448
0.48315092921257019 -0.274856030941009521 -0.299653947353363037
0.117159560322761536 0.118549704551696777 0.297750979661941528
-0.584477484226226807 0.355951458215713501 0.0656355172395706177
0.383561551570892334 -0.337548762559890747 0.125748127698898315
-0.574751555919647217 0.317274421453475952 -0.0267207399010658264
-0.604741036891937256 0.216723144054412842 -0.0870499759912490845
0.267632395029067993 0.039015553891658783 -0.0860059037804603577
-0.356701821088790894 -0.0226344838738441467 -0.13116784393787384
-0.564556539058685303 0.313904821872711182 -0.00807492155581712723
0.190511807799339294 -0.341090470552444458 -0.0746075436472892761
0.403961509466171265 -0.357939034700393677 -0.223813563585281372
-0.500500261783599854 0.14521181583404541 0.354578286409378052
0.509375810623168945 -0.151707261800765991 0.115294449031352997
0.496610045433044434 -0.2642669677734375 -0.304138034582138062
0.457745194435119629 -0.281211972236633301 -0.289491921663284302
0.440721303224563599 -0.265290558338165283 -0.283450573682785034
-0.588295459747314453 0.357056170701980591 0.0615479350090026855
0.504986703395843506 -0.127026021480560303 0.124716110527515411
-0.206424444913864136 0.31205478310585022 0.108736231923103333
0.268068462610244751 -0.284232020378112793 0.319342464208602905
0.232481539249420166 0.00333441747352480888 0.318048745393753052
0.51301199197769165 -0.176010593771934509 -0.281481385231018066
-0.115381404757499695 0.00956494268029928207 0.00594275770708918571
0.403693348169326782 -0.359968066215515137 -0.224437624216079712
0.417430847883224487 -0.313481599092483521 0.144018009305000305
-0.555759191513061523 0.376096040010452271 0.186621308326721191
-0.175835281610488892 0.308740884065628052 0.118426434695720673
-0.389974445104598999 0.275512933731079102 -0.0851190164685249329
0.365111827850341797 0.0515726692974567413 0.0248913243412971497
0.129127562046051025 0.11544964462518692 0.3189849853515625
-0.286781877279281616 -0.101034432649612427 -0.0920152366161346436
0.258017838001251221 0.100632429122924805 -0.0617865957319736481
-0.361547887325286865 -0.0602791756391525269 -0.144143074750900269
0.134078457951545715 0.113413698971271515 0.337933242321014404
-0.563399910926818848 0.19884847104549408 -0.229130461812019348
-0.276612669229507446 0.287520825862884521 -0.000918771664146333933
0.454671561717987061 -0.246784314513206482 -0.288032889366149902
0.460008412599563599 -0.275743961334228516 -0.290557980537414551
-0.635136544704437256 0.30778077244758606 0.170217782258987427
0.512240946292877197 -0.317751973867416382 -0.0383060760796070099
0.468711882829666138 -0.266145169734954834 -0.297686845064163208
0.477917194366455078 -0.295363932847976685 -0.299968034029006958
0.45792698860168457 -0.24656851589679718 -0.289604097604751587
0.380938053131103516 -0.36129838228225708 -0.213630542159080505
-0.479701399803161621 -0.0129798855632543564 0.185791075229644775
-0.516726315021514893 0.365343689918518066 0.173914656043052673
-0.618828177452087402 0.201621741056442261 -0.0873149707913398743
-0.237506762146949768 0.0183840226382017136 -0.072522580623626709
-0.382853239774703979 -0.0594776496291160583 0.0236821174621582031
0.474648058414459229 -0.368598729372024536 0.0220764540135860443
-0.649543344974517822 0.236371561884880066 0.0320722684264183044
0.412383884191513062 -0.347037166357040405 -0.221405923366546631
0.525824069976806641 -0.337401092052459717 0.0803354606032371521
0.505795300006866455 -0.239367261528968811 -0.307798981666564941
0.249429628252983093 -0.282416760921478271 0.318389564752578735
0.239145189523696899 0.0663493573665618896 0.314822345972061157
0.539313435554504395 -0.302132219076156616 -0.0933880135416984558
-0.44814378023147583 -0.0418162643909454346 0.126479730010032654
-0.0439113639295101166 0.104173585772514343 0.317853182554244995
0.24790579080581665 0.0208171606063842773 0.322387665510177612
-0.285104960203170776 -0.100167632102966309 -0.0990342646837234497
-0.137920558452606201 -0.015465092845261097 -0.0487679652869701385
-0.278077423572540283 0.33740726113319397 0.0469513051211833954
-0.254906982183456421 0.289443850517272949 -0.00325082335621118546
-0.219094753265380859 0.321461260318756104 0.069827251136302948
-0.573530793190002441 0.151836380362510681 -0.0746081098914146423
-0.290148466825485229 0.292233824729919434 0.01601363904774189
0.525388419628143311 -0.320924341678619385 0.0274553932249546051
0.345986604690551758 -0.0307607240974903107 -0.0341967567801475525
0.522011935710906982 -0.363161236047744751 0.0896632596850395203
-0.083437211811542511 -0.112139061093330383 0.0785290747880935669
-0.404193460941314697 0.325582146644592285 0.121135078370571136
0.504525423049926758 -0.367338746786117554 -0.00421781139448285103
-0.11885640025138855 0.265726953744888306 0.120976343750953674
0.518488407135009766 -0.343214631080627441 0.0361183546483516693
0.130176723003387451 -0.334863960742950439 0.30132099986076355
0.466423988342285156 -0.311292916536331177 0.0727404206991195679
0.482650071382522583 -0.374253034591674805 0.0525928214192390442
0.42093929648399353 -0.0263002235442399979 0.0651614516973495483
0.493924766778945923 -0.363799363374710083 -0.015264926478266716
-0.23314116895198822 0.286725789308547974 0.0841211304068565369
0.530976295471191406 -0.332030028104782104 -0.00694858329370617867
-0.272139936685562134 0.31495937705039978 0.11392500251531601
0.308147579431533813 0.00234441482461988926 0.0465560220181941986
0.467195004224777222 -0.263753235340118408 -0.295758217573165894
0.47362247109413147 -0.304560571908950806 0.114514544606208801
0.510936617851257324 -0.313930004835128784 -0.104106307029724121
0.508941471576690674 -0.245715141296386719 -0.308119744062423706
0.447730988264083862 -0.292843669652938843 -0.292457461357116699
0.466157644987106323 -0.283610552549362183 -0.296964645385742188
0.138310521841049194 0.112533159554004669 0.336875438690185547
-0.652384936809539795 0.285365909337997437 0.0978394001722335815
-0.638575136661529541 0.244436308741569519 -0.0383508391678333282
0.136296927928924561 0.0690258145332336426 0.337996184825897217
-0.57735133171081543 0.30339282751083374 -0.0557128414511680603
0.262411594390869141 0.0302006471902132034 -0.0732189267873764038
0.541723906993865967 -0.216975584626197815 0.111864812672138214
-0.360336631536483765 -0.036272052675485611 -0.13434833288192749
-0.574993491172790527 0.327079206705093384 -0.0297314431518316269
-0.362035006284713745 -0.0714168176054954529 -0.0340158939361572266
-0.13074532151222229 -0.26794925332069397 0.119087345898151398
0.494895786046981812 -0.366091102361679077 -0.000101115307188592851
0.373631447553634644 -0.359694749116897583 -0.209798067808151245
-0.378645539283752441 -0.107368320226669312 0.101266942918300629
-0.067224942147731781 -0.264316141605377197 0.296488553285598755
0.519616484642028809 -0.243670076131820679 -0.309140115976333618
0.50922316312789917 -0.330827474594116211 0.015547584742307663
-0.593606829643249512 0.36861419677734375 0.120413966476917267
-0.65564429759979248 0.175283953547477722 -0.1031675785779953
-0.223242536187171936 -0.144595205783843994 -0.0537222102284431458
-0.191418305039405823 0.316241353750228882 0.100695975124835968
0.256530702114105225 -0.283706814050674438 0.319826960563659668
0.239117845892906189 0.0320000238716602325 0.319291234016418457
-0.120267003774642944 -0.0464636646211147308 0.00733793200924992561
-0.641820371150970459 0.308288097381591797 0.101707331836223602
0.364520013332366943 -0.374237537384033203 -0.206719055771827698
0.537520110607147217 -0.21798667311668396 0.162141025066375732
-0.552986741065979004 0.382085859775543213 0.157815948128700256
-0.12263953685760498 0.258941769599914551 0.115110024809837341
0.11939636617898941 0.102190151810646057 0.0895820707082748413
-0.375643014907836914 0.265358537435531616 -0.0896474495530128479
0.516649901866912842 -0.349308758974075317 0.0990317612886428833
-0.293774127960205078 -0.107639707624912262 -0.109309770166873932
0.274926722049713135 0.102685533463954926 -0.0574193671345710754
-0.575364112854003906 0.219107717275619507 -0.212755829095840454
-0.115671247243881226 0.268236517906188965 0.179787278175354004
0.235889449715614319 -0.28818964958190918 0.314501464366912842
0.310040831565856934 -0.187540486454963684 0.241222724318504333
0.541500866413116455 -0.326119691133499146 -0.0206437762826681137
0.0788578614592552185 -0.337973147630691528 0.282249569892883301
-0.00654176482930779457 -0.172174006700515747 0.00431511923670768738
-0.282436460256576538 0.261288911104202271 0.00699551822617650032
0.512873709201812744 -0.237440153956413269 -0.309133768081665039
-0.647184431552886963 0.277911365032196045 0.0793813839554786682
-0.646573662757873535 0.182795032858848572 -0.0910152420401573181
0.513857662677764893 -0.322786062955856323 0.0245601590722799301
-0.407197624444961548 -0.0640819668769836426 0.113457314670085907
0.516572892665863037 -0.35598340630531311 -0.0203571170568466187
-0.566802382469177246 0.373963356018066406 0.152320355176925659
0.235873863101005554 0.0428099483251571655 0.313838064670562744
-0.665068745613098145 0.226771831512451172 0.0229551251977682114
-0.448351442813873291 -0.0389183424413204193 0.126988500356674194
0.502750933170318604 -0.302581608295440674 -0.178590729832649231
-0.589352309703826904 0.36066967248916626 0.0859134718775749207
-0.194259434938430786 0.314514964818954468 0.104812785983085632
0.24688972532749176 0.0237202830612659454 0.32398107647895813
0.530655026435852051 -0.324089795351028442 -0.0578062236309051514
-0.1830025315284729 0.306624799966812134 0.12842974066734314
0.247136637568473816 0.00679837213829159737 0.324112027883529663
0.0586101897060871124 0.139390945434570312 0.345788449048995972
-0.505925595760345459 0.149014785885810852 0.356778562068939209
0.270580500364303589 -0.311455130577087402 0.32637178897857666
-0.253942906856536865 0.0231144353747367859 -0.0707395151257514954
0.240935727953910828 -0.295502394437789917 0.322604596614837646
0.248921588063240051 0.0435971468687057495 0.314572989940643311
0.468183219432830811 -0.102215498685836792 0.0349124744534492493
-0.124885812401771545 0.194751650094985962 0.115392573177814484
0.239823833107948303 -0.326825946569442749 0.318049103021621704
0.500009000301361084 -0.366852730512619019 0.0749042928218841553
0.523182570934295654 -0.324991434812545776 0.026477741077542305
0.444431036710739136 -0.253478914499282837 0.332575380802154541
0.321364730596542358 -0.131722643971443176 -0.106415495276451111
0.0633234381675720215 -0.0110058477148413658 0.321741610765457153
0.511053264141082764 -0.361160755157470703 0.0477680936455726624
0.135609984397888184 -0.100947774946689606 0.0406508073210716248
0.0494751147925853729 0.0112631302326917648 0.0297897849231958389
0.0207300595939159393 0.0479390174150466919 0.0426376499235630035
0.0880861356854438782 -0.0663089603185653687 0.289688676595687866
-0.162297815084457397 -0.266047775745391846 0.147967100143432617
0.264881253242492676 -0.0204088129103183746 0.0617392919957637787
-0.0289727076888084412 -0.0293141622096300125 0.295557171106338501
0.50194859504699707 -0.240681946277618408 -0.301717519760131836
0.475722402334213257 -0.315304547548294067 -0.301676541566848755
-0.63111579418182373 0.305929064750671387 0.167203262448310852
0.475263357162475586 -0.321077853441238403 0.121270813047885895
0.508849143981933594 -0.301155924797058105 -0.105264283716678619
0.527978122234344482 -0.275265872478485107 -0.316907793283462524
0.493327051401138306 -0.332777976989746094 -0.310435861349105835
0.503288328647613525 -0.320406407117843628 0.0982729867100715637
0.473969101905822754 -0.306136280298233032 -0.297824054956436157
-0.559516727924346924 0.267728716135025024 0.364385098218917847
0.124992169439792633 0.11657947301864624 0.314284145832061768
-0.633770763874053955 0.281869083642959595 0.0541206449270248413
-0.587538838386535645 0.362426251173019409 0.102251656353473663
0.371356397867202759 -0.37439197301864624 -0.212493911385536194
0.438282251358032227 -0.348245799541473389 0.154574230313301086
0.058100525289773941 0.121017903089523315 0.321165293455123901
-0.574748218059539795 0.368451803922653198 0.215377241373062134
0.264668762683868408 0.024313800036907196 -0.0584235377609729767
0.368661701679229736 -0.33705565333366394 0.160831436514854431
0.510291159152984619 -0.301877379417419434 -0.111713342368602753
0.133552640676498413 -0.320962876081466675 -0.0976566672325134277
0.516351699829101562 -0.349108338356018066 -0.0200119707733392715
0.38914218544960022 -0.347120910882949829 -0.213840708136558533
-0.577197730541229248 0.318684756755828857 0.0406321771442890167
0.535790503025054932 -0.278238505125045776 -0.320313543081283569
0.467684239149093628 -0.311272531747817993 -0.298964112997055054
0.506979703903198242 -0.34743836522102356 0.018206203356385231
-0.556079745292663574 0.309328317642211914 0.10210902988910675
0.193821907043457031 -0.339703768491744995 -0.0590161345899105072
0.0700501725077629089 -0.282610952854156494 -0.0778089538216590881
0.252408593893051147 -0.250560641288757324 0.320296168327331543
0.239912167191505432 0.030642559751868248 0.317069679498672485
-0.12112870067358017 -0.0482627563178539276 0.00819205306470394135
0.178744614124298096 -0.100504979491233826 -0.0146216209977865219
0.532236993312835693 -0.332637965679168701 -0.0128873884677886963
0.370223194360733032 -0.349844038486480713 -0.208627074956893921
0.53477776050567627 -0.246147558093070984 0.177545130252838135
0.560907125473022461 -0.316199898719787598 -0.330660581588745117
0.554336428642272949 -0.212040632963180542 0.13421475887298584
-0.543447494506835938 0.380383670330047607 0.164358541369438171
0.122893571853637695 0.116849102079868317 0.133248269557952881
-0.582418560981750488 0.351542949676513672 0.0976482406258583069
-0.481741160154342651 0.185427740216255188 -0.0915949493646621704
0.515431642532348633 -0.339510649442672729 0.0391119532287120819
0.253412723541259766 -0.279482275247573853 0.322110474109649658
0.27843475341796875 -0.356326639652252197 -0.125849708914756775
0.507713139057159424 -0.287044018507003784 -0.313380956649780273
-0.432338535785675049 -0.0577599629759788513 0.116674020886421204
0.201989918947219849 0.0901697129011154175 0.223521620035171509
0.244277805089950562 0.104185417294502258 -0.0570033006370067596
-0.195757851004600525 0.201107233762741089 0.34927600622177124
0.250470429658889771 0.0246078334748744965 0.323507368564605713
0.23983292281627655 0.0186994448304176331 0.32119336724281311
-0.0314299054443836212 0.162335708737373352 0.382685810327529907
-0.482697278261184692 -0.0161880403757095337 0.180141806602478027
0.483647644519805908 -0.369422614574432373 0.0463488511741161346
-0.643705248832702637 0.286725729703903198 0.0860955864191055298
0.275915235280990601 -0.166185557842254639 -0.0702438056468963623
-0.412002146244049072 -0.0574383549392223358 0.0788975059986114502
-0.643230557441711426 0.175257846713066101 -0.0820954218506813049
-0.226081833243370056 -0.134490028023719788 -0.0521811321377754211
0.254917055368423462 -0.26589357852935791 0.321276247501373291
-0.345504075288772583 0.0167189855128526688 -0.116895347833633423
-0.287290126085281372 -0.0921495184302330017 -0.106466576457023621
-0.585266053676605225 0.209323734045028687 -0.218063920736312866
0.267567068338394165 -0.297351866960525513 0.315354198217391968
-0.0256549902260303497 -0.18774569034576416 -0.0433877743780612946
-0.618249177932739258 0.27650025486946106 0.0313004627823829651
-0.609020352363586426 0.297825515270233154 0.0923744738101959229
-0.397737324237823486 -0.063433133065700531 0.118879802525043488
-0.451889544725418091 -0.0387488342821598053 0.119471736252307892
0.43101617693901062 -0.272108346223831177 0.329442352056503296
-0.0524521917104721069 0.140367791056632996 0.0917818844318389893
-0.50319063663482666 0.150637775659561157 0.355394482612609863
0.240785315632820129 -0.31964951753616333 0.32294878363609314
0.497020244598388672 -0.371244102716445923 0.0576661974191665649
0.399228304624557495 -0.257222950458526611 0.322712242603302002
-0.158442780375480652 -0.264024138450622559 0.181599095463752747
-0.499361872673034668 0.0134693756699562073 0.158057615160942078
0.417502671480178833 -0.297737419605255127 0.32898026704788208
0.53515923023223877 -0.340629726648330688 -0.0181194469332695007
0.344233334064483643 -0.267838627099990845 -0.127561256289482117
-0.496649682521820068 0.0714348331093788147 0.20395052433013916
0.443552106618881226 -0.272554755210876465 0.333673059940338135
0.521906852722167969 -0.335827082395553589 0.0331162549555301666
0.453255593776702881 -0.320404678583145142 -0.292711466550827026
0.474143713712692261 -0.312089651823043823 0.117013677954673767
0.517087936401367188 -0.278933912515640259 -0.312491565942764282
0.502532780170440674 -0.326464444398880005 -0.314000785350799561
0.518003106117248535 -0.327535033226013184 0.102233588695526123
0.479197770357131958 -0.311940491199493408 -0.301845341920852661
0.114592172205448151 0.118178889155387878 0.289139479398727417
-0.121987901628017426 0.268172174692153931 0.15880410373210907
-0.614998340606689453 0.264974802732467651 0.0520068109035491943
-0.479579806327819824 0.00247095036320388317 0.181321188807487488
0.426624983549118042 -0.355436593294143677 0.158849135041236877
-0.292470753192901611 -0.111222349107265472 -0.105734139680862427
0.13054695725440979 0.0651016756892204285 0.321358680725097656
0.253738760948181152 0.0382289551198482513 -0.0775387510657310486
0.235505729913711548 0.0934147387742996216 -0.052831597626209259
0.417603254318237305 -0.262035995721817017 -0.202020689845085144
0.521559834480285645 -0.355108082294464111 -0.0191395729780197144
-0.609062075614929199 0.380630463361740112 0.181135267019271851
0.517439126968383789 -0.279835015535354614 -0.314414471387863159
0.499007821083068848 -0.350446224212646484 0.0243970975279808044
-0.588023841381072998 0.368800818920135498 0.112936221063137054
0.505882441997528076 -0.105146408081054688 0.14761689305305481
-0.198118358850479126 0.311049014329910278 0.112929724156856537
0.264017730951309204 -0.286938458681106567 0.319943100214004517
0.236944094300270081 0.061746302992105484 0.310731947422027588
-0.144580721855163574 -0.0440176054835319519 0.00425289012491703033
-0.657977938652038574 0.214168474078178406 -0.0462621599435806274
-0.28874969482421875 -0.076592668890953064 -0.0685772746801376343
0.227265626192092896 0.0417118407785892487 -0.0479107275605201721
0.551418781280517578 -0.14492247998714447 0.132371008396148682
0.519645750522613525 -0.295805424451828003 0.0752174258232116699
0.51745307445526123 -0.28456038236618042 -0.180850505828857422
-0.358241081237792969 -0.0177337508648633957 -0.0279288701713085175
0.0915210247039794922 0.0877692922949790955 0.085927225649356842
0.466545134782791138 -0.362345904111862183 -0.0103517286479473114
-0.433088898658752441 0.15710921585559845 -0.0664978325366973877
0.523672938346862793 -0.336090594530105591 0.0692129358649253845
0.262878090143203735 -0.28630751371383667 0.318665951490402222
0.00933056604117155075 -0.0914582982659339905 -0.0260059498250484467
0.0325202904641628265 -0.130846545100212097 0.021982172504067421
-0.630914509296417236 0.264490187168121338 0.0289644282311201096
0.242144718766212463 0.0739156454801559448 0.319001972675323486
0.240219712257385254 0.0291678234934806824 0.319082796573638916
-0.174904793500900269 0.300337940454483032 0.116316378116607666
0.304605662822723389 -0.151674076914787292 0.308013111352920532
0.26191180944442749 -0.291109055280685425 0.321149557828903198
-0.476403713226318359 -0.0087882624939084053 0.166197195649147034
0.24277929961681366 0.0813518837094306946 0.312361478805541992
0.520097732543945312 -0.351741522550582886 0.0822427347302436829
-0.0349732972681522369 -0.238076135516166687 0.124151811003684998
-0.638518691062927246 0.289505451917648315 0.0987243279814720154
-0.234400421380996704 -0.133468031883239746 -0.0579678341746330261
-0.379491925239562988 -0.109446629881858826 0.105532824993133545
-0.23661339282989502 -0.148492768406867981 -0.0578170567750930786
-0.658189713954925537 0.213864997029304504 -0.0339674167335033417
0.528731286525726318 -0.353076785802841187 0.0781853646039962769
-0.621357083320617676 0.26975327730178833 0.0524010732769966125
