ply
format ascii 1.0
element vertex 737
property float x
property float y
property float z
end_header
0.499997556209564209 -0.319588184356689453 -0.311185002326965332
-0.112883791327476501 0.145352765917778015 0.367530316114425659
-0.496492505073547363 0.134034886956214905 -0.0522934608161449432
-0.435166418552398682 -0.0291150473058223724 0.166176900267601013
-0.630936682224273682 0.304771572351455688 0.182670503854751587
0.487441033124923706 -0.321461915969848633 0.12523294985294342
-0.251185864210128784 -0.0261675715446472168 0.0656451433897018433
0.389519244432449341 0.0471808835864067078 -0.0437824241816997528
0.514831602573394775 -0.309276401996612549 -0.103075079619884491
-0.375070929527282715 0.330875307321548462 0.143460169434547424
-0.365288734436035156 -0.00578650878742337227 -0.126407623291015625
-0.534279763698577881 0.285212278366088867 -0.00433061085641384125
-0.193971812725067139 -0.0190058611333370209 0.173113301396369934
0.357228249311447144 -0.282477259635925293 0.0418907329440116882
-0.214750230312347412 -0.0848800912499427795 0.0357598476111888885
0.077892787754535675 -0.0505403317511081696 0.263844519853591919
0.464464634656906128 -0.308235615491867065 -0.219437181949615479
-0.574002981185913086 0.361663669347763062 0.26723054051399231
-0.573563516139984131 0.274849057197570801 0.236143708229064941
-0.55149918794631958 0.27088630199432373 -0.106879621744155884
0.531918227672576904 -0.201343849301338196 -0.0906020477414131165
0.471114665269851685 -0.306725889444351196 -0.0193185172975063324
-0.584605395793914795 0.261357933282852173 -0.0424102693796157837
0.420519769191741943 -0.302240759134292603 0.0652528330683708191
-0.457846194505691528 0.117404893040657043 -0.232289746403694153
0.313809990882873535 0.0446282960474491119 0.0263156834989786148
0.49528968334197998 -0.321252644062042236 -0.309925436973571777
0.342874765396118164 -0.18563571572303772 0.163427278399467468
0.449728608131408691 -0.358951151371002197 -0.08198527991771698
-0.29513859748840332 0.214633584022521973 0.0124741764739155769
-0.46659967303276062 0.155702531337738037 -0.0451466254889965057
0.448739141225814819 -0.26479572057723999 -0.144858017563819885
0.5127677321434021 -0.32995682954788208 0.111245594918727875
0.477071434259414673 -0.302983760833740234 -0.303362011909484863
-0.382486879825592041 0.334077984094619751 0.162124320864677429
-0.560051321983337402 0.264121115207672119 0.364356666803359985
0.445508569478988647 -0.331541597843170166 -0.229292705655097961
-0.558456182479858398 0.333602637052536011 0.113075412809848785
0.437950462102890015 -0.249660491943359375 0.0915947332978248596
-0.3628731369972229 0.2468453049659729 -0.0159081947058439255
0.442588150501251221 -0.235092952847480774 -0.227020218968391418
0.134264767169952393 0.121502913534641266 0.337110966444015503
0.285191655158996582 -0.0809215977787971497 0.190444722771644592
0.541080117225646973 -0.220723152160644531 0.112259440124034882
0.159759789705276489 0.0947936102747917175 0.124197393655776978
-0.0489044152200222015 -0.0627787783741950989 0.0488167926669120789
-0.588954150676727295 0.271400511264801025 -0.00749770831316709518
-0.610012829303741455 0.237038463354110718 -0.0563608594238758087
-0.343212127685546875 0.167295262217521667 0.0329091548919677734
-0.581260025501251221 0.191180378198623657 0.0905264168977737427
-0.43624114990234375 0.0525676682591438293 -0.148911833763122559
-0.0907441005110740662 0.266760259866714478 0.177243009209632874
0.249501705169677734 0.104523457586765289 -0.0592673905193805695
0.111456938087940216 0.0961396694183349609 -0.0146235357969999313
0.386097431182861328 -0.264075160026550293 0.196281164884567261
-0.015382855199277401 0.00372073473408818245 0.222556054592132568
-0.437790095806121826 -0.0135193765163421631 -0.0323481149971485138
-0.136261656880378723 -0.0369710065424442291 0.0950228646397590637
0.0255291368812322617 0.143209561705589294 0.294398218393325806
-0.554847538471221924 0.151228249073028564 -0.11356005072593689
0.0428642444312572479 -0.0579284392297267914 0.153602063655853271
-0.155831515789031982 -0.001877398113720119 0.155993953347206116
0.0370081961154937744 0.1397438645362854 0.0898413956165313721
-0.462150335311889648 0.00800130702555179596 0.166547626256942749
-0.286946207284927368 -0.0536196306347846985 0.135213419795036316
0.207635179162025452 -0.153037607669830322 0.212590932846069336
0.0320647023618221283 0.118890486657619476 0.09094209223985672
0.321277320384979248 -0.171677634119987488 0.0105114830657839775
0.301200449466705322 -0.123779997229576111 -0.0416341722011566162
-0.37733083963394165 -0.00756793888285756111 -0.0303515642881393433
0.448224544525146484 -0.272376567125320435 0.0943535417318344116
0.317609548568725586 -0.117043063044548035 0.0135170985013246536
0.157652720808982849 -0.0909062623977661133 0.212654843926429749
-0.162450462579727173 0.14683590829372406 0.0701489001512527466
0.456219464540481567 -0.108270607888698578 -0.23142985999584198
-0.577579796314239502 0.244659841060638428 -0.120153658092021942
-0.571593284606933594 0.294964253902435303 -0.0643298625946044922
0.517836034297943115 -0.242100492119789124 -0.158782064914703369
-0.369826734066009521 0.0988385528326034546 -0.0742992088198661804
-0.613980472087860107 0.26392790675163269 0.0383441075682640076
0.342857390642166138 -0.328701794147491455 -0.106382444500923157
0.340390324592590332 -0.188985809683799744 0.16035047173500061
0.532145500183105469 -0.24710594117641449 0.0927039459347724915
0.143478155136108398 0.0790166035294532776 0.0920132696628570557
-0.572321832180023193 0.305301636457443237 -0.0515799298882484436
0.271207660436630249 0.00563256675377488136 0.0707409754395484924
-0.625226855278015137 0.193347230553627014 -0.0885160788893699646
-0.461323976516723633 0.292103379964828491 -0.0620499067008495331
-0.152711093425750732 0.180447205901145935 0.0906013995409011841
-0.549179673194885254 0.174366548657417297 -0.0442895963788032532
-0.54388427734375 0.278046250343322754 0.171485140919685364
0.400964856147766113 -0.233567893505096436 -0.0236301906406879425
0.286611944437026978 -0.0622187517583370209 -0.0971338152885437012
0.221561655402183533 0.0403690077364444733 -0.0704736560583114624
0.103096954524517059 -0.138190522789955139 0.210638627409934998
0.115197122097015381 0.0728660225868225098 0.31628003716468811
-0.370666533708572388 0.118685856461524963 0.236711367964744568
-0.0232709813863039017 -0.0572012215852737427 0.137241408228874207
0.221663594245910645 -0.235794886946678162 0.0974025055766105652
0.0755617991089820862 0.0651930049061775208 0.0339130721986293793
-0.38401871919631958 -0.0579017922282218933 0.103984788060188293
0.104103356599807739 0.0794461444020271301 0.125873461365699768
0.252048581838607788 0.0289916787296533585 -0.066059403121471405
-0.372418910264968872 0.269694119691848755 0.11336033046245575
0.0321997366845607758 -0.0552958138287067413 0.302024215459823608
-0.0151223242282867432 0.13804703950881958 0.0918378904461860657
-0.501674771308898926 0.0957833528518676758 -0.128156766295433044
-0.345934271812438965 0.0126184755936264992 0.150382071733474731
0.526591777801513672 -0.0544307082891464233 -0.309408724308013916
-0.500273346900939941 0.136000141501426697 -0.24117615818977356
0.472815752029418945 -0.268745988607406616 0.113136053085327148
0.376881271600723267 -0.133673131465911865 -0.0480654686689376831
0.234723210334777832 0.0932228490710258484 -0.0406184010207653046
0.137267634272575378 0.0132226189598441124 0.284512519836425781
0.520533204078674316 -0.204332351684570312 -0.0884309038519859314
-0.536507070064544678 0.124909698963165283 -0.106053084135055542
-0.579345345497131348 0.292869597673416138 -0.00131567893549799919
0.48252260684967041 -0.324844866991043091 0.100059419870376587
0.499275028705596924 -0.269332438707351685 0.0358154326677322388
0.492902964353561401 -0.329887241125106812 -0.0631196573376655579
-0.483592480421066284 0.120450533926486969 -0.0458105765283107758
-0.591653823852539062 0.301701486110687256 0.17542971670627594
0.483302474021911621 -0.32272869348526001 0.134416937828063965
0.505673706531524658 -0.303317040205001831 -0.104108206927776337
-0.381230086088180542 0.317203640937805176 0.158469006419181824
-0.546446681022644043 0.334568768739700317 0.134016633033752441
0.460334628820419312 -0.259155154228210449 0.114866301417350769
0.533755481243133545 -0.207093402743339539 -0.0880599841475486755
0.513235509395599365 -0.231565266847610474 -0.305035263299942017
-0.554087817668914795 0.259731501340866089 -0.0211420450359582901
0.461227357387542725 -0.304369747638702393 0.108908399939537048
-0.452063262462615967 0.112783722579479218 -0.225232332944869995
0.486178129911422729 -0.313997596502304077 -0.303692877292633057
-0.559543967247009277 0.317831814289093018 0.354436874389648438
0.179315194487571716 -0.103944487869739532 -0.0163997355848550797
0.306249082088470459 0.0183975938707590103 -0.11192554235458374
0.506202101707458496 -0.337659776210784912 0.0248153731226921082
0.404696077108383179 0.0229723155498504639 0.0080132531002163887
0.475095272064208984 -0.288024336099624634 -0.300176769495010376
0.0105662550777196884 0.154366582632064819 0.0572064965963363647
0.523024380207061768 -0.300233721733093262 -0.0980374664068222046
-0.38089752197265625 0.334143251180648804 0.204740583896636963
-0.55105060338973999 0.337626457214355469 0.124452881515026093
0.418426513671875 -0.252403199672698975 0.0979018881916999817
-0.580166459083557129 0.208403527736663818 -0.215157479047775269
0.278417080640792847 -0.0848826318979263306 0.190417826175689697
-0.129791274666786194 0.224733114242553711 0.126293286681175232
-0.382292181253433228 0.104143403470516205 -0.063534960150718689
0.551355123519897461 -0.219889670610427856 0.114198289811611176
0.383551448583602905 -0.242221146821975708 0.313861817121505737
-0.552792489528656006 0.163295164704322815 0.0796443894505500793
-0.134473547339439392 0.201664045453071594 0.168214187026023865
0.242350250482559204 0.110209926962852478 -0.0492282025516033173
0.116525992751121521 0.0400690212845802307 0.328065723180770874
-0.559145808219909668 0.278165638446807861 0.00230137258768081665
0.3198680579662323 -0.132548749446868896 -0.0799443572759628296
-0.575014591217041016 0.200428545475006104 -0.226104751229286194
0.207934215664863586 0.118245087563991547 0.0449855029582977295
0.463645339012145996 -0.308022290468215942 0.13469359278678894
-0.585320472717285156 0.319870591163635254 -0.0250012055039405823
0.53032916784286499 -0.253216475248336792 0.0981470197439193726
-0.309815466403961182 0.0826542675495147705 -0.0724925622344017029
-0.449574530124664307 0.00857225246727466583 -0.140334457159042358
-0.301149368286132812 0.290917694568634033 0.146179467439651489
-0.526434481143951416 0.181713953614234924 -0.215422183275222778
-0.391712605953216553 -0.0584963709115982056 0.100664101541042328
-0.545309007167816162 0.26289793848991394 -0.164871782064437866
0.313625931739807129 -0.333901703357696533 0.197724446654319763
-0.0597870573401451111 0.0942340940237045288 0.321105122566223145
-0.101639457046985626 0.143998369574546814 0.0933387130498886108
0.499654620885848999 -0.362605810165405273 0.0762885436415672302
0.348875313997268677 -0.282662123441696167 -0.135148301720619202
-0.412316113710403442 0.19825802743434906 0.0362212583422660828
-0.345103561878204346 0.251859337091445923 -0.0136493276804685593
-0.267459243535995483 0.079112611711025238 -0.0148336431011557579
-0.180757328867912292 0.0188174862414598465 0.0394404344260692596
-0.553319275379180908 0.212782025337219238 -0.0475379973649978638
0.407703608274459839 -0.400671243667602539 -0.215751364827156067
0.517526686191558838 -0.284956514835357666 -0.100345335900783539
0.395171105861663818 -0.264212250709533691 -0.19381435215473175
0.497763127088546753 -0.274068266153335571 -0.300825923681259155
0.434441953897476196 -0.257003873586654663 -0.00193220621440559626
-0.154496341943740845 -0.243965163826942444 0.148805245757102966
-0.630052685737609863 0.194546297192573547 -0.0478191599249839783
-0.35496172308921814 0.000504312163684517145 -0.151319265365600586
-0.5010947585105896 0.146497681736946106 0.346153944730758667
-0.33156430721282959 0.299949884414672852 0.190931931138038635
-0.334599226713180542 -0.031496245414018631 -0.132461428642272949
0.113214947283267975 0.0957162827253341675 0.0291128046810626984
0.470016509294509888 -0.134633511304855347 0.0994115844368934631
0.398911148309707642 -0.304667055606842041 0.145165130496025085
-0.457177877426147461 0.167806863784790039 0.116693444550037384
-0.536194086074829102 0.287476122379302979 0.0420036986470222473
-0.276319116353988647 -0.127497866749763489 0.0818243101239204407
-0.482919812202453613 0.249250844120979309 -0.103075228631496429
0.171144545078277588 -0.271807372570037842 0.0365381911396980286
-0.344601064920425415 0.103637687861919403 0.00640552584081888199
-0.365875929594039917 0.283136993646621704 0.086894400417804718
0.386484891176223755 -0.22972908616065979 -0.121822193264961243
-0.353062629699707031 0.00261018937453627586 0.0351760126650333405
-0.517954349517822266 0.202170968055725098 0.0490788333117961884
-0.384873390197753906 0.183037593960762024 0.0920571833848953247
-0.571655869483947754 0.328302949666976929 -0.011716294102370739
-0.339082926511764526 -0.0876329466700553894 -0.0540601611137390137
-0.136972725391387939 -0.26886478066444397 0.130328521132469177
0.27504006028175354 -0.165533959865570068 0.0549611933529376984
0.313100248575210571 -0.302358865737915039 -0.128425151109695435
-0.38116919994354248 0.25053173303604126 0.233343407511711121
0.310707420110702515 -0.216808781027793884 0.201245635747909546
0.49626469612121582 -0.254685252904891968 -0.105466760694980621
-0.118937157094478607 0.0728618577122688293 0.173539906740188599
0.512431204319000244 -0.361720383167266846 -0.0307075511664152145
-0.509031713008880615 0.269185453653335571 -0.00500903278589248657
-0.595069706439971924 0.244073003530502319 -0.00274358922615647316
-0.586217999458312988 0.251209378242492676 0.194294437766075134
-0.547688603401184082 0.121393196284770966 -0.134208515286445618
-0.244931712746620178 0.183038920164108276 0.356920689344406128
0.462369829416275024 -0.26398804783821106 -0.290389984846115112
0.45608830451965332 -0.255706280469894409 -0.186927631497383118
0.51933443546295166 -0.302563190460205078 0.0445435941219329834
-0.625583350658416748 0.200401633977890015 0.0449227616190910339
-0.255785733461380005 -0.00451561296358704567 -0.0622500479221343994
0.245603546500205994 0.0993113815784454346 -0.0690720006823539734
0.504908442497253418 -0.159639284014701843 0.130894899368286133
0.343200594186782837 -0.0696695894002914429 0.162073731422424316
0.399838924407958984 -0.23679797351360321 0.130383968353271484
-0.359677761793136597 -0.118672490119934082 0.116499796509742737
-0.478950053453445435 0.189777642488479614 0.063948608934879303
-0.574543595314025879 0.342141240835189819 0.0252783205360174179
-0.359025239944458008 -0.0632035434246063232 0.0908605605363845825
-0.342754542827606201 0.011740061454474926 -0.114460624754428864
0.303010106086730957 -0.295594334602355957 0.162145644426345825
-0.504563391208648682 0.221138954162597656 0.141914218664169312
-0.485154539346694946 0.0285419095307588577 -0.0468857847154140472
0.0333177819848060608 0.0882291421294212341 0.0877519100904464722
-0.231415063142776489 0.347418010234832764 0.148772850632667542
0.0320098437368869781 0.010754917748272419 0.0419873148202896118
-0.36572718620300293 -0.03662143275141716 -0.0327693931758403778
-0.0481850840151309967 -0.233992382884025574 0.301815003156661987
0.185901746153831482 -0.292671144008636475 0.00366619066335260868
0.234792083501815796 -0.0112752523273229599 0.230254530906677246
-0.526405513286590576 0.140823855996131897 0.0680465176701545715
-0.520215451717376709 0.201550990343093872 -0.0673707202076911926
-0.552141964435577393 0.285893917083740234 0.107560105621814728
0.14387156069278717 0.00809532403945922852 0.307788878679275513
0.0679229721426963806 -0.286054164171218872 -0.0815137028694152832
-0.361978828907012939 0.0353623069822788239 -0.161201834678649902
0.307357966899871826 -0.293454289436340332 0.0295581482350826263
-0.339201271533966064 0.213627249002456665 0.159207284450531006
-0.188136905431747437 0.200360387563705444 0.367782175540924072
-0.539972305297851562 0.254999399185180664 -0.0840919837355613708
0.522539675235748291 -0.199471637606620789 -0.09267396479845047
-0.518986403942108154 0.185510218143463135 0.136533841490745544
-0.54356694221496582 0.270133823156356812 -0.00239265081472694874
0.471034407615661621 -0.326089024543762207 0.0446285977959632874
0.288989782333374023 0.0312792211771011353 0.0537066347897052765
0.433195978403091431 -0.305975437164306641 -0.285077184438705444
-0.51859205961227417 0.0901326537132263184 -0.135053098201751709
-0.600528180599212646 0.285502344369888306 0.184046149253845215
0.467565923929214478 -0.320999085903167725 0.127429142594337463
0.467532515525817871 -0.260498940944671631 -0.293653279542922974
-0.403944790363311768 0.300720542669296265 0.142854452133178711
-0.454218238592147827 0.119543135166168213 -0.223900109529495239
0.48144453763961792 -0.311801284551620483 -0.302458405494689941
0.468113303184509277 -0.330578267574310303 -0.00298137357458472252
0.457182556390762329 -0.305228859186172485 -0.29240301251411438
0.52416461706161499 -0.261847466230392456 -0.102038510143756866
-0.408703386783599854 0.318828314542770386 0.162720918655395508
-0.560798883438110352 0.267790287733078003 0.365323096513748169
-0.576107203960418701 0.210665971040725708 -0.200748264789581299
0.447329282760620117 -0.29651370644569397 -0.223039299249649048
0.310466349124908447 -0.0759989544749259949 0.148825451731681824
0.534575939178466797 -0.248124003410339355 0.101193606853485107
-0.562569379806518555 0.119866780936717987 -0.233193576335906982
-0.408200889825820923 0.0767869353294372559 -0.116546034812927246
-0.579624354839324951 0.356531679630279541 0.0826898068189620972
0.0414390824735164642 0.114779308438301086 0.312273085117340088
-0.456707477569580078 0.00903946161270141602 0.181695103645324707
0.409366339445114136 -0.343786448240280151 0.159968867897987366
-0.554668188095092773 0.288634538650512695 -0.0491922236979007721
0.543076872825622559 -0.255784571170806885 0.113633923232555389
0.0239372216165065765 -0.249641314148902893 0.205054193735122681
0.195634201169013977 0.130293712019920349 0.0347605012357234955
0.315443754196166992 -0.370429366827011108 -0.157029107213020325
0.110654205083847046 0.0598148666322231293 0.318996220827102661
-0.314891457557678223 0.306676864624023438 0.284165114164352417
-0.254580527544021606 -0.132630228996276855 -0.0732102096080780029
-0.386602848768234253 -0.0600784160196781158 0.10644201934337616
0.453143328428268433 -0.0725446790456771851 -0.116498537361621857
0.315800637006759644 -0.332933753728866577 0.195854917168617249
0.297837197780609131 0.0384247750043869019 0.0500093735754489899
0.475812345743179321 -0.330819964408874512 0.136405661702156067
0.439735561609268188 -0.267405420541763306 -0.282270997762680054
0.461373984813690186 -0.272888869047164917 0.137959152460098267
0.503982126712799072 -0.346267253160476685 0.0174375623464584351
0.518896043300628662 -0.269435673952102661 -0.0871691033244132996
0.498678594827651978 -0.0878443494439125061 0.161778971552848816
0.542235016822814941 -0.215081840753555298 0.110814563930034637
-0.577054679393768311 0.327049881219863892 0.0804957598447799683
0.246746420860290527 0.111561223864555359 -0.0545207448303699493
0.0336226634681224823 0.0686374008655548096 0.272457033395767212
-0.562028229236602783 0.275416463613510132 0.0239999890327453613
-0.613960146903991699 0.272194266319274902 0.0386132970452308655
0.535592854022979736 -0.239067003130912781 0.102848686277866364
-0.576056838035583496 0.212844565510749817 -0.11667536199092865
-0.425114274024963379 0.0307516977190971375 -0.188528761267662048
0.30450141429901123 -0.126245021820068359 -0.10840153694152832
-0.385215669870376587 -0.0555924996733665466 0.100680910050868988
-0.603262782096862793 0.259726822376251221 0.0175068024545907974
-0.460674911737442017 0.306486457586288452 0.0812464654445648193
0.504848122596740723 -0.26380389928817749 -0.10928567498922348
0.53459244966506958 -0.19217798113822937 0.0286431498825550079
-0.616213023662567139 0.210626333951950073 -0.0560706481337547302
0.45257982611656189 -0.123367667198181152 0.0893203988671302795
0.0335603803396224976 -0.27939268946647644 -0.0358833372592926025
0.401944279670715332 -0.318623274564743042 0.130924731492996216
-0.0938858985900878906 0.0742816329002380371 0.293164521455764771
0.24324527382850647 -0.136567428708076477 0.0110476100817322731
0.161348551511764526 -0.271361351013183594 0.0438394919037818909
-0.590566158294677734 0.36932218074798584 0.0902947783470153809
0.0270836483687162399 -0.011488787829875946 0.027853105217218399
0.195859417319297791 0.0342945121228694916 0.178093805909156799
-0.30627557635307312 -0.0912429913878440857 0.305518805980682373
0.493660449981689453 -0.366689831018447876 0.0198221225291490555
0.521563053131103516 -0.311239570379257202 0.0460311584174633026
0.502623260021209717 -0.153263628482818604 0.118944287300109863
0.0808092206716537476 -0.27191576361656189 -0.0596017427742481232
-0.325534075498580933 -0.103118598461151123 0.0884250327944755554
-0.586178243160247803 0.334972172975540161 0.0186443086713552475
-0.0739690288901329041 -0.235554516315460205 0.301686137914657593
0.194315880537033081 -0.339748024940490723 -0.0623868927359580994
-0.39886009693145752 0.272210359573364258 -0.0546203851699829102
-0.521798789501190186 0.0442398972809314728 -0.0576826855540275574
-0.257830679416656494 0.142425388097763062 0.0912778601050376892
-0.213637560606002808 -0.135650739073753357 -0.0632987245917320251
0.508512020111083984 -0.10442148894071579 0.144264310598373413
0.214123278856277466 -0.279477775096893311 -0.00933744199573993683
0.23818109929561615 -0.0757986754179000854 0.126835241913795471
-0.140409454703330994 0.296788156032562256 0.147787719964981079
-0.656008243560791016 0.171585559844970703 -0.112405925989151001
0.253378212451934814 -0.00914355739951133728 0.249923676252365112
0.250219136476516724 -0.178553372621536255 0.302724450826644897
-0.263160556554794312 -0.136922255158424377 -0.0676883086562156677
-0.200782567262649536 0.314581066370010376 0.0989284366369247437
0.257709085941314697 -0.277788370847702026 0.323074162006378174
0.178884699940681458 -0.0538288913667201996 -0.0510687194764614105
-0.443392783403396606 -0.0665438026189804077 0.129130229353904724
-0.503874540328979492 0.0302287153899669647 0.247230172157287598
-0.497086137533187866 0.036625303328037262 -0.0116310073062777519
0.232693508267402649 0.023151542991399765 0.314026564359664917
-0.371477514505386353 -0.0456252321600914001 0.143399879336357117
-0.348951250314712524 0.106727682054042816 0.0659872367978096008
0.307556778192520142 -0.198524817824363708 0.242927014827728271
0.308436304330825806 -0.00519841490313410759 0.219539955258369446
-0.442760884761810303 0.266731351613998413 -0.0372467711567878723
0.517049968242645264 -0.326386481523513794 -0.0813094377517700195
-0.538782835006713867 0.138571664690971375 -0.0971272289752960205
0.465745538473129272 -0.124166660010814667 0.00194701924920082092
-0.385325163602828979 0.255505234003067017 0.0327767804265022278
0.49386131763458252 -0.301694095134735107 0.121119655668735504
0.465296357870101929 -0.105899080634117126 0.0595502220094203949
0.203800573945045471 0.0154595663771033287 -0.0422929376363754272
-0.224552854895591736 0.295970231294631958 0.158677145838737488
-0.125150769948959351 -0.0487931631505489349 0.0108606927096843719
-0.231742963194847107 0.228654518723487854 0.348169863224029541
-0.380871057510375977 -0.0541889481246471405 0.145516693592071533
0.341233909130096436 -0.0734798461198806763 0.0476564131677150726
-0.435994237661361694 -0.0121141243726015091 0.0340996682643890381
0.205460011959075928 0.0169146005064249039 0.0703565552830696106
0.0562313646078109741 -0.0856966674327850342 0.239290177822113037
-0.383955955505371094 -0.0593866296112537384 0.116622351109981537
-0.136852219700813293 -0.264708936214447021 -0.00119448639452457428
-0.243796557188034058 0.0637903958559036255 0.244853153824806213
-0.542094886302947998 0.211025595664978027 0.162834197282791138
-0.590666711330413818 0.287298262119293213 -0.00718571431934833527
0.307023078203201294 0.017927045002579689 0.0428393334150314331
0.478441417217254639 -0.314623445272445679 -0.305335670709609985
0.503700435161590576 -0.345341145992279053 -0.0637174546718597412
0.471603959798812866 -0.304906934499740601 0.115134023129940033
0.527064800262451172 -0.302710592746734619 -0.109305448830127716
-0.402819424867630005 0.311659753322601318 0.134756267070770264
0.517880916595458984 -0.251120269298553467 -0.307323604822158813
0.507553696632385254 -0.328914165496826172 -0.314685821533203125
0.518777072429656982 -0.33113861083984375 0.0916809588670730591
0.477325558662414551 -0.304091423749923706 -0.302975594997406006
0.527524113655090332 -0.285447835922241211 -0.107923150062561035
-0.559915065765380859 0.267406105995178223 0.365709036588668823
-0.640082955360412598 0.289713680744171143 0.0853032171726226807
0.371380656957626343 -0.400996506214141846 -0.21746315062046051
-0.449790060520172119 -0.000880722771398723125 0.175180137157440186
0.176535680890083313 0.0732410252094268799 0.0065985480323433876
-0.453509509563446045 0.134774759411811829 -0.213605642318725586
0.403093099594116211 -0.335633724927902222 0.129067271947860718
-0.598844647407531738 0.207515552639961243 0.000913985422812402248
0.24760003387928009 -0.114286653697490692 -0.0708138197660446167
-0.483095407485961914 0.182821258902549744 -0.210007697343826294
-0.376125752925872803 -0.0629400834441184998 0.0917498320341110229
0.522884726524353027 -0.320741862058639526 0.0359643995761871338
0.542376995086669922 -0.217148929834365845 0.10834125429391861
0.525700092315673828 -0.273297905921936035 0.0553980208933353424
0.111261382699012756 0.0843744352459907532 0.31728661060333252
-0.350882530212402344 -0.0477474778890609741 0.0450406931340694427
0.105178475379943848 0.0725182890892028809 0.295522332191467285
-0.165244728326797485 0.133271947503089905 0.151352837681770325
0.502751708030700684 -0.256274580955505371 -0.102403834462165833
0.428919047117233276 -0.303613156080245972 0.136039599776268005
-0.355722635984420776 -0.101257473230361938 0.159113749861717224
0.498619258403778076 -0.201399475336074829 -0.107874676585197449
-0.578341841697692871 0.34821733832359314 0.152259647846221924
0.105141647160053253 -0.0112543534487485886 0.0211529731750488281
-0.341213226318359375 -0.123211130499839783 0.10464998334646225
-0.12072492390871048 -0.275447249412536621 0.174131274223327637
-0.161104694008827209 0.16756024956703186 0.325205832719802856
0.514992356300354004 -0.358380794525146484 0.0268988441675901413
0.52103811502456665 -0.287359029054641724 -0.0115921935066580772
0.478893101215362549 -0.139685243368148804 0.107714474201202393
-0.180800601840019226 0.0295049343258142471 0.0259109959006309509
-0.34192851185798645 -0.121432371437549591 0.103792868554592133
-0.600047469139099121 0.376927763223648071 0.188524350523948669
-0.119720153510570526 -0.266546398401260376 0.218395248055458069
0.523443698883056641 -0.308621257543563843 -0.0746984556317329407
0.516327202320098877 -0.25193449854850769 -0.30944707989692688
0.454984873533248901 -0.308038562536239624 -0.294391900300979614
0.240681037306785583 -0.095683366060256958 0.158709540963172913
-0.620049476623535156 0.272381097078323364 0.0373051799833774567
-0.429870426654815674 -0.00361978262662887573 0.177414059638977051
-0.250365108251571655 -0.136693030595779419 -0.0710728317499160767
0.317340284585952759 -0.318736553192138672 0.122650355100631714
0.539303243160247803 -0.249473705887794495 0.106728844344615936
0.452745556831359863 -0.139501973986625671 0.0155009794980287552
0.429354637861251831 -0.320768564939498901 0.123826324939727783
0.413307785987854004 -0.330605030059814453 -0.209727242588996887
0.473835974931716919 -0.128258645534515381 0.109598472714424133
-0.548792243003845215 0.378724902868270874 0.172725602984428406
0.190575450658798218 -0.339589506387710571 -0.013266734778881073
-0.201649650931358337 -0.135206788778305054 -0.0684244930744171143
-0.185424596071243286 0.312307238578796387 0.117921613156795502
0.103453837335109711 0.10805472731590271 0.174485296010971069
-0.444233536720275879 -0.0541159100830554962 0.0919384658336639404
-0.489242076873779297 0.0302622616291046143 0.0169529207050800323
0.231463402509689331 0.0113544994965195656 0.315106034278869629
-0.0246230997145175934 0.113498546183109283 0.31251034140586853
0.243336394429206848 -0.0382995195686817169 0.204736292362213135
-0.384676128625869751 0.245523750782012939 0.0343677699565887451
-0.653884589672088623 0.216882646083831787 -0.0390977002680301666
0.48302149772644043 -0.115941300988197327 0.0235215127468109131
0.122307442128658295 0.0798422545194625854 0.138601899147033691
-0.381831705570220947 -0.0723764151334762573 0.0956990569829940796
0.319774240255355835 -0.0720409378409385681 0.0624840259552001953
-0.440533697605133057 -0.0114455865696072578 0.00694578979164361954
-0.501991093158721924 0.233854234218597412 -0.0710018351674079895
-0.547058820724487305 0.203613117337226868 -0.0683918967843055725
0.088718414306640625 0.0920225381851196289 0.0800658762454986572
-0.519691884517669678 0.204723656177520752 -0.0470514409244060516
-0.168149799108505249 0.0726951733231544495 0.232559412717819214
-0.0572676733136177063 -0.186578452587127686 0.026856621727347374
-0.212364241480827332 0.291004210710525513 0.10917460173368454
0.249750673770904541 -0.00509129976853728294 0.0224102307111024857
-0.555622458457946777 0.204550832509994507 0.118492253124713898
-0.457143604755401611 0.216625362634658813 0.0246320292353630066
-0.462417393922805786 0.266652166843414307 -0.00262648402713239193
-0.575237929821014404 0.247746109962463379 -0.0763067230582237244
-0.389151215553283691 0.275301039218902588 -0.0840534791350364685
0.343813687562942505 -0.134339109063148499 0.318952322006225586
-0.498415261507034302 0.207016676664352417 -0.0115026254206895828
-0.345794081687927246 0.293008595705032349 -0.050075143575668335
0.525991141796112061 -0.360808134078979492 0.0418035648763179779
-0.539800524711608887 0.215322926640510559 0.201202854514122009
-0.569077372550964355 0.294530630111694336 -0.00299452478066086769
0.316696614027023315 0.0240534227341413498 0.0488249808549880981
0.482059866189956665 -0.306767553091049194 -0.303643733263015747
0.479707866907119751 -0.32603299617767334 0.125416412949562073
0.523213028907775879 -0.306761056184768677 -0.0986926332116127014
0.490412861108779907 -0.310538202524185181 -0.307402372360229492
0.516222238540649414 -0.324764102697372437 0.119877979159355164
0.444593131542205811 -0.299955129623413086 -0.290632396936416626
0.523230075836181641 -0.304311454296112061 -0.0973555520176887512
0.134346574544906616 0.116682887077331543 0.337134480476379395
-0.64222186803817749 0.242743358016014099 -0.00928597245365381241
-0.29254990816116333 -0.113685354590415955 -0.10564626008272171
0.539240837097167969 -0.255215108394622803 0.0922253131866455078
0.129208043217658997 0.0978985875844955444 0.31740841269493103
-0.235168188810348511 -0.143331632018089294 -0.0713073611259460449
0.252561062574386597 0.0303505696356296539 -0.0859001874923706055
0.530969917774200439 -0.322892278432846069 0.00685007032006978989
-0.599180817604064941 0.307492882013320923 0.104649998247623444
0.532098889350891113 -0.244385376572608948 0.0865768343210220337
-0.374010950326919556 -0.0606359094381332397 0.0924094542860984802
0.526580929756164551 -0.275074899196624756 -0.123236119747161865
-0.501087665557861328 0.148930609226226807 0.353161633014678955
0.385188490152359009 -0.297358572483062744 0.131886273622512817
0.132783427834510803 -0.331773281097412109 -0.100430086255073547
0.522771120071411133 -0.354621618986129761 -0.0149147557094693184
-0.436330914497375488 0.150685444474220276 -0.0849204286932945251
0.515770792961120605 -0.299844235181808472 0.0647320076823234558
0.393138349056243896 -0.36765056848526001 -0.213679403066635132
0.500540554523468018 -0.171166211366653442 0.130078524351119995
0.533238649368286133 -0.333760470151901245 0.0284111723303794861
-0.579733669757843018 0.348981857299804688 0.0404423996806144714
0.520009100437164307 -0.240691825747489929 -0.308690130710601807
-0.600844144821166992 0.37075921893119812 0.104816868901252747
-0.500589966773986816 0.147302150726318359 0.355366140604019165
0.233988329768180847 -0.277572542428970337 0.317466586828231812
-0.181294366717338562 -0.136824607849121094 -0.055585816502571106
-0.228329285979270935 -0.137787625193595886 -0.05347471684217453
-0.204173684120178223 0.298607975244522095 0.126759052276611328
0.262538790702819824 -0.289382338523864746 0.323762178421020508
-0.362230360507965088 -0.0303294379264116287 0.119629561901092529
-0.500024020671844482 0.019603777676820755 0.0319935567677021027
0.242942154407501221 0.000432469591032713652 0.322349905967712402
0.1413678377866745 -0.290157973766326904 0.311806440353393555
0.308130711317062378 -0.207240432500839233 0.248266339302062988
-0.385983824729919434 0.255045503377914429 0.0344219468533992767
0.531112074851989746 -0.262002140283584595 0.102953881025314331
0.224164992570877075 0.023075249046087265 0.30550190806388855
0.530628740787506104 -0.147144749760627747 -0.308214724063873291
-0.644732773303985596 0.231525316834449768 -0.0473331399261951447
0.541278481483459473 -0.310697615146636963 -0.0444320477545261383
0.507845878601074219 -0.267514705657958984 -0.311472028493881226
0.514325320720672607 -0.315870434045791626 -0.295064806938171387
0.458882570266723633 -0.290633440017700195 -0.296564757823944092
-0.54294055700302124 0.26830020546913147 -0.189222514629364014
-0.621288299560546875 0.289130657911300659 0.0668266192078590393
0.363511323928833008 -0.383983135223388672 -0.20609697699546814
-0.0923998728394508362 0.267534822225570679 0.189377203583717346
-0.448325902223587036 0.131491214036941528 -0.208712220191955566
-0.575307726860046387 0.20395718514919281 -0.126962214708328247
-0.629948794841766357 0.191887930035591125 -0.0397637002170085907
-0.469625085592269897 0.139133036136627197 -0.231010466814041138
0.257778316736221313 -0.0167342387139797211 -0.0720937773585319519
0.230651021003723145 0.0542111657559871674 -0.0451681464910507202
0.113166503608226776 0.110103227198123932 0.301668941974639893
-0.583957314491271973 0.218562588095664978 -0.221324831247329712
-0.598078310489654541 0.235417485237121582 -0.0106433164328336716
-0.36698797345161438 -0.0915034487843513489 0.122882470488548279
-0.329989224672317505 -0.125126570463180542 0.137327417731285095
-0.634477436542510986 0.199804946780204773 -0.0381785444915294647
-0.425646752119064331 -0.0546832159161567688 0.09929705411195755
-0.477996289730072021 0.0203617457300424576 -0.0364714004099369049
0.208749368786811829 0.00894976034760475159 0.30088043212890625
-0.634049057960510254 0.248272120952606201 -0.00585915567353367805
-0.127957433462142944 0.270180225372314453 0.132250875234603882
0.271100699901580811 -0.329980313777923584 0.180148705840110779
0.533052504062652588 -0.209824100136756897 -0.0988635122776031494
-0.126425653696060181 -0.112375088036060333 -0.0548096075654029846
0.454190313816070557 -0.338609665632247925 -0.298081755638122559
-0.212541446089744568 0.0365139469504356384 -0.0596867762506008148
-0.553080558776855469 0.175996854901313782 0.0129033531993627548
-0.198447033762931824 0.13993564248085022 0.0211342945694923401
-0.0124870631843805313 -0.102207019925117493 -0.0429691746830940247
0.264779865741729736 -0.27457919716835022 0.202499672770500183
0.348717033863067627 -0.320776909589767456 -3.43542633345350623e-05
-0.155874431133270264 0.0701113045215606689 0.0275250338017940521
-0.249122098088264465 0.131079047918319702 -0.0344437584280967712
0.199249640107154846 0.00204702699556946754 0.0190629437565803528
0.0764752253890037537 0.081244349479675293 0.023927031084895134
-0.283312469720840454 0.288543403148651123 -0.00593421189114451408
0.47695547342300415 -0.289522856473922729 -0.301724284887313843
-0.556742250919342041 0.265969574451446533 -0.0171406585723161697
-0.237317413091659546 0.0979283601045608521 -0.0324593000113964081
0.137895539402961731 -0.280533969402313232 0.150089442729949951
0.296418219804763794 -0.297053366899490356 0.0569292642176151276
-0.28593146800994873 0.257529169321060181 0.000556693586986511946
-0.0209941677749156952 -0.0400054976344108582 0.0889861434698104858
0.204624995589256287 0.0431475266814231873 0.0656935796141624451
-0.143698737025260925 -0.084873497486114502 0.0917120575904846191
0.372583061456680298 -0.0729920640587806702 0.0315556414425373077
0.521358251571655273 -0.198757871985435486 -0.0985561907291412354
0.487098604440689087 -0.297526955604553223 -0.305377602577209473
0.480430752038955688 -0.314491003751754761 0.122311055660247803
0.513592123985290527 -0.306871354579925537 -0.102442286908626556
0.496020644903182983 -0.309162169694900513 -0.309742599725723267
0.506153285503387451 -0.327496886253356934 -0.00415198039263486862
0.511724233627319336 -0.324199199676513672 0.118341535329818726
0.465884983539581299 -0.288421213626861572 -0.296580970287322998
0.437993228435516357 -0.263099312782287598 -0.194325819611549377
0.135154128074645996 0.117330186069011688 0.337050259113311768
0.396531224250793457 -0.243960320949554443 0.318809211254119873
-0.601511716842651367 0.354521423578262329 0.0656932070851325989
-0.505123615264892578 0.357428580522537231 0.178429320454597473
0.54261314868927002 -0.282173186540603638 0.0978951156139373779
0.256505012512207031 0.0373146049678325653 -0.0721001625061035156
-0.233128055930137634 0.156285285949707031 -0.00529900752007961273
0.506143689155578613 -0.331664830446243286 -0.00257429759949445724
0.444800615310668945 -0.249687492847442627 -0.228044196963310242
-0.639063358306884766 0.254760175943374634 0.0547141917049884796
0.532590746879577637 -0.262338310480117798 0.0932118669152259827
-0.393190741539001465 -0.0590094625949859619 0.100474230945110321
0.523891210556030273 -0.289333492517471313 -0.0921389386057853699
0.0279932431876659393 -0.273876190185546875 -0.0353462547063827515
0.385154515504837036 -0.305696189403533936 0.118808828294277191
-0.582203924655914307 0.367070436477661133 0.131872996687889099
0.240269705653190613 0.0033649092074483633 0.181122362613677979
-0.113065510988235474 0.165880158543586731 0.347535610198974609
0.482168853282928467 -0.368036538362503052 -0.0220955982804298401
0.412233233451843262 -0.32084617018699646 -0.211063548922538757
0.507266402244567871 -0.155128523707389832 0.123992040753364563
0.528791308403015137 -0.334394723176956177 0.0127824703231453896
-0.584135890007019043 0.336665481328964233 0.0342656373977661133
-0.590778529644012451 0.382166236639022827 0.131433531641960144
0.526300609111785889 -0.24405255913734436 -0.310664355754852295
0.474424421787261963 -0.290443539619445801 -0.29947701096534729
-0.597256898880004883 0.353955119848251343 0.169832959771156311
-0.587358593940734863 0.371702760457992554 0.101285450160503387
-0.212141871452331543 -0.129295125603675842 -0.0577034056186676025
0.234316930174827576 -0.29267042875289917 0.315035909414291382
0.238066539168357849 0.0675721466541290283 0.320091396570205688
0.541833937168121338 -0.313538581132888794 -0.0581535734236240387
-0.44479060173034668 -0.0481385551393032074 0.127141669392585754
0.359550416469573975 -0.388062238693237305 -0.20904114842414856
-0.556584417819976807 0.211422935128211975 -0.113538958132266998
0.520800590515136719 -0.279246419668197632 -0.177152380347251892
0.241922631859779358 0.0352155975997447968 0.314571976661682129
0.242810428142547607 0.000894961878657341003 0.0236393753439188004
0.380710750818252563 0.0393394231796264648 0.0118809044361114502
0.526773214340209961 -0.230347767472267151 -0.310171186923980713
0.327033281326293945 0.096691131591796875 -0.0359337963163852692
-0.374313086271286011 -0.0600234381854534149 -0.132877618074417114
0.512888312339782715 -0.167132169008255005 0.135886684060096741
-0.574514150619506836 0.322272390127182007 0.0496307015419006348
-0.55909430980682373 0.283719956874847412 0.364249557256698608
0.224483862519264221 0.0324140936136245728 -0.0582223273813724518
-0.57434457540512085 0.214880332350730896 -0.220963612198829651
-0.0443130657076835632 0.157013669610023499 0.0811923220753669739
0.114118099212646484 0.110529899597167969 0.0254257526248693466
0.342741161584854126 -0.24662742018699646 -0.0969168990850448608
-0.285104274749755859 0.300743162631988525 -0.00281694508157670498
0.15333731472492218 -0.00392890209332108498 -0.00359576335176825523
0.0690690577030181885 0.139308363199234009 0.0756423994898796082
-0.270099610090255737 0.280503571033477783 0.00170288723893463612
0.503340840339660645 -0.292292624711990356 -0.159392654895782471
0.136997058987617493 -0.0253635253757238388 0.0130921788513660431
-0.339129388332366943 -0.0317148007452487946 0.0228203386068344116
0.373392999172210693 -0.0913905352354049683 0.0442700870335102081
0.199980437755584717 0.101748935878276825 -0.00184408761560916901
-0.297368347644805908 -0.0247344076633453369 0.0359474383294582367
0.131802499294281006 -0.0173612441867589951 -0.0261181425303220749
0.101420752704143524 0.0165200959891080856 0.091204911470413208
0.175709038972854614 0.119855321943759918 0.0380109436810016632
-0.230614498257637024 -0.063352629542350769 0.104663588106632233
0.486082345247268677 -0.296389251947402954 -0.303606599569320679
-0.603241503238677979 0.289779037237167358 0.18528340756893158
0.467154890298843384 -0.308366477489471436 0.120068512856960297
0.378274768590927124 -0.0139785129576921463 0.00636697281152009964
0.514341175556182861 -0.295003145933151245 -0.103534944355487823
0.518842339515686035 -0.239439293742179871 -0.307672113180160522
0.47791820764541626 -0.309457004070281982 -0.300360739231109619
0.483386963605880737 -0.274234592914581299 -0.299990594387054443
0.117213994264602661 0.11922774463891983 0.297613710165023804
-0.584212541580200195 0.35658729076385498 0.0659091323614120483
0.383702605962753296 -0.336993187665939331 0.12550295889377594
-0.574481487274169922 0.317930132150650024 -0.0264702457934617996
-0.604472815990447998 0.21738259494304657 -0.0868201181292533875
0.267776519060134888 0.039712224155664444 -0.08629588782787323
-0.356481641530990601 -0.0219223592430353165 -0.131171375513076782
-0.564291000366210938 0.314564645290374756 -0.00782789476215839386
0.190639838576316833 -0.340526849031448364 -0.0748240202665328979
0.404162824153900146 -0.357344120740890503 -0.22411520779132843
-0.500338971614837646 0.145886227488517761 0.354709863662719727
0.509569048881530762 -0.15108935534954071 0.114962637424468994
0.496850848197937012 -0.263643652200698853 -0.304469555616378784
0.457970798015594482 -0.280592232942581177 -0.28982996940612793
0.440938472747802734 -0.264668107032775879 -0.283784300088882446
-0.588028967380523682 0.357690632343292236 0.0618231929838657379
0.505177557468414307 -0.126400202512741089 0.12438434362411499
-0.206269785761833191 0.312764644622802734 0.108742460608482361
0.26812821626663208 -0.283693403005599976 0.319220125675201416
0.232541769742965698 0.00397238507866859436 0.317873358726501465
0.513254761695861816 -0.175362110137939453 -0.281835258007049561
-0.115264937281608582 0.0102488500997424126 0.0058668539859354496
0.403894752264022827 -0.359373390674591064 -0.22473849356174469
0.417578458786010742 -0.312918931245803833 0.143759652972221375
-0.555519819259643555 0.376726150512695312 0.186894536018371582
-0.175690576434135437 0.309447705745697021 0.11842067539691925
-0.389746904373168945 0.276272445917129517 -0.0850546658039093018
0.365276932716369629 0.0522775165736675262 0.0245870742946863174
0.129182413220405579 0.116121552884578705 0.318845540285110474
-0.286589771509170532 -0.100369468331336975 -0.0921147167682647705
0.258162945508956909 0.101349912583827972 -0.0620669052004814148
-0.361324787139892578 -0.0595808215439319611 -0.144144102931022644
0.134132087230682373 0.114081598818302155 0.337793976068496704
-0.563114702701568604 0.199537694454193115 -0.228946477174758911
-0.276425838470458984 0.288272351026535034 -0.000931753485929220915
0.454893648624420166 -0.246156543493270874 -0.288371562957763672
0.460234731435775757 -0.275122910737991333 -0.29089692234992981
-0.634893953800201416 0.308400064706802368 0.17049764096736908
0.512462496757507324 -0.317164182662963867 -0.0386249721050262451
0.468941479921340942 -0.265521645545959473 -0.298024088144302368
0.47815212607383728 -0.294746577739715576 -0.30030098557472229
0.458150476217269897 -0.245940566062927246 -0.289942920207977295
0.38113093376159668 -0.360707491636276245 -0.213929295539855957
-0.479498863220214844 -0.0122949937358498573 0.185910195112228394
-0.516494154930114746 0.365999907255172729 0.17413465678691864
-0.618558704853057861 0.202273830771446228 -0.0870781168341636658
-0.237341433763504028 0.0190983433276414871 -0.0725837573409080505
-0.382649719715118408 -0.0587908811867237091 0.0237157810479402542
0.474847137928009033 -0.368024736642837524 0.0217794422060251236
-0.649283230304718018 0.237001404166221619 0.0323410928249359131
0.412587285041809082 -0.346440047025680542 -0.221712276339530945
0.526035070419311523 -0.336829841136932373 0.0800393223762512207
0.506039083003997803 -0.238738119602203369 -0.308133691549301147
0.2494850754737854 -0.28187832236289978 0.318275779485702515
0.239221960306167603 0.067002907395362854 0.314635694026947021
0.539552211761474609 -0.301536887884140015 -0.0937145277857780457
-0.447943836450576782 -0.0411403141915798187 0.126575395464897156
-0.043884672224521637 0.104871645569801331 0.317797362804412842
0.24797464907169342 0.0214590653777122498 0.322203278541564941
-0.284912914037704468 -0.0995009839534759521 -0.0991311520338058472
-0.137789472937583923 -0.0147813130170106888 -0.0488520637154579163
-0.277883648872375488 0.338123053312301636 0.0469902902841567993
-0.254722476005554199 0.290179252624511719 -0.00325504317879676819
-0.218924492597579956 0.32217329740524292 0.0698370188474655151
-0.573272407054901123 0.152511119842529297 -0.0744104459881782532
-0.289958536624908447 0.292973041534423828 0.0160280335694551468
0.5256081223487854 -0.320343971252441406 0.0271448846906423569
0.346143513917922974 -0.0300863515585660934 -0.0345070809125900269
0.522220730781555176 -0.362595915794372559 0.0893767848610877991
-0.083351433277130127 -0.111504778265953064 0.0784454196691513062
-0.403985947370529175 0.326289474964141846 0.121262639760971069
0.504742026329040527 -0.366762697696685791 -0.00451870961114764214
-0.118734642863273621 0.266436666250228882 0.120937414467334747
0.518704354763031006 -0.342639446258544922 0.0358170457184314728
0.130213335156440735 -0.334341287612915039 0.301274240016937256
0.466607034206390381 -0.310715705156326294 0.0724399387836456299
0.482847273349761963 -0.373685330152511597 0.0523059628903865814
0.421110868453979492 -0.0256269145756959915 0.0648402422666549683
0.494137585163116455 -0.363221228122711182 -0.0155686009675264359
-0.232980892062187195 0.28744739294052124 0.0841269046068191528
0.531204462051391602 -0.331448644399642944 -0.00725965667515993118
-0.271970391273498535 0.315674394369125366 0.113965004682540894
0.308286070823669434 0.00301450095139443874 0.0462771356105804443
0.467423707246780396 -0.263129264116287231 -0.296095728874206543
0.473799049854278564 -0.303986310958862305 0.114219240844249725
0.511163711547851562 -0.313336074352264404 -0.104430809617042542
0.509186863899230957 -0.245087876915931702 -0.30845215916633606
0.447952926158905029 -0.292226552963256836 -0.292785346508026123
0.466387540102005005 -0.28299066424369812 -0.297304660081863403
