ply
format ascii 1.0
element vertex 738
property float x
property float y
property float z
end_header
-0.20079466700553894 0.313958585262298584 0.0990799069404602051
0.25786241888999939 -0.278265684843063354 0.323316246271133423
0.178961753845214844 -0.0543396212160587311 -0.050653994083404541
-0.443430900573730469 -0.0670892372727394104 0.129119113087654114
-0.503920614719390869 0.0296447146683931351 0.247180178761482239
-0.497182995080947876 0.036076325923204422 -0.0116494698449969292
0.232794597744941711 0.0225645918399095535 0.31436428427696228
-0.371483534574508667 -0.0461938232183456421 0.143431499600410461
-0.348986059427261353 0.106105156242847443 0.0660763755440711975
0.307670921087265015 -0.199017494916915894 0.243260756134986877
0.308502525091171265 -0.00576104922220110893 0.219946593046188354
-0.44286772608757019 0.266130596399307251 -0.0372245609760284424
0.517007350921630859 -0.326784193515777588 -0.0808522924780845642
-0.538906455039978027 0.138032883405685425 -0.0971599742770195007
0.465727418661117554 -0.124666236340999603 0.00246672541834414005
-0.385401725769042969 0.254877239465713501 0.0328344069421291351
0.493863880634307861 -0.302132606506347656 0.121552899479866028
0.465280801057815552 -0.106409445405006409 0.0600576549768447876
0.203859671950340271 0.014910554513335228 -0.0418533459305763245
-0.22455286979675293 0.295334428548812866 0.158801332116127014
-0.125065580010414124 -0.0493292585015296936 0.011067553423345089
-0.231683239340782166 0.227969825267791748 0.348272979259490967
-0.380879521369934082 -0.0547525547444820404 0.145540535449981689
0.341271936893463135 -0.0739991068840026855 0.048123486340045929
-0.436057984828948975 -0.0126697653904557228 0.034117087721824646
0.205530509352684021 0.0163522716611623764 0.0707654207944869995
0.0563951879739761353 -0.0862545669078826904 0.239515691995620728
-0.38397294282913208 -0.0599414035677909851 0.116651445627212524
-0.136740371584892273 -0.265160530805587769 -0.00104813103098422289
-0.243718385696411133 0.0631402581930160522 0.24494636058807373
-0.542193233966827393 0.210440099239349365 0.162770777940750122
-0.590814590454101562 0.286769837141036987 -0.00728022260591387749
0.307055383920669556 0.0173628795892000198 0.043306201696395874
0.478380709886550903 -0.314985185861587524 -0.30487215518951416
0.50366896390914917 -0.345737993717193604 -0.0632681101560592651
0.471617817878723145 -0.305345356464385986 0.115567497909069061
0.527011692523956299 -0.303109467029571533 -0.108838297426700592
-0.402902305126190186 0.311036735773086548 0.134763896465301514
0.517796814441680908 -0.251498401165008545 -0.306844592094421387
0.507476389408111572 -0.329269438982009888 -0.314238011837005615
0.518759071826934814 -0.331561803817749023 0.0921102315187454224
0.477265119552612305 -0.30445629358291626 -0.302503615617752075
0.527470231056213379 -0.285852134227752686 -0.107448555529117584
-0.559989750385284424 0.266812384128570557 0.365650177001953125
-0.640227138996124268 0.289202451705932617 0.0851724147796630859
0.37139621376991272 -0.401348382234573364 -0.217041298747062683
-0.44983556866645813 -0.00146540324203670025 0.175164833664894104
0.176595240831375122 0.0726547911763191223 0.00702307140454649925
-0.453634291887283325 0.134228408336639404 -0.213575512170791626
0.403150558471679688 -0.336064904928207397 0.129458770155906677
-0.598975718021392822 0.206984370946884155 0.000833396392408758402
0.247665703296661377 -0.114764072000980377 -0.0703646391630172729
-0.483231037855148315 0.182267174124717712 -0.209998354315757751
-0.376144617795944214 -0.0634888336062431335 0.0917899012565612793
0.522852897644042969 -0.321159541606903076 0.0364098958671092987
0.542340457439422607 -0.217604175209999084 0.108810737729072571
0.525667190551757812 -0.273731350898742676 0.0558591000735759735
0.111382767558097839 0.0837487503886222839 0.317569583654403687
-0.350899338722229004 -0.0482964441180229187 0.0451120324432849884
0.105306096374988556 0.0718928948044776917 0.295805156230926514
-0.165176406502723694 0.132629618048667908 0.151532784104347229
0.502712011337280273 -0.256691098213195801 -0.101913109421730042
0.428962618112564087 -0.304055452346801758 0.136448830366134644
-0.355706334114074707 -0.101803570985794067 0.159137770533561707
0.498578876256942749 -0.201837852597236633 -0.107360057532787323
-0.57847827672958374 0.347671747207641602 0.152147293090820312
0.105235584080219269 -0.0118024451658129692 0.0215071309357881546
-0.341200858354568481 -0.123737350106239319 0.104694917798042297
-0.120567783713340759 -0.275931686162948608 0.174218013882637024
-0.161003261804580688 0.166878551244735718 0.325344353914260864
0.514965713024139404 -0.358788788318634033 0.0273305848240852356
0.52099841833114624 -0.287779450416564941 -0.01112324558198452
0.478882700204849243 -0.140181198716163635 0.108202934265136719
-0.180747926235198975 0.0289249010384082794 0.0261034797877073288
-0.341917037963867188 -0.121959112584590912 0.103838086128234863
-0.60018622875213623 0.376392841339111328 0.188394829630851746
-0.119553893804550171 -0.267041385173797607 0.218467861413955688
0.523397266864776611 -0.309024661779403687 -0.0742347761988639832
0.516243636608123779 -0.252311974763870239 -0.30896836519241333
0.454938292503356934 -0.308404535055160522 -0.293921440839767456
0.240779772400856018 -0.0962004736065864563 0.15907818078994751
-0.620190858840942383 0.271861135959625244 0.0371991395950317383
-0.429904252290725708 -0.00420689303427934647 0.177410006523132324
-0.250332534313201904 -0.137174785137176514 -0.0709366127848625183
0.317432582378387451 -0.319167554378509521 0.123011216521263123
0.539270877838134766 -0.249919280409812927 0.107185959815979004
0.452737152576446533 -0.139992654323577881 0.0160078965127468109
0.429396092891693115 -0.321203917264938354 0.124234527349472046
0.413301795721054077 -0.330979079008102417 -0.209266781806945801
0.473826855421066284 -0.128760054707527161 0.1100892573595047
-0.548929393291473389 0.378169655799865723 0.172615796327590942
0.190681278705596924 -0.33998909592628479 -0.012926952913403511
-0.201592281460762024 -0.135687947273254395 -0.0682604759931564331
-0.185426905751228333 0.311682283878326416 0.118076905608177185
0.103551916778087616 0.107433140277862549 0.174813717603683472
-0.444282799959182739 -0.0546606145799160004 0.0919360220432281494
-0.48933333158493042 0.0297067053616046906 0.0169356074184179306
0.231568947434425354 0.0107709597796201706 0.315439343452453613
-0.0244857873767614365 0.112842924892902374 0.312715411186218262
0.243432313203811646 -0.0388493910431861877 0.205103367567062378
-0.384750157594680786 0.244894653558731079 0.0344277285039424896
-0.6540260910987854 0.216387823224067688 -0.0392008461058139801
0.482994377613067627 -0.116446428000926971 0.0240408442914485931
0.122398532927036285 0.0792387723922729492 0.138948351144790649
-0.381852000951766968 -0.0729205310344696045 0.0957330837845802307
0.319822460412979126 -0.0725601539015769958 0.0629372596740722656
-0.440604478120803833 -0.0119972843676805496 0.00696257362142205238
-0.502112925052642822 0.233281061053276062 -0.0710142329335212708
-0.547186493873596191 0.20306435227394104 -0.0684328973293304443
0.0888063982129096985 0.0914140269160270691 0.0804168581962585449
-0.519811451435089111 0.20415535569190979 -0.0470751337707042694
-0.168042466044425964 0.0720471963286399841 0.232699170708656311
-0.0571418255567550659 -0.187052354216575623 0.027067229151725769
-0.212369933724403381 0.290373712778091431 0.109324179589748383
0.24980597198009491 -0.00563972024247050285 0.0228533037006855011
-0.555732190608978271 0.203976914286613464 0.118424840271472931
-0.457239836454391479 0.216012060642242432 0.0246446095407009125
-0.462527573108673096 0.266045600175857544 -0.00262425676919519901
-0.575378775596618652 0.247216954827308655 -0.0763728618621826172
-0.389242827892303467 0.274688988924026489 -0.083983592689037323
0.343907535076141357 -0.134858444333076477 0.319300562143325806
-0.498526483774185181 0.206424981355667114 -0.0115135479718446732
-0.345872968435287476 0.292398363351821899 -0.0499794520437717438
0.525960028171539307 -0.361216068267822266 0.0422302670776844025
-0.539891481399536133 0.214731365442276001 0.201139360666275024
-0.569229602813720703 0.293990254402160645 -0.00309039070270955563
0.31672435998916626 0.0234854351729154587 0.0492950603365898132
0.481997042894363403 -0.307131469249725342 -0.3031749427318573
0.479721933603286743 -0.32646632194519043 0.12583497166633606
0.523163735866546631 -0.307160764932632446 -0.0982266664505004883
0.490345209836959839 -0.31090015172958374 -0.30693933367729187
0.516212701797485352 -0.325193613767623901 0.120301105082035065
0.444552600383758545 -0.300324052572250366 -0.290158659219741821
0.523180842399597168 -0.304712116718292236 -0.0968884825706481934
0.134448662400245667 0.116057507693767548 0.337432533502578735
-0.642364025115966797 0.242239668965339661 -0.0093910563737154007
-0.292548924684524536 -0.114165030419826508 -0.105518646538257599
0.539205253124237061 -0.25565648078918457 0.0926847681403160095
0.129318743944168091 0.0972747430205345154 0.317704617977142334
-0.235126540064811707 -0.143810704350471497 -0.0711647868156433105
0.252599924802780151 0.0297981351613998413 -0.0854246169328689575
0.530928254127502441 -0.323304116725921631 0.00729907583445310593
-0.599319934844970703 0.306957244873046875 0.104537889361381531
0.532066285610198975 -0.244831129908561707 0.0870412811636924744
-0.374028950929641724 -0.0611861459910869598 0.0924510732293128967
0.526525259017944336 -0.275480180978775024 -0.122757308185100555
-0.501127362251281738 0.148307338356971741 0.35313713550567627
0.385252773761749268 -0.297800838947296143 0.132284447550773621
0.132888436317443848 -0.332157433032989502 -0.100110374391078949
0.52273327112197876 -0.355023235082626343 -0.0144762247800827026
-0.436425298452377319 0.150094419717788696 -0.084873586893081665
0.515747249126434326 -0.30027240514755249 0.065181247889995575
0.393144220113754272 -0.368013113737106323 -0.21323472261428833
0.500527381896972656 -0.171648979187011719 0.130553707480430603
0.533199608325958252 -0.334172457456588745 0.0288513470441102982
-0.57988739013671875 0.348451524972915649 0.0403383262455463409
0.519923388957977295 -0.241073057055473328 -0.30820813775062561
-0.6009979248046875 0.370235025882720947 0.104689255356788635
-0.500628948211669922 0.146678715944290161 0.355342090129852295
0.234147444367408752 -0.278049468994140625 0.317696541547775269
-0.181226089596748352 -0.137307614088058472 -0.0554135963320732117
-0.228282883763313293 -0.138273105025291443 -0.0533288940787315369
-0.204175263643264771 0.297977745532989502 0.126904979348182678
0.262692242860794067 -0.289855509996414185 0.324002683162689209
-0.362241774797439575 -0.0309018734842538834 0.119676537811756134
-0.50011444091796875 0.0190550684928894043 0.0319664143025875092
0.243046417832374573 -0.000145921687362715602 0.322684615850448608
0.141549810767173767 -0.29063299298286438 0.311977624893188477
0.308247298002243042 -0.207731381058692932 0.248594656586647034
-0.386060386896133423 0.254417538642883301 0.0344787314534187317
0.531084418296813965 -0.26244431734085083 0.103407911956310272
0.224269643425941467 0.0224870741367340088 0.305837154388427734
0.530533313751220703 -0.147566154599189758 -0.30770525336265564
-0.644876420497894287 0.23102724552154541 -0.0474336966872215271
0.54122459888458252 -0.311104059219360352 -0.0439745858311653137
0.507766783237457275 -0.267887234687805176 -0.310996681451797485
0.51424717903137207 -0.316232383251190186 -0.294609159231185913
0.458832263946533203 -0.291003584861755371 -0.296081721782684326
-0.543098807334899902 0.267779141664505005 -0.189270451664924622
-0.621430456638336182 0.288609236478805542 0.0667124167084693909
0.363533318042755127 -0.384340256452560425 -0.205663517117500305
-0.0923445597290992737 0.266900807619094849 0.189572647213935852
-0.448447585105895996 0.130942314863204956 -0.208677381277084351
-0.575448751449584961 0.203436717391014099 -0.127018973231315613
-0.63008493185043335 0.191382616758346558 -0.0398549176752567291
-0.46975979208946228 0.138597846031188965 -0.230995744466781616
0.257825851440429688 -0.0172640793025493622 -0.0716243907809257507
0.230694487690925598 0.0536417067050933838 -0.0447088964283466339
0.113279059529304504 0.109471790492534637 0.301962405443191528
-0.584122598171234131 0.218072801828384399 -0.221393823623657227
-0.59821474552154541 0.234889224171638489 -0.0107263149693608284
-0.366990208625793457 -0.0920454338192939758 0.1229139044880867
-0.329961687326431274 -0.125659734010696411 0.13736763596534729
-0.634614825248718262 0.199301421642303467 -0.0382725894451141357
-0.425686687231063843 -0.055231872946023941 0.0993049070239067078
-0.478088587522506714 0.0198163073509931564 -0.0364749729633331299
0.208868294954299927 0.00836182106286287308 0.301203489303588867
-0.634191155433654785 0.247764155268669128 -0.00596227729693055153
-0.127925977110862732 0.269547551870346069 0.132443279027938843
0.271227508783340454 -0.33041718602180481 0.180448010563850403
0.532993435859680176 -0.210256427526473999 -0.0983602553606033325
-0.126340240240097046 -0.112864300608634949 -0.0546042658388614655
0.454145133495330811 -0.338967502117156982 -0.297628521919250488
-0.212516635656356812 0.0359499938786029816 -0.0594921410083770752
-0.553198933601379395 0.175437018275260925 0.0128510929644107819
-0.198420792818069458 0.139313369989395142 0.0213368702679872513
-0.0123790297657251358 -0.102697305381298065 -0.0426994115114212036
0.264913171529769897 -0.275038659572601318 0.202801838517189026
0.348774105310440063 -0.321190416812896729 0.000391501846024766564
-0.155817776918411255 0.069514155387878418 0.0277371462434530258
-0.249124631285667419 0.130469933152198792 -0.0342586524784564972
0.199318975210189819 0.00149545248132199049 0.0194876249879598618
0.076556473970413208 0.0806494578719139099 0.0242795106023550034
-0.283358097076416016 0.287911713123321533 -0.00577143765985965729
0.476894229650497437 -0.289891749620437622 -0.301239430904388428
-0.556879818439483643 0.265421479940414429 -0.0172077883034944534
-0.237309277057647705 0.0973299741744995117 -0.0322714969515800476
0.138043910264968872 -0.2809867262840271 0.15034058690071106
0.29650232195854187 -0.297478854656219482 0.0573184378445148468
-0.285971373319625854 0.256902813911437988 0.000701831595506519079
-0.0208733584731817245 -0.0405606366693973541 0.0892341285943984985
0.204689353704452515 0.0425727739930152893 0.0661071985960006714
-0.14359670877456665 -0.0854140669107437134 0.0918836072087287903
0.372606396675109863 -0.0735131576657295227 0.0320411622524261475
0.521305263042449951 -0.199196770787239075 -0.0980469435453414917
0.487032234668731689 -0.297892779111862183 -0.304904699325561523
0.480442583560943604 -0.314927041530609131 0.122736468911170959
0.513548135757446289 -0.307270854711532593 -0.101974040269851685
0.49594956636428833 -0.309523791074752808 -0.309280902147293091
0.506126284599304199 -0.327908992767333984 -0.00370046310126781464
0.511717081069946289 -0.324629157781600952 0.118765451014041901
0.46583026647567749 -0.288791626691818237 -0.296091318130493164
0.437974601984024048 -0.263498067855834961 -0.19383472204208374
0.135255724191665649 0.116704888641834259 0.33734893798828125
0.396627724170684814 -0.244452178478240967 0.319142311811447144
-0.601665914058685303 0.35399898886680603 0.0655753761529922485
-0.505243778228759766 0.35684579610824585 0.178354337811470032
0.5425758957862854 -0.282604604959487915 0.098345637321472168
0.256542384624481201 0.0367560125887393951 -0.0716247111558914185
-0.233123481273651123 0.155663132667541504 -0.00510807288810610771
0.506117045879364014 -0.332076102495193481 -0.00212495448067784309
0.444770932197570801 -0.250085294246673584 -0.22754986584186554
-0.639201521873474121 0.25424608588218689 0.0546012967824935913
0.532559812068939209 -0.262778639793395996 0.0936686545610427856
-0.393216043710708618 -0.0595603473484516144 0.100501865148544312
0.523841679096221924 -0.289739459753036499 -0.091665513813495636
0.028120625764131546 -0.274297237396240234 -0.0350912176072597504
0.385216236114501953 -0.306133270263671875 0.119211547076702118
-0.582349717617034912 0.366532981395721436 0.131754398345947266
0.240352198481559753 0.00279904389753937721 0.181508466601371765
-0.112950526177883148 0.165203273296356201 0.34769710898399353
0.48215639591217041 -0.368438780307769775 -0.021654818207025528
0.412227123975753784 -0.321222543716430664 -0.210598766803741455
0.507245123386383057 -0.155616506934165955 0.12447395920753479
0.528752505779266357 -0.334804832935333252 0.0132255321368575096
-0.584287703037261963 0.3361358642578125 0.0341632217168807983
-0.590928077697753906 0.381634742021560669 0.131310433149337769
0.526211261749267578 -0.244431570172309875 -0.310185611248016357
0.474364697933197021 -0.290812581777572632 -0.298989355564117432
-0.597393333911895752 0.353417038917541504 0.16971096396446228
-0.587516367435455322 0.371175915002822876 0.101153053343296051
-0.212089374661445618 -0.129781916737556458 -0.0575452074408531189
0.234477207064628601 -0.293141454458236694 0.315261512994766235
0.238150238990783691 0.0669741407036781311 0.320442080497741699
0.541778624057769775 -0.313942104578018188 -0.0576966777443885803
-0.44483339786529541 -0.0486915670335292816 0.12713254988193512
0.359572649002075195 -0.388417512178421021 -0.208613529801368713
-0.556720912456512451 0.210888385772705078 -0.113584622740745544
0.520739436149597168 -0.279640823602676392 -0.176673367619514465
0.242015868425369263 0.0346264243125915527 0.314918100833892822
0.242866873741149902 0.000343645981047302485 0.0240795351564884186
0.380704879760742188 0.0387581214308738708 0.0123868798837065697
0.526683270931243896 -0.230731621384620667 -0.309687286615371704
0.327036052942276001 0.0960915461182594299 -0.0354298613965511322
-0.374366998672485352 -0.0605226233601570129 -0.132802873849868774
0.512868344783782959 -0.167615592479705811 0.136361479759216309
-0.574659526348114014 0.321733266115188599 0.0495345853269100189
-0.559172391891479492 0.283127158880233765 0.364186704158782959
0.224532529711723328 0.0318581424653530121 -0.0577663928270339966
-0.574507772922515869 0.214384973049163818 -0.221025511622428894
-0.0442384108901023865 0.156384870409965515 0.0814594179391860962
0.114186778664588928 0.109924808144569397 0.0258069057017564774
0.342783063650131226 -0.24704606831073761 -0.0964488983154296875
-0.285156190395355225 0.300122857093811035 -0.0026766627561300993
0.15341632068157196 -0.00447432836517691612 -0.00319949421100318432
0.0691447779536247253 0.138688132166862488 0.0759806036949157715
-0.270138949155807495 0.279877692461013794 0.00185995944775640965
0.503293752670288086 -0.292687147855758667 -0.158915609121322632
0.137085691094398499 -0.0259012021124362946 0.0134677011519670486
-0.339146941900253296 -0.0322680436074733734 0.0229083709418773651
0.373420536518096924 -0.0919028371572494507 0.0447501465678215027
0.200028643012046814 0.101144999265670776 -0.00138691789470613003
-0.297362983226776123 -0.0252935029566287994 0.0360616110265254974
0.131885960698127747 -0.0178960449993610382 -0.0257351510226726532
0.101523637771606445 0.0159448683261871338 0.0915480554103851318
0.175761401653289795 0.119249455630779266 0.0384268388152122498
-0.230552494525909424 -0.0639082714915275574 0.104788430035114288
0.486016690731048584 -0.296755760908126831 -0.303131580352783203
-0.603362619876861572 0.289232641458511353 0.18517051637172699
0.467173159122467041 -0.30880466103553772 0.12049584835767746
0.378282904624938965 -0.0145356077700853348 0.00686587858945131302
0.514296174049377441 -0.295405834913253784 -0.103061258792877197
0.518757402896881104 -0.239821314811706543 -0.30718916654586792
0.477858275175094604 -0.309821009635925293 -0.29989197850227356
0.483322471380233765 -0.274608433246612549 -0.299503415822982788
0.117320902645587921 0.118596948683261871 0.29791182279586792
-0.584366321563720703 0.356057584285736084 0.0657964423298835754
0.383768677711486816 -0.337422668933868408 0.125888466835021973
-0.574633240699768066 0.317400425672531128 -0.0265567097812891006
-0.604614198207855225 0.216870278120040894 -0.0868974179029464722
0.267809092998504639 0.0391534417867660522 -0.0858116596937179565
-0.356532871723175049 -0.0224433615803718567 -0.131076022982597351
-0.564439833164215088 0.314026325941085815 -0.00791167840361595154
0.190738394856452942 -0.340914428234100342 -0.0744713097810745239
0.404159724712371826 -0.35770842432975769 -0.22366778552532196
-0.50037771463394165 0.145262941718101501 0.35468563437461853
0.509543955326080322 -0.151578053832054138 0.115449003875255585
0.496778756380081177 -0.264019638299942017 -0.303987979888916016
0.457921743392944336 -0.280966699123382568 -0.289340287446975708
0.44089999794960022 -0.265049517154693604 -0.283297240734100342
-0.588183581829071045 0.357163220643997192 0.0617099478840827942
0.505152046680450439 -0.126901015639305115 0.124874018132686615
-0.206280961632728577 0.312140345573425293 0.108888328075408936
0.268279790878295898 -0.284168064594268799 0.319467246532440186
0.232649132609367371 0.00339143653400242329 0.318204373121261597
0.513174831867218018 -0.175777748227119446 -0.281323403120040894
-0.115185476839542389 0.00968524999916553497 0.00609125616028904915
0.40389174222946167 -0.359737098217010498 -0.224292010068893433
0.417630851268768311 -0.313359558582305908 0.144157856702804565
-0.555660545825958252 0.376176685094833374 0.186762541532516479
-0.175688877701759338 0.308822363615036011 0.118581973016262054
-0.389838874340057373 0.275660157203674316 -0.0849853157997131348
0.365275979042053223 0.0516913644969463348 0.0250864885747432709
0.129286423325538635 0.115494817495346069 0.319144695997238159
-0.286584764719009399 -0.100843653082847595 -0.0919368788599967957
0.258188039064407349 0.100758232176303864 -0.0615844987332820892
-0.361375033855438232 -0.060077473521232605 -0.14405977725982666
0.134235203266143799 0.113456562161445618 0.338091343641281128
-0.563276469707489014 0.199039742350578308 -0.229000717401504517
-0.276468634605407715 0.2876414954662323 -0.000768106547184288502
0.454846411943435669 -0.24654369056224823 -0.287878483533859253
0.46018412709236145 -0.275498926639556885 -0.290406018495559692
-0.635024189949035645 0.307873070240020752 0.170370250940322876
0.512427091598510742 -0.317572504281997681 -0.0381663814187049866
0.468885064125061035 -0.265899360179901123 -0.297534823417663574
0.478090763092041016 -0.295114278793334961 -0.299818992614746094
0.458101242780685425 -0.246327430009841919 -0.289449870586395264
0.381141722202301025 -0.361070901155471802 -0.213484048843383789
-0.479560047388076782 -0.0128759387880563736 0.185873493552207947
-0.516619682312011719 0.365424752235412598 0.174052178859710693
-0.61869966983795166 0.201770022511482239 -0.0871619731187820435
-0.237327441573143005 0.0185446683317422867 -0.0724034160375595093
-0.382683873176574707 -0.0593288876116275787 0.0237687360495328903
0.47484511137008667 -0.368435084819793701 0.0222140531986951828
-0.649420976638793945 0.236494332551956177 0.0322305671870708466
0.412579864263534546 -0.346807956695556641 -0.22125948965549469
0.52601015567779541 -0.337248951196670532 0.0804687812924385071
0.505961000919342041 -0.239121437072753906 -0.307647407054901123
0.249640688300132751 -0.282353579998016357 0.318513244390487671
0.239305421710014343 0.066405080258846283 0.314988374710083008
0.539493381977081299 -0.301937729120254517 -0.0932493433356285095
-0.447989612817764282 -0.0416957847774028778 0.126565292477607727
-0.0437438972294330597 0.104214638471603394 0.317987442016601562
0.248070389032363892 0.0208745189011096954 0.322546899318695068
-0.284908473491668701 -0.0999749079346656799 -0.0989552587270736694
-0.137724235653877258 -0.0153190819546580315 -0.048633430153131485
-0.277940273284912109 0.337511360645294189 0.047100752592086792
-0.254760771989822388 0.28956151008605957 -0.00309851253405213356
-0.218951046466827393 0.321556597948074341 0.0699819847941398621
-0.573400318622589111 0.151984125375747681 -0.0744666680693626404
-0.290007919073104858 0.292348980903625488 0.0161609891802072525
0.525573074817657471 -0.320760160684585571 0.0275920797139406204
0.346163958311080933 -0.030622510239481926 -0.0340121053159236908
0.522201001644134521 -0.363010317087173462 0.0897942483425140381
-0.0832277461886405945 -0.112026624381542206 0.0786488503217697144
-0.404075533151626587 0.325672328472137451 0.121268205344676971
0.504717707633972168 -0.367165893316268921 -0.00408257404342293739
-0.118702098727226257 0.265805065631866455 0.121138952672481537
0.518676221370697021 -0.343052059412002563 0.0362533070147037506
0.13039785623550415 -0.334798514842987061 0.301427572965621948
0.466614991426467896 -0.311146438121795654 0.0728820338845252991
0.482846051454544067 -0.374096214771270752 0.0527279116213321686
0.421103090047836304 -0.0261777956038713455 0.065341658890247345
0.494118362665176392 -0.363624691963195801 -0.0151280509307980537
-0.232998058199882507 0.286819428205490112 0.0842704251408576965
0.531161248683929443 -0.331856250762939453 -0.00681285839527845383
-0.272005796432495117 0.315048366785049438 0.11406688392162323
0.308321386575698853 0.00245758006349205971 0.0467415042221546173
0.467368453741073608 -0.263508260250091553 -0.295605957508087158
0.473811328411102295 -0.304424822330474854 0.114654451608657837
0.511121153831481934 -0.313733518123626709 -0.103965148329734802
0.50910717248916626 -0.245468586683273315 -0.307969033718109131
0.447909742593765259 -0.29259723424911499 -0.292307019233703613
0.46633225679397583 -0.28336256742477417 -0.296813458204269409
0.138467282056808472 0.11257646232843399 0.337034076452255249
-0.652270376682281494 0.285475373268127441 0.0980064049363136292
-0.638449907302856445 0.244572147727012634 -0.0381901189684867859
0.136458501219749451 0.0690703317523002625 0.338148295879364014
-0.577230870723724365 0.303526729345321655 -0.0555510036647319794
0.262589514255523682 0.0303356144577264786 -0.0730264186859130859
0.541896283626556396 -0.216836541891098022 0.112007893621921539
-0.360166400671005249 -0.0360776223242282867 -0.134259551763534546
-0.574875175952911377 0.32720521092414856 -0.0295665618032217026
-0.361859381198883057 -0.0712497755885124207 -0.0339305102825164795
-0.130518689751625061 -0.267833560705184937 0.119167305529117584
0.495089530944824219 -0.365920275449752808 3.54118237737566233e-05
0.373836427927017212 -0.359468698501586914 -0.209651276469230652
-0.378471136093139648 -0.107236579060554504 0.10133758932352066
-0.0670010745525360107 -0.264258861541748047 0.296565026044845581
0.519780635833740234 -0.243423312902450562 -0.308990001678466797
0.509411096572875977 -0.330661237239837646 0.0156852677464485168
-0.593498349189758301 0.368710458278656006 0.120570451021194458
-0.655510783195495605 0.175436720252037048 -0.103008709847927094
-0.223038375377655029 -0.144419953227043152 -0.0536345541477203369
-0.191273048520088196 0.31632763147354126 0.100851647555828094
0.256741881370544434 -0.283643335103988647 0.319950908422470093
0.239281564950942993 0.0320565961301326752 0.319451600313186646
-0.120065651834011078 -0.04633307084441185 0.00746873300522565842
-0.641705691814422607 0.308394193649291992 0.101867489516735077
0.364728450775146484 -0.374011516571044922 -0.206573262810707092
0.537694215774536133 -0.217860862612724304 0.162280991673469543
-0.552880525588989258 0.382171720266342163 0.157962217926979065
-0.122484587132930756 0.259021371603012085 0.115272313356399536
0.119567342102527618 0.102275975048542023 0.0897647887468338013
-0.375505357980728149 0.265507638454437256 -0.0895141288638114929
0.516838610172271729 -0.34916156530380249 0.0991641134023666382
-0.293583810329437256 -0.107444532215595245 -0.109228447079658508
0.275095969438552856 0.102811366319656372 -0.0572161227464675903
-0.575240790843963623 0.219291195273399353 -0.212619081139564514
-0.115518547594547272 0.268303155899047852 0.179941803216934204
0.236101463437080383 -0.288126289844512939 0.314624011516571045
0.310237109661102295 -0.187463819980621338 0.241365894675254822
0.541683793067932129 -0.325942069292068481 -0.0205083061009645462
0.0790826156735420227 -0.337905079126358032 0.282349228858947754
-0.00632183253765106201 -0.172037988901138306 0.00444350903853774071
-0.282292664051055908 0.261407285928726196 0.00714116403833031654
0.513038277626037598 -0.237194061279296875 -0.308982521295547485
-0.647067725658416748 0.278023511171340942 0.0795428678393363953
-0.646441221237182617 0.182944402098655701 -0.0908561274409294128
0.514044106006622314 -0.322622150182723999 0.024697938933968544
-0.407034099102020264 -0.0639574527740478516 0.113538347184658051
0.516762197017669678 -0.355806052684783936 -0.0202219914644956589
-0.566695868968963623 0.374051451683044434 0.152468889951705933
0.236036837100982666 0.0428665652871131897 0.314000308513641357
-0.664944469928741455 0.226897820830345154 0.0231140684336423874
-0.448197871446609497 -0.0387983061373233795 0.127074554562568665
0.502932071685791016 -0.302366018295288086 -0.178446158766746521
-0.589243710041046143 0.360772281885147095 0.0860731527209281921
-0.194114580750465393 0.314600497484207153 0.104967467486858368
0.24705389142036438 0.0237772278487682343 0.324140489101409912
0.530838906764984131 -0.323903739452362061 -0.0576688423752784729
-0.182857170701026917 0.306704580783843994 0.128582656383514404
0.24730294942855835 0.00685586035251617432 0.324268937110900879
0.0587669163942337036 0.139428675174713135 0.345939159393310547
-0.505803585052490234 0.14906562864780426 0.356887131929397583
0.270794868469238281 -0.311388403177261353 0.326493978500366211
-0.253766685724258423 0.0232752524316310883 -0.0706224739551544189
0.241148442029953003 -0.295438885688781738 0.32272610068321228
0.249084025621414185 0.0436548441648483276 0.314736545085906982
0.468350797891616821 -0.102076172828674316 0.0350814796984195709
-0.124723814427852631 0.194832026958465576 0.115550108253955841
0.240040794014930725 -0.326758205890655518 0.318168669939041138
0.500201523303985596 -0.366700351238250732 0.0750378891825675964
0.523367941379547119 -0.324827015399932861 0.0266142748296260834
0.444623500108718872 -0.253402352333068848 0.332703053951263428
0.321556597948074341 -0.131553441286087036 -0.106244266033172607
0.0635001137852668762 -0.0109591847285628319 0.321874022483825684
0.511243820190429688 -0.361000746488571167 0.0479017756879329681
0.135807424783706665 -0.100834287703037262 0.0408092625439167023
0.0496647283434867859 0.0113692423328757286 0.0299565698951482773
0.020916081964969635 0.0480392538011074066 0.0428054854273796082
0.0882701650261878967 -0.066255912184715271 0.289820075035095215
-0.162073597311973572 -0.265938431024551392 0.148038014769554138
0.265059798955917358 -0.0203003138303756714 0.0619185455143451691
-0.0287865195423364639 -0.0292630903422832489 0.295675307512283325
0.502115428447723389 -0.240437626838684082 -0.301565706729888916
0.475897669792175293 -0.315053641796112061 -0.301530063152313232
-0.63100355863571167 0.306021600961685181 0.167355149984359741
0.475454896688461304 -0.320942670106887817 0.121408291161060333
0.509032785892486572 -0.300960034132003784 -0.105121515691280365
0.528142213821411133 -0.27501407265663147 -0.316761314868927002
0.49350014328956604 -0.332523435354232788 -0.310292422771453857
0.503475606441497803 -0.320262223482131958 0.0984093770384788513
0.474144309759140015 -0.305886775255203247 -0.297676175832748413
-0.559407532215118408 0.267776995897293091 0.364514201879501343
0.1251516193151474 0.116625010967254639 0.314444005489349365
-0.633652865886688232 0.2819843590259552 0.0542811378836631775
-0.587431907653808594 0.362525731325149536 0.102409385144710541
0.371563225984573364 -0.374164044857025146 -0.212348267436027527
0.43848341703414917 -0.348121613264083862 0.154709562659263611
0.0582621470093727112 0.121059708297252655 0.321316033601760864
-0.574643433094024658 0.368528276681900024 0.215521201491355896
0.264847010374069214 0.0244456212967634201 -0.0582320988178253174
0.368871062994003296 -0.336941242218017578 0.160969451069831848
0.510474443435668945 -0.301679670810699463 -0.111570708453655243
0.133779972791671753 -0.320779860019683838 -0.0975267291069030762
0.516540348529815674 -0.348931461572647095 -0.0198761504143476486
0.389342725276947021 -0.346894323825836182 -0.213693335652351379
-0.577083408832550049 0.31879696249961853 0.0407916940748691559
0.535953521728515625 -0.277985513210296631 -0.320167899131774902
0.467860639095306396 -0.31102260947227478 -0.298816680908203125
0.507169663906097412 -0.34727206826210022 0.0183424260467290878
-0.555970609188079834 0.309427410364151001 0.102256953716278076
0.194048047065734863 -0.339533209800720215 -0.0588794685900211334
0.0702777877449989319 -0.282436728477478027 -0.0776848569512367249
0.252614825963973999 -0.250499963760375977 0.32042229175567627
0.240076184272766113 0.0306995660066604614 0.317230194807052612
-0.120927214622497559 -0.0481320135295391083 0.00832211319357156754
0.178942099213600159 -0.100377827882766724 -0.0144544066861271858
0.532421886920928955 -0.332462579011917114 -0.0127517431974411011
0.370427310466766357 -0.349619150161743164 -0.208479583263397217
0.534955799579620361 -0.246024131774902344 0.177680954337120056
0.561068058013916016 -0.315941810607910156 -0.330519974231719971
0.55450749397277832 -0.211905822157859802 0.134355932474136353
-0.543341398239135742 0.380467742681503296 0.164502426981925964
0.123061731457710266 0.116927348077297211 0.133428037166595459
-0.582310497760772705 0.35164332389831543 0.0978046134114265442
-0.481611460447311401 0.18557506799697876 -0.0914698317646980286
0.515619456768035889 -0.339349269866943359 0.0392474904656410217
0.25362318754196167 -0.279419630765914917 0.322234243154525757
0.278655409812927246 -0.356129974126815796 -0.125706091523170471
0.507880866527557373 -0.286792188882827759 -0.313234031200408936
-0.43217933177947998 -0.0576358363032341003 0.116756677627563477
0.20215393602848053 0.0902365744113922119 0.223696678876876831
0.244448006153106689 0.104308858513832092 -0.0568017587065696716
-0.19561450183391571 0.201141238212585449 0.349396288394927979
0.250634372234344482 0.0246651526540517807 0.323667287826538086
0.239998087286949158 0.0187562722712755203 0.321351677179336548
-0.0312764756381511688 0.162365123629570007 0.382823407649993896
-0.48255389928817749 -0.0160823334008455276 0.180226936936378479
0.483843088150024414 -0.369264304637908936 0.0464844591915607452
-0.643589556217193604 0.286835998296737671 0.086257442831993103
0.276115447282791138 -0.166025310754776001 -0.0700788199901580811
-0.41183936595916748 -0.0573046542704105377 0.0789822116494178772
-0.643098890781402588 0.175406679511070251 -0.0819404944777488708
-0.225879251956939697 -0.134316310286521912 -0.0520918816328048706
0.255125582218170166 -0.265831828117370605 0.321401238441467285
-0.345338821411132812 0.0168992411345243454 -0.116794340312480927
-0.287099450826644897 -0.0919571220874786377 -0.106382474303245544
-0.58514249324798584 0.209509164094924927 -0.217927560210227966
0.2677803635597229 -0.297286033630371094 0.31547844409942627
-0.0254339184612035751 -0.18758857250213623 -0.0432667769491672516
-0.618130624294281006 0.276618927717208862 0.0314612090587615967
-0.608907461166381836 0.297930747270584106 0.0925296992063522339
-0.397572875022888184 -0.063310667872428894 0.118960514664649963
-0.451736360788345337 -0.0386265814304351807 0.119558557868003845
0.431212902069091797 -0.272031724452972412 0.329569131135940552
-0.0522793158888816833 0.140453323721885681 0.0919470787048339844
-0.503068804740905762 0.150688454508781433 0.355502873659133911
0.241001173853874207 -0.319583237171173096 0.323068439960479736
0.497213780879974365 -0.371087402105331421 0.0578000955283641815
0.399427115917205811 -0.257151573896408081 0.322840988636016846
-0.158218309283256531 -0.263926774263381958 0.181667879223823547
-0.499223291873931885 0.0135778803378343582 0.158154308795928955
0.41770443320274353 -0.297659873962402344 0.329105615615844727
0.535344421863555908 -0.340452402830123901 -0.0179848242551088333
0.344436705112457275 -0.267645895481109619 -0.127406030893325806
-0.496521055698394775 0.0715234056115150452 0.204053685069084167
0.443747252225875854 -0.272476851940155029 0.333799153566360474
0.522093474864959717 -0.335663825273513794 0.0332516655325889587
0.453435570001602173 -0.320156097412109375 -0.292564332485198975
0.474333912134170532 -0.31195405125617981 0.117152482271194458
0.517254114151000977 -0.278683006763458252 -0.312344580888748169
0.502703726291656494 -0.326209485530853271 -0.313857376575469971
0.518189430236816406 -0.327389717102050781 0.102367639541625977
0.479372292757034302 -0.311689674854278564 -0.301698654890060425
0.114754490554332733 0.118227206170558929 0.289300858974456787
-0.121835246682167053 0.268243134021759033 0.158960640430450439
-0.614880800247192383 0.265089958906173706 0.0521634668111801147
-0.479442328214645386 0.0025743523146957159 0.181404948234558105
0.42682880163192749 -0.355314165353775024 0.158984258770942688
-0.292279601097106934 -0.111027978360652924 -0.105653271079063416
0.13071092963218689 0.0651484057307243347 0.321511209011077881
0.253916114568710327 0.0383637584745883942 -0.0773455500602722168
0.235677391290664673 0.0935370326042175293 -0.0526320450007915497
0.417792290449142456 -0.261819362640380859 -0.201865673065185547
0.52174830436706543 -0.354930669069290161 -0.0190049260854721069
-0.608953237533569336 0.380715936422348022 0.181288346648216248
0.517605125904083252 -0.279583543539047241 -0.314267605543136597
0.499199241399765015 -0.350282043218612671 0.0245336871594190598
-0.587916851043701172 0.368898063898086548 0.113093152642250061
0.506045043468475342 -0.105027757585048676 0.147776424884796143
-0.197974100708961487 0.311133027076721191 0.113082624971866608
0.264229416847229004 -0.28687441349029541 0.320067286491394043
0.237105205655097961 0.0618025995790958405 0.310897499322891235
-0.144381940364837646 -0.0438830815255641937 0.00437882542610168457
-0.65784984827041626 0.214308500289916992 -0.0461036227643489838
-0.288562893867492676 -0.0764162018895149231 -0.0684866756200790405
0.227443426847457886 0.0418366827070713043 -0.0477192029356956482
0.551581919193267822 -0.14479219913482666 0.1325216144323349
0.519828200340270996 -0.295655012130737305 0.0753556638956069946
0.517630457878112793 -0.284345120191574097 -0.180705532431602478
-0.358073502779006958 -0.0175760909914970398 -0.0278320368379354477
0.0916943922638893127 0.0878542885184288025 0.0861067622900009155
0.466742932796478271 -0.36217460036277771 -0.0102121587842702866
-0.432951003313064575 0.157257020473480225 -0.066374167799949646
0.523859202861785889 -0.335936009883880615 0.0693470165133476257
0.263089746236801147 -0.286243438720703125 0.318790286779403687
0.00954032596200704575 -0.0913230925798416138 -0.0258600097149610519
0.0327304266393184662 -0.13072243332862854 0.0221226196736097336
-0.630794346332550049 0.264610797166824341 0.0291252676397562027
0.242303699254989624 0.0739707276225090027 0.319169044494628906
0.240383744239807129 0.0292246304452419281 0.319242894649505615
-0.174757525324821472 0.300419598817825317 0.116472281515598297
0.304795742034912109 -0.151610463857650757 0.308153212070465088
0.262123972177505493 -0.291044801473617554 0.321273177862167358
-0.476260274648666382 -0.00868034083396196365 0.166285350918769836
0.2429380863904953 0.0814075618982315063 0.312530457973480225
0.520286023616790771 -0.35158964991569519 0.0823752433061599731
-0.0347508490085601807 -0.237972483038902283 0.12425684928894043
-0.638403832912445068 0.289612740278244019 0.0988838747143745422
-0.234199121594429016 -0.133291721343994141 -0.0578799284994602203
-0.379317164421081543 -0.109316185116767883 0.105603918433189392
-0.236410528421401978 -0.148314565420150757 -0.0577325709164142609
-0.658062100410461426 0.214002490043640137 -0.0338084399700164795
0.528918445110321045 -0.352922916412353516 0.0783170238137245178
-0.621239423751831055 0.269868552684783936 0.0525589734315872192
-0.404196172952651978 -0.0648537054657936096 0.112133555114269257
-0.446393907070159912 -0.0420142784714698792 0.122063502669334412
0.268190383911132812 -0.285935819149017334 0.323753088712692261
0.127816185355186462 -0.326957553625106812 0.312758535146713257
0.152472138404846191 -0.343441188335418701 0.318042576313018799
0.447769880294799805 -0.335914969444274902 -0.292544692754745483
0.515774548053741455 -0.303258955478668213 -0.107492685317993164
0.515227854251861572 -0.280554324388504028 -0.312363177537918091
0.484881997108459473 -0.327973335981369019 -0.309337854385375977
0.464373737573623657 -0.346179783344268799 -0.302218526601791382
0.549567818641662598 -0.210531055927276611 -0.315497279167175293
0.524088263511657715 -0.30034172534942627 -0.322023600339889526
0.517957746982574463 -0.30115172266960144 -0.317918628454208374
0.247025683522224426 0.05669432133436203 0.316763371229171753
0.241505935788154602 0.0871597975492477417 0.313097566366195679
-0.29172748327255249 -0.101035997271537781 -0.101774543523788452
-0.453654706478118896 -0.052493557333946228 0.117155462503433228
0.404895424842834473 -0.272572576999664307 0.322882592678070068
-0.502484977245330811 0.00327205820940434933 0.189191073179244995
0.401190578937530518 -0.287551432847976685 0.325191795825958252
0.399339199066162109 -0.273868203163146973 0.323675364255905151
0.342373013496398926 -0.2592507004737854 0.0905203893780708313
-0.0186463482677936554 -0.244759976863861084 0.12883467972278595
-0.464571982622146606 0.0354696400463581085 0.189621880650520325
-0.194348320364952087 0.221134811639785767 0.172205254435539246
0.366958022117614746 -0.329548090696334839 -0.0230854153633117676
0.323529690504074097 -0.390370070934295654 -0.158485457301139832
0.535429239273071289 -0.323912203311920166 -0.057770855724811554
-0.441828429698944092 -0.00524324784055352211 0.152775466442108154
-0.0189723540097475052 -0.0598876215517520905 0.141946345567703247
-8.72939781402237713e-05 -0.2364845871925354 0.106574021279811859
0.526212453842163086 -0.202089756727218628 -0.0795379281044006348
0.449824064970016479 -0.308599591255187988 -0.292417079210281372
0.526815116405487061 -0.275716334581375122 -0.315216034650802612
0.499900907278060913 -0.325158894062042236 -0.312226206064224243
0.47522309422492981 -0.305316388607025146 -0.296928048133850098
-0.127396658062934875 0.246205851435661316 0.139152154326438904
-0.649111390113830566 0.281648218631744385 0.094268210232257843
-0.19892372190952301 0.286195576190948486 0.336010217666625977
0.498030334711074829 -0.0870428606867790222 0.137151375412940979
0.200903236865997314 -0.359448671340942383 -0.090497136116027832
0.505434095859527588 -0.367951095104217529 -0.0222650747746229172
0.527278542518615723 -0.242968499660491943 0.173387259244918823
-0.586069881916046143 0.378928035497665405 0.17067331075668335
0.445045530796051025 -0.315192312002182007 -0.28729584813117981
0.498605966567993164 -0.111400030553340912 0.112667210400104523
-0.655889570713043213 0.175120800733566284 -0.103705801069736481
-0.201949000358581543 0.308330178260803223 0.0893032848834991455
0.201499089598655701 -0.0139317326247692108 0.295580416917800903
0.160205855965614319 -0.0624636709690093994 -0.0436878427863121033
-0.579644083976745605 0.301835507154464722 0.36871984601020813
0.275194734334945679 0.0980477333068847656 -0.0286479387432336807
-0.435322731733322144 0.154961913824081421 -0.0858970507979393005
0.534448564052581787 -0.333320498466491699 0.0131879877299070358
-0.568857192993164062 0.196957916021347046 -0.229011639952659607
-0.49772489070892334 0.0445750653743743896 -0.0867552682757377625
0.0315945334732532501 -0.10432879626750946 0.0332792699337005615
0.534063339233398438 -0.264757424592971802 -0.315859287977218628
0.00991257466375827789 0.197295531630516052 0.0278791524469852448
0.30229613184928894 0.0385728329420089722 -0.0839917510747909546
-0.332171440124511719 -0.0164082664996385574 -0.10755736380815506
0.236661002039909363 0.0141135025769472122 0.32215350866317749
0.125263869762420654 0.0126413833349943161 0.299230068922042847
0.527537047863006592 -0.355439722537994385 0.0667650699615478516
0.467119485139846802 -0.310093045234680176 -0.232662022113800049
-0.652092039585113525 0.284989416599273682 0.10437331348657608
0.54660189151763916 -0.220247626304626465 0.16395646333694458
0.528049767017364502 -0.323643505573272705 -0.0155926542356610298
-0.383005887269973755 -0.0568412505090236664 0.0763256251811981201
0.456940203905105591 -0.311081826686859131 -0.2921142578125
0.504975199699401855 -0.340082049369812012 -0.317469507455825806
0.478841662406921387 -0.314565449953079224 -0.299058884382247925
0.520363688468933105 -0.301557064056396484 -0.316883623600006104
-0.00209483853541314602 -0.140305712819099426 -0.024553302675485611
0.39767417311668396 -0.273426294326782227 0.323849916458129883
0.401342481374740601 -0.27185329794883728 0.324156671762466431
0.506142377853393555 -0.332246124744415283 0.106293290853500366
-0.467568188905715942 0.0420094430446624756 0.170738577842712402
0.410171210765838623 -0.346133589744567871 0.157003819942474365
-0.360779732465744019 -0.0356844663619995117 -0.147962331771850586
-0.128051817417144775 -0.268070816993713379 0.112532585859298706
0.512647569179534912 -0.369290530681610107 -0.0142112057656049728
-0.213575899600982666 0.312126994132995605 0.0978260040283203125
0.250795125961303711 -0.287388324737548828 0.323204845190048218
0.20916314423084259 0.00913572777062654495 -0.0456679053604602814
0.0701948478817939758 -0.151812195777893066 -0.0169255826622247696
-0.169597998261451721 0.304374009370803833 0.119036391377449036
0.471193432807922363 -0.364592760801315308 0.0075120232068002224
-0.290847092866897583 -0.0998262390494346619 -0.103030972182750702
0.0366806387901306152 -0.14998076856136322 -0.0214132387191057205
0.232404202222824097 0.0559199824929237366 0.309578031301498413
0.25360107421875 -0.288949161767959595 0.320988506078720093
-0.471675843000411987 0.000709408894181251526 0.168750673532485962
0.241218805313110352 0.0623763352632522583 0.313483208417892456
0.509028613567352295 -0.352279394865036011 0.0644180998206138611
0.227634012699127197 -0.315099030733108521 0.314867943525314331
-0.37531319260597229 -0.0935766696929931641 0.0862922072410583496
-0.0624863021075725555 -0.241980671882629395 0.302688807249069214
-0.222543284296989441 -0.128028735518455505 -0.0529343001544475555
-0.40981486439704895 -0.0658661648631095886 0.0986278876662254333
-0.444937050342559814 -0.045137409120798111 0.13283500075340271
0.239191457629203796 -0.294333845376968384 0.314753979444503784
0.154143363237380981 -0.324647486209869385 0.32036060094833374
0.425463974475860596 -0.256338417530059814 0.32901427149772644
0.438330113887786865 -0.343140244483947754 -0.292201876640319824
0.506392836570739746 -0.334784239530563354 -0.317612737417221069
0.445176243782043457 -0.352488130331039429 -0.286260932683944702
0.238485515117645264 0.0654386654496192932 0.312761306762695312
0.403416574001312256 -0.287780165672302246 0.326316475868225098
-0.494705140590667725 0.00629965169355273247 0.188476473093032837
0.485885769128799438 -0.0634795054793357849 0.132285147905349731
0.0127974031493067741 -0.171026885509490967 0.0101266168057918549
0.531629443168640137 -0.307845354080200195 -0.0617293156683444977
0.315015941858291626 -0.302476733922958374 -0.126363128423690796
0.44601064920425415 -0.291531890630722046 -0.28514564037322998
-0.336713433265686035 0.22425369918346405 0.125868231058120728
-0.400729864835739136 -0.0285706445574760437 -0.00176332460250705481
0.403326988220214844 -0.271996110677719116 0.324540585279464722
-0.133023008704185486 0.195405334234237671 0.167978942394256592
0.399379044771194458 -0.27193295955657959 0.32435259222984314
-0.446403145790100098 -0.0253431033343076706 0.0215435381978750229
