ply
format ascii 1.0
element vertex 738
property float x
property float y
property float z
end_header
-0.225221231579780579 0.295707076787948608 0.158482819795608521
-0.125842899084091187 -0.0489389151334762573 0.0107361609116196632
-0.232331380248069763 0.228421226143836975 0.348012208938598633
-0.381476819515228271 -0.0542106777429580688 0.145301371812820435
0.340472906827926636 -0.0739098116755485535 0.0475050024688243866
-0.43664202094078064 -0.0121690155938267708 0.0338421277701854706
0.204659819602966309 0.016501549631357193 0.0702156424522399902
0.0555398315191268921 -0.0858881101012229919 0.239140138030052185
-0.38457295298576355 -0.0594031549990177155 0.116408936679363251
-0.137501373887062073 -0.264662653207778931 -0.00130274111870676279
-0.244385585188865662 0.0636330842971801758 0.244677871465682983
-0.542718291282653809 0.210837259888648987 0.162480950355529785
-0.59135282039642334 0.287056505680084229 -0.00766398804262280464
0.306241512298583984 0.0174384471029043198 0.0426796264946460724
0.477737694978713989 -0.314886718988418579 -0.305486142635345459
0.502994894981384277 -0.345603644847869873 -0.0638634264469146729
0.470912158489227295 -0.305202603340148926 0.114981353282928467
0.526370823383331299 -0.302988499402999878 -0.109446845948696136
-0.403492331504821777 0.311452686786651611 0.134478121995925903
0.517197668552398682 -0.25141376256942749 -0.307480722665786743
0.506854653358459473 -0.329161614179611206 -0.314848542213439941
0.51808619499206543 -0.331412315368652344 0.0915253087878227234
0.476624220609664917 -0.304362267255783081 -0.303122431039810181
0.526832818984985352 -0.285736829042434692 -0.108062170445919037
-0.560471653938293457 0.267201334238052368 0.365399539470672607
-0.640740096569061279 0.289488345384597778 0.0848171189427375793
0.370631247758865356 -0.401204109191894531 -0.217598095536231995
-0.450393587350845337 -0.000933929986786097288 0.174921348690986633
0.175739780068397522 0.0727890431880950928 0.00646618148311972618
-0.454211324453353882 0.134610235691070557 -0.213964506983757019
0.402384400367736816 -0.335893094539642334 0.128902345895767212
-0.599511265754699707 0.20730869472026825 0.000460422481410205364
0.24682953953742981 -0.114620909094810486 -0.0709184035658836365
-0.483798861503601074 0.182625278830528259 -0.210403308272361755
-0.376752018928527832 -0.0629539638757705688 0.0915435180068016052
0.522188425064086914 -0.321020901203155518 0.0358153395354747772
0.541697025299072266 -0.217490971088409424 0.108194559812545776
0.525009691715240479 -0.27360612154006958 0.0552535243332386017
0.110530033707618713 0.0840567275881767273 0.317137658596038818
-0.351524561643600464 -0.0477837957441806793 0.0448447279632091522
0.104441180825233459 0.0722037032246589661 0.295376747846603394
-0.165908128023147583 0.133024215698242188 0.151200667023658752
0.502057552337646484 -0.256589144468307495 -0.102536015212535858
0.428220152854919434 -0.303897827863693237 0.135878190398216248
-0.356312096118927002 -0.101246386766433716 0.158911451697349548
0.497930675745010376 -0.201758280396461487 -0.108004167675971985
-0.578990638256072998 0.347993224859237671 0.151836127042770386
0.104351885616779327 -0.0115812281146645546 0.0210405997931957245
-0.341821968555450439 -0.123186886310577393 0.104463383555412292
-0.121311783790588379 -0.275422096252441406 0.173966154456138611
-0.16170908510684967 0.167319044470787048 0.325057923793792725
0.514290392398834229 -0.358640909194946289 0.0267435889691114426
0.520343363285064697 -0.287657797336578369 -0.0117320138961076736
0.478192329406738281 -0.140098363161087036 0.10756199061870575
-0.181479007005691528 0.0293224398046731949 0.0257661398500204086
-0.342538028955459595 -0.121409110724925995 0.103606097400188446
-0.600684225559234619 0.376700758934020996 0.188090890645980835
-0.120280571281909943 -0.266536593437194824 0.21821218729019165
0.522747337818145752 -0.308900117874145508 -0.0748399943113327026
0.515643656253814697 -0.252227634191513062 -0.309604167938232422
0.454275071620941162 -0.308308959007263184 -0.294533967971801758
0.239921689033508301 -0.0960039123892784119 0.158554062247276306
-0.620717406272888184 0.272158205509185791 0.0368301980197429657
-0.430472105741500854 -0.00367297069169580936 0.177167519927024841
-0.251020550727844238 -0.136681839823722839 -0.0712145045399665833
0.316614627838134766 -0.318960428237915039 0.122493289411067963
0.538622200489044189 -0.249793559312820435 0.106580525636672974
0.452034652233123779 -0.139921560883522034 0.0153587581589818001
0.428652256727218628 -0.321044474840164185 0.123665563762187958
0.412577509880065918 -0.330860823392868042 -0.209856167435646057
0.473132163286209106 -0.128681913018226624 0.109444357454776764
-0.549442648887634277 0.378502637147903442 0.172320559620857239
0.189820513129234314 -0.339705377817153931 -0.0133594144135713577
-0.202312275767326355 -0.135220959782600403 -0.0685511529445648193
-0.186110123991966248 0.312012583017349243 0.117723360657691956
0.1026730015873909 0.107678480446338654 0.17434971034526825
-0.444857746362686157 -0.0541346967220306396 0.0916872993111610413
-0.489895820617675781 0.0301736518740653992 0.0166397541761398315
0.230727672576904297 0.0110011454671621323 0.314919263124465942
-0.0252968985587358475 0.113225288689136505 0.312370419502258301
0.242574095726013184 -0.0386569760739803314 0.204567179083824158
-0.385358750820159912 0.24530424177646637 0.0341056771576404572
-0.654557883739471436 0.216680824756622314 -0.0396006107330322266
0.482318729162216187 -0.116388633847236633 0.0233745686709880829
0.121524997055530548 0.0794585198163986206 0.138463243842124939
-0.382456094026565552 -0.0723780840635299683 0.0954932421445846558
0.319006472826004028 -0.0724569261074066162 0.062333330512046814
-0.441188514232635498 -0.0115010626614093781 0.00668194564059376717
-0.502681076526641846 0.233634203672409058 -0.071388833224773407
-0.547740161418914795 0.203404173254966736 -0.0688167065382003784
0.0879279077053070068 0.0916251838207244873 0.0799371823668479919
-0.520372629165649414 0.204517751932144165 -0.0474423877894878387
-0.168771445751190186 0.0724929645657539368 0.232402786612510681
-0.0579554326832294464 -0.186632111668586731 0.0267573632299900055
-0.213045850396156311 0.290720134973526001 0.108979150652885437
0.248959004878997803 -0.00552610121667385101 0.0222701579332351685
-0.556258201599121094 0.204353824257850647 0.118115261197090149
-0.457818657159805298 0.21642071008682251 0.0243174172937870026
-0.463110089302062988 0.266425907611846924 -0.00296414154581725597
-0.575925230979919434 0.247517064213752747 -0.0767721906304359436
-0.38985404372215271 0.275053143501281738 -0.0843422040343284607
0.343129992485046387 -0.134666845202445984 0.318749725818634033
-0.499092817306518555 0.20681135356426239 -0.0118617797270417213
-0.346495866775512695 0.292755573987960815 -0.0503439344465732574
0.525291800498962402 -0.361064046621322632 0.0416460409760475159
-0.540410935878753662 0.215138047933578491 0.200862199068069458
-0.569773316383361816 0.29426729679107666 -0.00347245018929243088
0.315918087959289551 0.0235560405999422073 0.0486614778637886047
0.481359034776687622 -0.307035595178604126 -0.303792804479598999
0.479018270969390869 -0.326312482357025146 0.12525668740272522
0.522517561912536621 -0.30703851580619812 -0.0988336428999900818
0.48971325159072876 -0.310801416635513306 -0.307555615901947021
0.515537619590759277 -0.325040817260742188 0.119719475507736206
0.443881034851074219 -0.300230532884597778 -0.290770918130874634
0.522534966468811035 -0.304590582847595215 -0.0974960997700691223
0.133612662553787231 0.116342939436435699 0.336981207132339478
-0.642893970012664795 0.242529541254043579 -0.00978272128850221634
-0.293212831020355225 -0.113665096461772919 -0.105803154408931732
0.538557469844818115 -0.255531370639801025 0.09207867830991745
0.128470867872238159 0.0975640565156936646 0.317256361246109009
-0.235823839902877808 -0.143322423100471497 -0.071443602442741394
0.251783400774002075 0.0298782233148813248 -0.086039029061794281
0.530272960662841797 -0.323167264461517334 0.00670229829847812653
-0.599836885929107666 0.307264924049377441 0.104203499853610992
0.5314139723777771 -0.244711354374885559 0.0864309892058372498
-0.374637305736541748 -0.0606525726616382599 0.0922035500407218933
0.525890231132507324 -0.275369346141815186 -0.123375147581100464
-0.50163578987121582 0.148794770240783691 0.352900654077529907
0.384475857019424438 -0.297634869813919067 0.131725579500198364
0.132033601403236389 -0.331839621067047119 -0.100498214364051819
0.522068440914154053 -0.354879885911941528 -0.0150671117007732391
-0.437014758586883545 0.15050584077835083 -0.085229143500328064
0.515078186988830566 -0.300137758255004883 0.064584389328956604
0.392395079135894775 -0.367883563041687012 -0.21380963921546936
0.499852478504180908 -0.171549364924430847 0.129926547408103943
0.53254169225692749 -0.334029346704483032 0.02825956791639328
-0.580417394638061523 0.348746716976165771 0.0399763509631156921
0.519327819347381592 -0.240991994738578796 -0.308848172426223755
-0.601509690284729004 0.370525568723678589 0.104350201785564423
-0.501137137413024902 0.147167295217514038 0.355105996131896973
0.233355894684791565 -0.277752667665481567 0.317253410816192627
-0.181959763169288635 -0.136849850416183472 -0.0557068958878517151
-0.228985041379928589 -0.137788727879524231 -0.053609117865562439
-0.204853177070617676 0.298325479030609131 0.12656383216381073
0.261908292770385742 -0.289576798677444458 0.32354271411895752
-0.362852543592453003 -0.0303748082369565964 0.119423240423202515
-0.50067216157913208 0.0195225942879915237 0.0316750742495059967
0.242210790514945984 8.03644579718820751e-05 0.322158724069595337
0.140751853585243225 -0.290264010429382324 0.311602562665939331
0.307444930076599121 -0.207516089081764221 0.248074799776077271
-0.386668562889099121 0.254823803901672363 0.0341568216681480408
0.530429244041442871 -0.262315452098846436 0.102805629372596741
0.223423749208450317 0.0227167122066020966 0.305319130420684814
0.529958605766296387 -0.147519677877426147 -0.308386504650115967
-0.645409643650054932 0.231315553188323975 -0.0478361323475837708
0.540583908557891846 -0.310974091291427612 -0.0445773154497146606
0.507158219814300537 -0.267799586057662964 -0.311627119779586792
0.513629794120788574 -0.316125154495239258 -0.29522407054901123
0.458178490400314331 -0.290915817022323608 -0.296703368425369263
-0.543647706508636475 0.268057644367218018 -0.189701735973358154
-0.621950924396514893 0.28890576958656311 0.0663556754589080811
0.36275830864906311 -0.384198039770126343 -0.206222206354141235
-0.0930901691317558289 0.267218023538589478 0.189210906624794006
-0.449026554822921753 0.131328284740447998 -0.209063738584518433
-0.575996279716491699 0.20374782383441925 -0.127430170774459839
-0.630620002746582031 0.191693738102912903 -0.0402470380067825317
-0.470330864191055298 0.138967707753181458 -0.231392070651054382
0.256998002529144287 -0.017168315127491951 -0.0722234249114990234
0.229867696762084961 0.053736124187707901 -0.0453078970313072205
0.112424686551094055 0.1097673699259758 0.30152401328086853
-0.584665238857269287 0.218350455164909363 -0.221834450960159302
-0.598752319812774658 0.235200539231300354 -0.0111056752502918243
-0.367597103118896484 -0.0914948210120201111 0.122681848704814911
-0.330583095550537109 -0.125106707215309143 0.137138858437538147
-0.635149121284484863 0.199607551097869873 -0.0386665277183055878
-0.426268994808197021 -0.0547015108168125153 0.0990582555532455444
-0.47866058349609375 0.0202805735170841217 -0.0367830917239189148
0.208010002970695496 0.00860715750604867935 0.300699353218078613
-0.634721815586090088 0.248055100440979004 -0.00635153520852327347
-0.128646597266197205 0.269862860441207886 0.132072150707244873
0.270397394895553589 -0.330159693956375122 0.179972589015960693
0.532369136810302734 -0.210168212652206421 -0.098999515175819397
-0.127112969756126404 -0.112452611327171326 -0.0549213923513889313
0.453473716974258423 -0.338862240314483643 -0.298230886459350586
-0.213222980499267578 0.0363453030586242676 -0.0598450228571891785
-0.553742527961730957 0.17580084502696991 0.0124984560534358025
-0.199126347899436951 0.139680713415145874 0.0209711398929357529
-0.0132195418700575829 -0.102362275123596191 -0.0430654063820838928
0.264081180095672607 -0.274785667657852173 0.202321484684944153
0.347974956035614014 -0.321027189493179321 -0.000161450661835260689
-0.156562149524688721 0.0698807910084724426 0.0273797586560249329
-0.249800547957420349 0.130855903029441833 -0.0346254967153072357
0.198443859815597534 0.00163887767121195793 0.0189368352293968201
0.07569875568151474 0.0808581262826919556 0.0238013043999671936
-0.284011870622634888 0.288253277540206909 -0.00613830983638763428
0.476258039474487305 -0.289804756641387939 -0.301866143941879272
-0.557428061962127686 0.265735536813735962 -0.0175822265446186066
-0.237994581460952759 0.0977227985858917236 -0.032631605863571167
0.137187808752059937 -0.280639469623565674 0.14995121955871582
0.295673102140426636 -0.297280758619308472 0.0567990988492965698
-0.286621630191802979 0.257264137268066406 0.000340513099217787385
-0.0217223633080720901 -0.0402194932103157043 0.0888620913028717041
0.203828051686286926 0.0427140519022941589 0.065550781786441803
-0.144358173012733459 -0.0849758386611938477 0.0915814638137817383
0.37183186411857605 -0.073443487286567688 0.0314015261828899384
0.520672917366027832 -0.199114367365837097 -0.098690815269947052
0.486401230096817017 -0.297799766063690186 -0.305526465177536011
0.479741483926773071 -0.31477820873260498 0.122154280543327332
0.512894630432128906 -0.307150393724441528 -0.102581508457660675
0.49532279372215271 -0.309424549341201782 -0.309897661209106445
0.505451500415802002 -0.327774703502655029 -0.0042975512333214283
0.511038661003112793 -0.324477195739746094 0.118183411657810211
0.465184837579727173 -0.288706392049789429 -0.29671815037727356
0.437280625104904175 -0.26340213418006897 -0.194451034069061279
0.134419962763786316 0.116989433765411377 0.3368968665599823
0.395890742540359497 -0.244255721569061279 0.318601787090301514
-0.602186322212219238 0.354287505149841309 0.0652185603976249695
-0.505777478218078613 0.357221394777297974 0.178070828318595886
0.541930556297302246 -0.282469362020492554 0.0977480262517929077
0.255726993083953857 0.0368337854743003845 -0.072241857647895813
-0.233806699514389038 0.156038060784339905 -0.00547615811228752136
0.505441367626190186 -0.331940352916717529 -0.00272087822668254375
0.444092512130737305 -0.249998360872268677 -0.228174105286598206
-0.639722585678100586 0.254546970129013062 0.0542380958795547485
0.531906485557556152 -0.262651354074478149 0.0930648669600486755
-0.393813759088516235 -0.0590250231325626373 0.10025680810213089
0.523198425769805908 -0.289622575044631958 -0.0922772809863090515
0.0272713061422109604 -0.27390626072883606 -0.0354211851954460144
0.384437620639801025 -0.305970340967178345 0.118651144206523895
-0.582862436771392822 0.366841822862625122 0.131432726979255676
0.239488348364830017 0.00297036650590598583 0.18095754086971283
-0.113685965538024902 0.165625020861625671 0.347396045923233032
0.481456667184829712 -0.368298828601837158 -0.0222461353987455368
0.411504060029983521 -0.321107387542724609 -0.21119062602519989
0.506575942039489746 -0.155524075031280518 0.123839698731899261
0.528092801570892334 -0.334663897752761841 0.0126322107389569283
-0.584818661212921143 0.336430221796035767 0.0337980613112449646
-0.591438055038452148 0.381936609745025635 0.13098415732383728
0.525620341300964355 -0.244347855448722839 -0.310824304819107056
0.473726570606231689 -0.290726274251937866 -0.299616843461990356
-0.597897768020629883 0.353730529546737671 0.169401258230209351
-0.588028132915496826 0.371464580297470093 0.100819885730743408
-0.212802797555923462 -0.129310742020606995 -0.0578339099884033203
0.233686268329620361 -0.292842566967010498 0.314820855855941772
0.237319394946098328 0.0671853795647621155 0.319907724857330322
0.541139602661132812 -0.313811987638473511 -0.0582991130650043488
-0.445402830839157104 -0.048160843551158905 0.12688957154750824
0.358798086643218994 -0.388271719217300415 -0.209167793393135071
-0.557272613048553467 0.211208045482635498 -0.113988243043422699
0.520109593868255615 -0.279532641172409058 -0.177293792366981506
0.241180583834648132 0.0348416045308113098 0.314384967088699341
0.242017894983291626 0.000460745592135936022 0.0234998371452093124
0.37995755672454834 0.03878818079829216 0.0117060421034693718
0.526094973087310791 -0.230653092265129089 -0.310331434011459351
0.326274096965789795 0.0961177274584770203 -0.0361085869371891022
-0.374986082315444946 -0.0600345879793167114 -0.133100330829620361
0.512202441692352295 -0.167515695095062256 0.135733798146247864
-0.575191497802734375 0.322039783000946045 0.0491809546947479248
-0.55965125560760498 0.28350558876991272 0.36393660306930542
0.223699674010276794 0.0319621600210666656 -0.0583553947508335114
-0.575051963329315186 0.214668706059455872 -0.221464291214942932
-0.0450349263846874237 0.156666383147239685 0.0810454115271568298
0.113337844610214233 0.110097929835319519 0.0252932794392108917
0.34199899435043335 -0.246916681528091431 -0.0970235541462898254
-0.285803407430648804 0.300466299057006836 -0.00304245785810053349
0.152544274926185608 -0.00429605785757303238 -0.00371275073848664761
0.0683050453662872314 0.138900086283683777 0.0755026936531066895
-0.270794987678527832 0.280221045017242432 0.00149242277257144451
0.5026436448097229 -0.292576223611831665 -0.159530520439147949
0.136209890246391296 -0.025696929544210434 0.0129778143018484116
-0.339779645204544067 -0.0317684561014175415 0.0226281359791755676
0.372644305229187012 -0.0918249934911727905 0.0441177971661090851
0.199171587824821472 0.101245187222957611 -0.00197779457084834576
-0.298017978668212891 -0.024807468056678772 0.0357732251286506653
0.131016850471496582 -0.0176996663212776184 -0.0262282975018024445
0.100624345242977142 0.0161796063184738159 0.0910789743065834045
0.174922972917556763 0.119378633797168732 0.0378658734261989594
-0.231246933341026306 -0.0634242966771125793 0.104511111974716187
0.48538506031036377 -0.296663522720336914 -0.303754270076751709
-0.603865742683410645 0.289563357830047607 0.184868156909942627
0.466462582349777222 -0.308657854795455933 0.119913212954998016
0.377515226602554321 -0.0145014477893710136 0.0062013017013669014
0.513645708560943604 -0.295289456844329834 -0.10367235541343689
0.51816093921661377 -0.239740878343582153 -0.307829707860946655
0.47721552848815918 -0.309724479913711548 -0.300508648157119751
0.482693016529083252 -0.274524420499801636 -0.300134211778640747
0.11647091805934906 0.118883542716503143 0.297467708587646484
-0.584889769554138184 0.356352925300598145 0.0654454678297042847
0.38298797607421875 -0.33724510669708252 0.125338912010192871
-0.575174629688262939 0.317688584327697754 -0.0269437395036220551
-0.605155646800994873 0.217170536518096924 -0.0873036235570907593
0.267002016305923462 0.0392201580107212067 -0.0864406973123550415
-0.357158482074737549 -0.0219742171466350555 -0.131392508745193481
-0.564982831478118896 0.314322978258132935 -0.00828850641846656799
0.189884185791015625 -0.340640068054199219 -0.074904218316078186
0.403425782918930054 -0.357583463191986084 -0.224248036742210388
-0.500886082649230957 0.14575214684009552 0.354449599981307983
0.508877336978912354 -0.151489406824111938 0.114811241626739502
0.496160984039306641 -0.263935267925262451 -0.30461999773979187
0.457268118858337402 -0.280882060527801514 -0.28996586799621582
0.440230071544647217 -0.264966309070587158 -0.283919215202331543
-0.58870697021484375 0.357456117868423462 0.0613554194569587708
0.50448155403137207 -0.126819714903831482 0.124229006469249725
-0.206955090165138245 0.312478542327880859 0.108539581298828125
0.267495304346084595 -0.283895403146743774 0.319001227617263794
0.231808766722679138 0.00362366391345858574 0.317685455083847046
0.512578189373016357 -0.175721600651741028 -0.281991481781005859
-0.115971602499485016 0.0100381476804614067 0.00573729397729039192
0.403157353401184082 -0.359611690044403076 -0.224871724843978882
0.416878551244735718 -0.313194036483764648 0.143594488501548767
-0.556162834167480469 0.376496106386184692 0.186478525400161743
-0.176376909017562866 0.309148192405700684 0.118224591016769409
-0.390450030565261841 0.276024013757705688 -0.0853436216711997986
0.364517718553543091 0.0517268143594264984 0.0244113877415657043
0.128444433212280273 0.11577877402305603 0.318694561719894409
-0.287259429693222046 -0.100323215126991272 -0.0922322645783424377
0.257391661405563354 0.100814163684844971 -0.0622235238552093506
-0.361999481916427612 -0.0595941245555877686 -0.144360870122909546
0.133398592472076416 0.113743200898170471 0.337640523910522461
-0.563822925090789795 0.199333995580673218 -0.229436084628105164
-0.277124375104904175 0.287982016801834106 -0.00113520002923905849
0.454192966222763062 -0.24646739661693573 -0.288510113954544067
0.459533512592315674 -0.275415897369384766 -0.291033476591110229
-0.635524451732635498 0.308182328939437866 0.17005312442779541
0.511762261390686035 -0.317443668842315674 -0.0387677289545536041
0.468244016170501709 -0.265818536281585693 -0.298165023326873779
0.477453827857971191 -0.295025020837783813 -0.300443798303604126
0.457451015710830688 -0.246251404285430908 -0.290082335472106934
0.380385607481002808 -0.360939741134643555 -0.214055106043815613
-0.480100661516189575 -0.012335057370364666 0.185635656118392944
-0.517148613929748535 0.365789145231246948 0.173763498663902283
-0.619239151477813721 0.202070936560630798 -0.0875695496797561646
-0.23801933228969574 0.0189597662538290024 -0.0727482214570045471
-0.383295178413391113 -0.058810453861951828 0.023505358025431633
0.474135786294937134 -0.368290752172470093 0.0216258130967617035
-0.649944722652435303 0.236794501543045044 0.0318566970527172089
0.411854594945907593 -0.346686691045761108 -0.221844971179962158
0.525342464447021484 -0.337098807096481323 0.0798836797475814819
0.505355000495910645 -0.239044174551963806 -0.308287978172302246
0.248852118849754333 -0.282067567110061646 0.318059951066970825
0.238473325967788696 0.0666136667132377625 0.314452230930328369
0.538861930370330811 -0.301814079284667969 -0.09385661780834198
-0.448557496070861816 -0.0411680154502391815 0.126320019364356995
-0.0445430576801300049 0.104610607028007507 0.317654788494110107
0.247237667441368103 0.0210912358015775681 0.322012513875961304
-0.285583287477493286 -0.0994588807225227356 -0.0992520451545715332
-0.138487309217453003 -0.014947851188480854 -0.0489836707711219788
-0.278581619262695312 0.337861776351928711 0.0467509999871253967
-0.255419105291366577 0.289893656969070435 -0.00347378570586442947
-0.219617575407028198 0.321886509656906128 0.0696217715740203857
-0.573947370052337646 0.152332261204719543 -0.0748501420021057129
-0.290653854608535767 0.29270365834236145 0.0158049557358026505
0.524911642074584961 -0.320622473955154419 0.0269964653998613358
0.345384359359741211 -0.0305645652115345001 -0.0346572846174240112
0.521526873111724854 -0.362851798534393311 0.0892158299684524536
-0.0840353518724441528 -0.111616991460323334 0.0783285647630691528
-0.404665321111679077 0.326080352067947388 0.120976030826568604
0.504035413265228271 -0.36702197790145874 -0.00467260507866740227
-0.119427844882011414 0.266110241413116455 0.120758630335330963
0.518005132675170898 -0.342906981706619263 0.0356640927493572235
0.129599615931510925 -0.33441472053527832 0.301067233085632324
0.465905427932739258 -0.311008334159851074 0.0722923874855041504
0.482141196727752686 -0.373943358659744263 0.0521472059190273285
0.420371353626251221 -0.0261297840625047684 0.0646705254912376404
0.493428677320480347 -0.363484084606170654 -0.0157198533415794373
-0.233665376901626587 0.287171274423599243 0.0839239731431007385
0.530505895614624023 -0.331717997789382935 -0.00740842754021286964
-0.272651880979537964 0.315424084663391113 0.113746859133243561
0.307504862546920776 0.00253770384006202221 0.0461190119385719299
0.466725826263427734 -0.263427883386611938 -0.296236306428909302
0.473107755184173584 -0.304283171892166138 0.114067256450653076
0.510464668273925781 -0.313611358404159546 -0.104570843279361725
0.508502542972564697 -0.245388269424438477 -0.308607250452041626
0.447243750095367432 -0.292507082223892212 -0.29292336106300354
0.465688377618789673 -0.283279001712799072 -0.297441869974136353
0.137630447745323181 0.112859636545181274 0.336579710245132446
-0.652775108814239502 0.285738915205001831 0.0976479798555374146
-0.638983011245727539 0.244858145713806152 -0.0385903492569923401
0.135612919926643372 0.0693677812814712524 0.337700605392456055
-0.577773869037628174 0.303809583187103271 -0.0559488721191883087
0.261774718761444092 0.03041105717420578 -0.0736461803317070007
0.541252255439758301 -0.216722995042800903 0.11139204353094101
-0.360790938138961792 -0.0356030203402042389 -0.134570255875587463
-0.575415909290313721 0.327490866184234619 -0.0299554280936717987
-0.362484902143478394 -0.0707405209541320801 -0.0342047847807407379
-0.131270572543144226 -0.267323970794677734 0.118916027247905731
0.494398772716522217 -0.365778803825378418 -0.000556742888875305653
0.373074591159820557 -0.359335273504257202 -0.210219293832778931
-0.379075586795806885 -0.106671243906021118 0.101116396486759186
-0.0677293464541435242 -0.263783574104309082 0.296288460493087769
0.519184768199920654 -0.243341445922851562 -0.309629112482070923
0.508736610412597656 -0.330523520708084106 0.0150906434282660484
-0.594009757041931152 0.369009554386138916 0.120240695774555206
-0.656045913696289062 0.175724372267723083 -0.103431582450866699
-0.223743647336959839 -0.143935412168502808 -0.0539136119186878204
-0.191952496767044067 0.316653013229370117 0.100493095815181732
0.255955159664154053 -0.28336217999458313 0.31949305534362793
0.238446280360221863 0.0322761982679367065 0.318921893835067749
-0.120846673846244812 -0.0459483601152896881 0.00713417772203683853
-0.6422157883644104 0.308681517839431763 0.101518549025058746
0.363955825567245483 -0.373872220516204834 -0.207134649157524109
0.537044525146484375 -0.217735767364501953 0.161675512790679932
-0.553396105766296387 0.382501304149627686 0.15765807032585144
-0.123210132122039795 0.259328663349151611 0.11489211767911911
0.118698842823505402 0.102467156946659088 0.0892632603645324707
-0.376121222972869873 0.265871614217758179 -0.0898770689964294434
0.516161441802978516 -0.349005818367004395 0.0985841229557991028
-0.294247299432754517 -0.106947086751461029 -0.109516546130180359
0.27430686354637146 0.102856718003749847 -0.0578674636781215668
-0.575784862041473389 0.219574257731437683 -0.213057428598403931
-0.116249032318592072 0.268631130456924438 0.179585963487625122
0.235310167074203491 -0.28782963752746582 0.314181059598922729
0.309431284666061401 -0.187257692217826843 0.240837618708610535
0.541038751602172852 -0.325805485248565674 -0.0211058463901281357
0.078283458948135376 -0.337486386299133301 0.282020807266235352
-0.00716649321839213371 -0.171659097075462341 0.00410484615713357925
-0.282944321632385254 0.261766791343688965 0.00678094569593667984
0.512438297271728516 -0.237116128206253052 -0.309623986482620239
-0.64758068323135376 0.278308004140853882 0.0791840776801109314
-0.646976590156555176 0.183234259486198425 -0.0912751331925392151
0.513373732566833496 -0.322485387325286865 0.0241022966802120209
-0.407623261213302612 -0.063418954610824585 0.113297536969184875
0.516092956066131592 -0.355663865804672241 -0.0208132900297641754
-0.567208647727966309 0.374372482299804688 0.15215986967086792
0.235200271010398865 0.0430839136242866516 0.313470512628555298
-0.665468037128448486 0.227195441722869873 0.0227341055870056152
-0.44876551628112793 -0.0382713600993156433 0.126828551292419434
0.502284049987792969 -0.302253842353820801 -0.179059877991676331
-0.589760720729827881 0.361064612865447998 0.08573131263256073
-0.19479331374168396 0.314929395914077759 0.104611873626708984
0.246221587061882019 0.0239945240318775177 0.323606669902801514
0.530189633369445801 -0.323772042989730835 -0.0582689866423606873
-0.183542698621749878 0.307039201259613037 0.128232836723327637
0.246469363570213318 0.00707744807004928589 0.323738247156143188
0.0579457953572273254 0.139763191342353821 0.345544159412384033
-0.506309807300567627 0.149550363421440125 0.356650382280349731
0.270014107227325439 -0.311110705137252808 0.32603377103805542
-0.254448026418685913 0.0236984174698591232 -0.0709655135869979858
0.240360826253890991 -0.295143425464630127 0.322282314300537109
0.248252317309379578 0.0438620038330554962 0.314196079969406128
0.467661470174789429 -0.102020300924777985 0.0344149135053157806
-0.125468313694000244 0.195164144039154053 0.115178264677524567
0.239252939820289612 -0.326456934213638306 0.317731320858001709
0.499509900808334351 -0.366546422243118286 0.0744568333029747009
0.522704243659973145 -0.324688345193862915 0.0260195843875408173
0.443922430276870728 -0.253215581178665161 0.332154005765914917
0.320765286684036255 -0.131457060575485229 -0.106847412884235382
0.0626521185040473938 -0.0105935530737042427 0.321493059396743774
0.51056361198425293 -0.36084979772567749 0.0473176762461662292
0.134931609034538269 -0.100587166845798492 0.0403490364551544189
0.0487981587648391724 0.0116238249465823174 0.0295198317617177963
0.0200632791966199875 0.0483026430010795593 0.0423765815794467926
0.0874139145016670227 -0.0658973529934883118 0.289428979158401489
-0.162791818380355835 -0.265411853790283203 0.147797569632530212
0.264213293790817261 -0.020182369276881218 0.0613343194127082825
-0.0296045579016208649 -0.0288477763533592224 0.295352071523666382
0.501504778861999512 -0.240360051393508911 -0.302205741405487061
0.475251972675323486 -0.314955234527587891 -0.302144020795822144
-0.631505131721496582 0.30633273720741272 0.167037993669509888
0.474748879671096802 -0.320791721343994141 0.120828144252300262
0.508377373218536377 -0.300842761993408203 -0.105731204152107239
0.527549505233764648 -0.274919241666793823 -0.317388951778411865
0.492865622043609619 -0.33241724967956543 -0.310901761054992676
0.502792477607727051 -0.320116728544235229 0.0978225618600845337
0.473499685525894165 -0.305792480707168579 -0.298294723033905029
-0.559889912605285645 0.268165916204452515 0.364263534545898438
0.124308012425899506 0.116910547018051147 0.313996374607086182
-0.634173870086669922 0.282275885343551636 0.0539156645536422729
-0.587945878505706787 0.362820327281951904 0.102076083421707153
0.370796620845794678 -0.374027609825134277 -0.212912946939468384
0.437744677066802979 -0.347948312759399414 0.154150053858757019
0.0574287474155426025 0.121392689645290375 0.32091870903968811
-0.575142860412597656 0.368855684995651245 0.215234994888305664
0.264029085636138916 0.0245244037359952927 -0.0588486418128013611
0.368083208799362183 -0.336747050285339355 0.160433501005172729
0.509820818901062012 -0.301562130451202393 -0.112180344760417938
0.13292500376701355 -0.320465743541717529 -0.0979179516434669495
0.515871882438659668 -0.348791211843490601 -0.0204689223319292068
0.388596951961517334 -0.346767961978912354 -0.214270249009132385
-0.577616453170776367 0.319100707769393921 0.0404332876205444336
0.535367071628570557 -0.277887791395187378 -0.320794254541397095
0.467209041118621826 -0.310926347970962524 -0.29943123459815979
0.506490468978881836 -0.347129464149475098 0.0177517253905534744
-0.556498408317565918 0.309755384922027588 0.101934060454368591
0.193193316459655762 -0.339259862899780273 -0.0593155063688755035
0.0694217532873153687 -0.282078742980957031 -0.0780374407768249512
0.251823663711547852 -0.250221341848373413 0.319960802793502808
0.239240378141403198 0.030918145552277565 0.316699683666229248
-0.121707610785961151 -0.0477456487715244293 0.00798860006034374237
0.178067833185195923 -0.100179783999919891 -0.0149572174996137619
0.531767904758453369 -0.332324475049972534 -0.0133474776521325111
0.369666308164596558 -0.349486023187637329 -0.209047198295593262
0.53430253267288208 -0.245884835720062256 0.177087843418121338
0.560492634773254395 -0.315825372934341431 -0.331132501363754272
0.553870558738708496 -0.211788356304168701 0.133742853999137878
-0.543859422206878662 0.380805671215057373 0.164203256368637085
0.12220127135515213 0.117131985723972321 0.132933333516120911
-0.582828283309936523 0.351944476366043091 0.0974707677960395813
-0.482188493013381958 0.18598330020904541 -0.0918466150760650635
0.514946281909942627 -0.33920520544052124 0.0386577248573303223
0.2528361976146698 -0.279136449098587036 0.321778178215026855
0.277831047773361206 -0.355932176113128662 -0.126209497451782227
0.507269442081451416 -0.286698311567306519 -0.313858211040496826
-0.432756185531616211 -0.0571020357310771942 0.116514436900615692
0.201293125748634338 0.0904296860098838806 0.223169863224029541
0.243647068738937378 0.1043739914894104 -0.0574304349720478058
-0.196286916732788086 0.201591253280639648 0.3491249680519104
0.249803259968757629 0.0248792562633752823 0.323130279779434204
0.239162147045135498 0.0189795251935720444 0.320824086666107178
-0.0320536121726036072 0.162755131721496582 0.382489770650863647
-0.483095884323120117 -0.0155512895435094833 0.179987207055091858
0.483140021562576294 -0.36911347508430481 0.0459020882844924927
-0.644101262092590332 0.287118583917617798 0.0859011560678482056
0.275292664766311646 -0.165882617235183716 -0.070634990930557251
-0.412430882453918457 -0.0567763969302177429 0.0787316560745239258
-0.643634915351867676 0.175708383321762085 -0.0823495984077453613
-0.226583227515220642 -0.133834883570671082 -0.0523741878569126129
0.254337191581726074 -0.265552222728729248 0.320941239595413208
-0.345968514680862427 0.0173526834696531296 -0.117125466465950012
-0.287768274545669556 -0.0914630293846130371 -0.106679901480674744
-0.585685133934020996 0.209791183471679688 -0.218367293477058411
0.266995400190353394 -0.297011435031890869 0.315014809370040894
-0.0262614507228136063 -0.187200114130973816 -0.0435957275331020355
-0.618658304214477539 0.276913464069366455 0.0310894306749105453
-0.609425008296966553 0.298233985900878906 0.0921877697110176086
-0.398165851831436157 -0.0627707988023757935 0.118720293045043945
-0.452303439378738403 -0.0381018780171871185 0.119310706853866577
0.430501341819763184 -0.271837115287780762 0.329027712345123291
-0.0530790612101554871 0.1407490074634552 0.0915435329079627991
-0.503576219081878662 0.151174068450927734 0.35526624321937561
0.240214750170707703 -0.319283217191696167 0.322629719972610474
0.496520459651947021 -0.370933979749679565 0.0572188012301921844
0.398692727088928223 -0.256952196359634399 0.322303563356399536
-0.158928066492080688 -0.263402074575424194 0.181425914168357849
-0.499763190746307373 0.0140769397839903831 0.157900154590606689
0.416982531547546387 -0.297455072402954102 0.328574120998382568
0.534691870212554932 -0.340311825275421143 -0.0185786988586187363
0.343656748533248901 -0.267514437437057495 -0.127977088093757629
-0.497052848339080811 0.0720197632908821106 0.203801706433296204
0.443045556545257568 -0.272284746170043945 0.333255589008331299
0.521426379680633545 -0.335521012544631958 0.0326604284346103668
0.452767342329025269 -0.320055961608886719 -0.29317203164100647
0.473628908395767212 -0.311807870864868164 0.11656874418258667
0.516651332378387451 -0.278589367866516113 -0.312971264123916626
0.502079010009765625 -0.326103687286376953 -0.314468711614608765
0.517516255378723145 -0.327239781618118286 0.101783327758312225
0.478730469942092896 -0.311592221260070801 -0.302314430475234985
0.113900922238826752 0.118513494729995728 0.288857400417327881
-0.122560672461986542 0.268566906452178955 0.158598378300666809
-0.61540597677230835 0.265395551919937134 0.0518041811883449554
-0.479982495307922363 0.00311471521854400635 0.181163609027862549
0.426080405712127686 -0.35513538122177124 0.158430099487304688
-0.292943984270095825 -0.110528558492660522 -0.105939537286758423
0.129859596490859985 0.0654461830854415894 0.321066170930862427
0.25310128927230835 0.0384416729211807251 -0.0779623687267303467
0.234867468476295471 0.0936125591397285461 -0.0532497875392436981
0.417082041501998901 -0.261723220348358154 -0.202477231621742249
0.52108311653137207 -0.354787915945053101 -0.0195960942655801773
-0.609451770782470703 0.381019711494445801 0.180977210402488708
0.51700282096862793 -0.279489696025848389 -0.314893960952758789
0.498512566089630127 -0.350138604640960693 0.0239441767334938049
-0.588429093360900879 0.369194865226745605 0.112763240933418274
0.505373835563659668 -0.104948192834854126 0.147127971053123474
-0.198652014136314392 0.311468183994293213 0.112732231616973877
0.263444423675537109 -0.286598175764083862 0.319604814052581787
0.236270546913146973 0.0620127879083156586 0.310363233089447021
-0.14514431357383728 -0.0434839203953742981 0.00405043503269553185
-0.658381760120391846 0.21460038423538208 -0.0465056076645851135
-0.289229422807693481 -0.0759313702583312988 -0.0687819123268127441
0.226612567901611328 0.0419369451701641083 -0.0483121909201145172
0.550944983959197998 -0.144700378179550171 0.131884217262268066
0.519162476062774658 -0.29552033543586731 0.0747587159276008606
0.516998171806335449 -0.284236282110214233 -0.181324809789657593
-0.358698189258575439 -0.0170868542045354843 -0.0281264558434486389
0.0908029526472091675 0.088064149022102356 0.0856267884373664856
0.466030120849609375 -0.362035900354385376 -0.0108035625889897346
-0.433541953563690186 0.157670408487319946 -0.0667247697710990906
0.523190677165985107 -0.335788130760192871 0.0687601268291473389
0.262304097414016724 -0.285966753959655762 0.318328201770782471
0.00868547149002552032 -0.091006256639957428 -0.0262392126023769379
0.0318717919290065765 -0.13039003312587738 0.0217445623129606247
-0.631320595741271973 0.2649039626121521 0.0287498943507671356
0.241475000977516174 0.0741762593388557434 0.318629920482635498
0.239548459649085999 0.0294440537691116333 0.318712741136550903
-0.175447985529899597 0.300745308399200439 0.116113901138305664
0.303999155759811401 -0.151393413543701172 0.307628393173217773
0.261339187622070312 -0.290766000747680664 0.32081332802772522
-0.476807832717895508 -0.0081561356782913208 0.166040480136871338
0.242108836770057678 0.081608116626739502 0.311988413333892822
0.519611954689025879 -0.351435661315917969 0.0817934200167655945
-0.0355666689574718475 -0.237526893615722656 0.123957559466362
-0.638914704322814941 0.289902091026306152 0.098535098135471344
-0.234897688031196594 -0.132807165384292603 -0.0581614859402179718
-0.379920154809951782 -0.108754627406597137 0.10538039356470108
-0.237106844782829285 -0.147821828722953796 -0.0580071248114109039
-0.658593058586120605 0.214295879006385803 -0.0342072620987892151
0.528251171112060547 -0.352768063545227051 0.0777352899312973022
-0.621763229370117188 0.270169615745544434 0.0521975457668304443
-0.404786914587020874 -0.064314819872379303 0.11189279705286026
-0.446963220834732056 -0.0414869897067546844 0.12181738018989563
0.267407208681106567 -0.285661846399307251 0.323288440704345703
0.127021804451942444 -0.32657235860824585 0.312399566173553467
0.151679754257202148 -0.343071281909942627 0.317669868469238281
0.447092682123184204 -0.335809916257858276 -0.293146193027496338
0.515124320983886719 -0.303139775991439819 -0.108101531863212585
0.514623105525970459 -0.280460596084594727 -0.312989294528961182
0.484241515398025513 -0.327869921922683716 -0.3099479079246521
0.463710039854049683 -0.346072971820831299 -0.302821606397628784
0.549001634120941162 -0.210455343127250671 -0.316149652004241943
0.523488402366638184 -0.300239831209182739 -0.322642713785171509
0.517351984977722168 -0.301050782203674316 -0.318537712097167969
0.246195510029792786 0.0569001920521259308 0.316222727298736572
0.240677490830421448 0.0873600319027900696 0.312555998563766479
-0.292394340038299561 -0.100533358752727509 -0.102066442370414734
-0.454221755266189575 -0.0519652664661407471 0.116911321878433228
0.404164344072341919 -0.272371411323547363 0.322347104549407959
-0.503017902374267578 0.00378391682170331478 0.188947230577468872
0.400457203388214111 -0.287344962358474731 0.324661582708358765
0.398604661226272583 -0.273664742708206177 0.323142081499099731
0.341571003198623657 -0.25908583402633667 0.0899668708443641663
-0.0194700527936220169 -0.244320571422576904 0.128529965877532959
-0.465120881795883179 0.0359870009124279022 0.189373835921287537
-0.19504527747631073 0.221524596214294434 0.171884402632713318
0.366171479225158691 -0.329394161701202393 -0.0236476119607686996
0.32272985577583313 -0.390196472406387329 -0.1590137779712677
0.534783542156219482 -0.323779821395874023 -0.058370836079120636
-0.442394524812698364 -0.0047184256836771965 0.152527153491973877
-0.0198184773325920105 -0.0595199614763259888 0.141588300466537476
-0.000924328458495438099 -0.236063212156295776 0.10625622421503067
0.525580525398254395 -0.202004328370094299 -0.0801792144775390625
0.449155807495117188 -0.308503538370132446 -0.293027967214584351
0.526220977306365967 -0.2756214439868927 -0.315843492746353149
0.499273747205734253 -0.325053870677947998 -0.312837809324264526
0.474579483270645142 -0.305222272872924805 -0.297547250986099243
-0.128124535083770752 0.246531754732131958 0.138785615563392639
-0.649618983268737793 0.281921654939651489 0.0939116552472114563
-0.1995849609375 0.286606073379516602 0.33573642373085022
0.49735414981842041 -0.0869725197553634644 0.136494278907775879
0.200047507882118225 -0.359179556369781494 -0.0909332931041717529
0.504754066467285156 -0.367807686328887939 -0.0228547882288694382
0.526619493961334229 -0.242831528186798096 0.172792375087738037
-0.586572408676147461 0.379237145185470581 0.170368090271949768
0.44436994194984436 -0.315093070268630981 -0.287902891635894775
0.497932136058807373 -0.111330404877662659 0.112012110650539398
-0.656424760818481445 0.175408795475959778 -0.104128442704677582
-0.202625647187232971 0.308658421039581299 0.088944658637046814
0.200632870197296143 -0.0136754168197512627 0.2950858473777771
0.159342154860496521 -0.0622710324823856354 -0.0441900677978992462
-0.580119132995605469 0.302197188138961792 0.368463307619094849
0.274395525455474854 0.0980988293886184692 -0.0292932875454425812
-0.435912817716598511 0.155371293425559998 -0.0862538442015647888
0.533793509006500244 -0.333179354667663574 0.0125945024192333221
-0.569402575492858887 0.197250306606292725 -0.229448065161705017
-0.498292416334152222 0.0450110100209712982 -0.0870925039052963257
0.0307321660220623016 -0.104006670415401459 0.0328936614096164703
0.533476650714874268 -0.264664620161056519 -0.316490381956100464
0.0091217774897813797 0.19750957190990448 0.0274129901081323624
0.301507741212844849 0.0386203192174434662 -0.0846437215805053711
-0.332810103893280029 -0.0159427262842655182 -0.107876382768154144
0.235823780298233032 0.0143409324809908867 0.32162967324256897
0.12439882755279541 0.0129515798762440681 0.298794686794281006
0.526868999004364014 -0.355285912752151489 0.0661824196577072144
0.466450482606887817 -0.30998694896697998 -0.233272328972816467
-0.652597427368164062 0.285262197256088257 0.104019924998283386
0.545958518981933594 -0.220120981335639954 0.163352116942405701
0.52739417552947998 -0.323509097099304199 -0.0161910448223352432
-0.38361164927482605 -0.0563130006194114685 0.0760732665657997131
0.456277579069137573 -0.310985058546066284 -0.292726367712020874
0.504349589347839355 -0.339971959590911865 -0.318076938390731812
0.478197962045669556 -0.314466714859008789 -0.299673616886138916
0.519759476184844971 -0.301455229520797729 -0.317502588033676147
-0.00293760537169873714 -0.139954239130020142 -0.0249102003872394562
0.39693865180015564 -0.27322232723236084 0.323317050933837891
0.400609344244003296 -0.271650820970535278 0.323622405529022217
0.505459070205688477 -0.332094848155975342 0.105710841715335846
-0.468118935823440552 0.0425175540149211884 0.170484423637390137
0.409410625696182251 -0.345953404903411865 0.156452536582946777
-0.361403107643127441 -0.0352128222584724426 -0.148275628685951233
-0.128807544708251953 -0.267562627792358398 0.112280584871768951
0.511972665786743164 -0.369145065546035767 -0.0147999739274382591
-0.214246869087219238 0.312465310096740723 0.0974756330251693726
0.250008583068847656 -0.287101447582244873 0.322752594947814941
0.208315521478652954 0.00926065351814031601 -0.0462355948984622955
0.0693332254886627197 -0.151502460241317749 -0.0173233505338430405
-0.170289754867553711 0.304697722196578979 0.118676751852035522
0.470482021570205688 -0.364454180002212524 0.00691837305203080177
-0.291514426469802856 -0.0993245244026184082 -0.103323861956596375
0.0358266383409500122 -0.149649560451507568 -0.021789945662021637
0.231566786766052246 0.056135084480047226 0.309048354625701904
0.25281447172164917 -0.288664519786834717 0.320534169673919678
-0.472224384546279907 0.00123515632003545761 0.168504893779754639
0.240386411547660828 0.0625840127468109131 0.312945842742919922
0.508346617221832275 -0.352128952741622925 0.0638340115547180176
0.226843312382698059 -0.314790993928909302 0.314436554908752441
-0.375922054052352905 -0.0930163189768791199 0.0860657468438148499
-0.0632202848792076111 -0.241509899497032166 0.302408128976821899
-0.223249822854995728 -0.127552151679992676 -0.0532202348113059998
-0.410404860973358154 -0.0653299540281295776 0.0983848646283149719
-0.445505470037460327 -0.0446066707372665405 0.132592186331748962
0.238401040434837341 -0.294038385152816772 0.31431010365486145
0.153350800275802612 -0.324281781911849976 0.31998366117477417
0.424748420715332031 -0.256146252155303955 0.328470200300216675
0.437643170356750488 -0.343032866716384888 -0.292798936367034912
0.505769670009613037 -0.334675341844558716 -0.318221628665924072
0.444491326808929443 -0.352378040552139282 -0.286858141422271729
0.237652361392974854 0.0656474009156227112 0.312225610017776489
0.402684926986694336 -0.287574112415313721 0.325785934925079346
-0.495240569114685059 0.00681846775114536285 0.188232898712158203
0.485200881958007812 -0.0634165555238723755 0.131620272994041443
0.0119467563927173615 -0.170660898089408875 0.00977610703557729721
0.530984342098236084 -0.307719051837921143 -0.062334015965461731
0.314214229583740234 -0.302318096160888672 -0.126905381679534912
0.445341348648071289 -0.291441053152084351 -0.28576168417930603
-0.3373374342918396 0.224691271781921387 0.125575169920921326
-0.401333034038543701 -0.0280669461935758591 -0.00204264489002525806
0.402595251798629761 -0.271794170141220093 0.324005812406539917
-0.133763909339904785 0.19576561450958252 0.167632073163986206
0.398644715547561646 -0.271729797124862671 0.323818981647491455
-0.446984410285949707 -0.0248413924127817154 0.0212696585804224014
-0.138434663414955139 0.24481627345085144 0.191577732563018799
-0.613140881061553955 0.294010907411575317 0.183520063757896423
0.12402227520942688 0.116043835878372192 0.316585391759872437
-0.121379464864730835 0.250539153814315796 0.161709293723106384
-0.583662986755371094 0.348106026649475098 0.0578759424388408661
0.426321357488632202 -0.348130226135253906 0.15293613076210022
-0.567103028297424316 0.295018851757049561 -0.0692694932222366333
0.251358985900878906 0.0265786312520503998 -0.0796855166554450989
0.247165828943252563 0.100222371518611908 -0.0484723523259162903
-0.357881456613540649 -0.0555503964424133301 -0.142006024718284607
0.19820404052734375 0.120084598660469055 0.0356475412845611572
0.545071899890899658 -0.131650865077972412 0.111883752048015594
-0.581987559795379639 0.321715205907821655 -0.0231248699128627777
0.205626264214515686 0.024628395214676857 0.176739588379859924
-0.595661282539367676 0.375114113092422485 0.17178066074848175
0.444295674562454224 -0.319233506917953491 0.127274453639984131
0.254615485668182373 -0.278633594512939453 0.3163796067237854
0.235039547085762024 0.0237731654196977615 0.316475361585617065
-0.363315761089324951 -0.0495734252035617828 -0.0238952189683914185
