ply
format ascii 1.0
element vertex 737
property float x
property float y
property float z
end_header
-0.44272303581237793 0.266849219799041748 -0.0371569953858852386
0.517168343067169189 -0.326264321804046631 -0.0812455937266349792
-0.538732230663299561 0.138700827956199646 -0.0970424264669418335
0.465842276811599731 -0.124063663184642792 0.00202031549997627735
-0.385288596153259277 0.255615770816802979 0.032868552953004837
0.493969261646270752 -0.301584482192993164 0.121184781193733215
0.465386956930160522 -0.105799384415149689 0.0596235431730747223
0.203890278935432434 0.0155554739758372307 -0.0422062352299690247
-0.224518269300460815 0.296056896448135376 0.158777937293052673
-0.125054538249969482 -0.0486734844744205475 0.0109488358721137047
-0.231697097420692444 0.228730842471122742 0.348268836736679077
-0.380794614553451538 -0.0540630258619785309 0.145599424839019775
0.341328293085098267 -0.0733835771679878235 0.0477346628904342651
-0.435924679040908813 -0.0119821000844240189 0.0341831669211387634
0.205541536211967468 0.0170021038502454758 0.0704430565237998962
0.0563299767673015594 -0.0856063961982727051 0.239375367760658264
-0.383878618478775024 -0.0592571571469306946 0.116704419255256653
-0.136726602911949158 -0.264561563730239868 -0.00111540406942367554
-0.243728712201118469 0.063887380063533783 0.244944408535957336
-0.542062759399414062 0.21112900972366333 0.16292920708656311
-0.590636909008026123 0.287411391735076904 -0.00709541840478777885
0.307104140520095825 0.0180163513869047165 0.0429237373173236847
0.478569209575653076 -0.314482599496841431 -0.305272430181503296
0.50382077693939209 -0.34521937370300293 -0.0636536329984664917
0.471713930368423462 -0.304797440767288208 0.115199357271194458
0.527181565761566162 -0.30258747935295105 -0.109241493046283722
-0.402791857719421387 0.31175801157951355 0.134852334856987
0.517999768257141113 -0.250983446836471558 -0.307260036468505859
0.507679462432861328 -0.328772932291030884 -0.314623802900314331
0.518886685371398926 -0.331025689840316772 0.0917451530694961548
0.477452993392944336 -0.303950965404510498 -0.302912265062332153
0.527639269828796387 -0.285325676202774048 -0.107858754694461823
-0.559882819652557373 0.267491072416305542 0.365811377763748169
-0.640054523944854736 0.289819598197937012 0.0853986665606498718
0.371522098779678345 -0.400856852531433105 -0.217397153377532959
-0.449726909399032593 -0.000761776580475270748 0.175266727805137634
0.176611736416816711 0.0733291879296302795 0.00668900506570935249
-0.45344814658164978 0.13491860032081604 -0.213524341583251953
0.40321117639541626 -0.335522353649139404 0.129133224487304688
-0.598807692527770996 0.207632243633270264 0.00100318365730345249
0.247711449861526489 -0.114177912473678589 -0.0707357004284858704
-0.483041077852249146 0.182961180806159973 -0.209925994277000427
-0.376046866178512573 -0.0628078877925872803 0.0918312668800354004
0.522995650768280029 -0.320626974105834961 0.0360286049544811249
0.542473137378692627 -0.217041820287704468 0.108408086001873016
0.525805354118347168 -0.273186296224594116 0.0554634332656860352
0.111333020031452179 0.0844426825642585754 0.317378610372543335
-0.350802451372146606 -0.0476139448583126068 0.0451222881674766541
0.10525202751159668 0.0725884437561035156 0.295614033937454224
-0.165185689926147461 0.133364364504814148 0.151448026299476624
0.502866089344024658 -0.256154805421829224 -0.102337777614593506
0.429032206535339355 -0.303504139184951782 0.136105820536613464
-0.35563775897026062 -0.101128116250038147 0.15919436514377594
0.498728632926940918 -0.201283559203147888 -0.107806883752346039
-0.57831883430480957 0.348314106464385986 0.152359023690223694
0.105233088135719299 -0.011158904992043972 0.0212413668632507324
-0.341123521327972412 -0.123075023293495178 0.104729197919368744
-0.120602726936340332 -0.275316923856735229 0.174206376075744629
-0.161048173904418945 0.167636066675186157 0.325303792953491211
0.515107631683349609 -0.358263790607452393 0.0269623659551143646
0.521148681640625 -0.287243485450744629 -0.0115273287519812584
0.478984802961349487 -0.139585033059120178 0.107785426080226898
-0.18072141706943512 0.0296191219240427017 0.0260007549077272415
-0.341839075088500977 -0.121296308934688568 0.103872135281562805
-0.600025296211242676 0.377020180225372314 0.188626229763031006
-0.119599312543869019 -0.266419947147369385 0.218470767140388489
0.523559510707855225 -0.308500379323959351 -0.0746343210339546204
0.516446352005004883 -0.25179743766784668 -0.309383511543273926
0.455114394426345825 -0.307898521423339844 -0.294327676296234131
0.240777045488357544 -0.0955925434827804565 0.158788695931434631
-0.620018124580383301 0.272491812705993652 0.0373976677656173706
-0.429805129766464233 -0.00350124598480761051 0.177500128746032715
-0.250259846448898315 -0.136541664600372314 -0.0709932371973991394
0.317461580038070679 -0.318625688552856445 0.122718662023544312
0.539403080940246582 -0.249364912509918213 0.106794752180576324
0.452844202518463135 -0.139398396015167236 0.0155735574662685394
0.429469585418701172 -0.320658028125762939 0.123892180621623993
0.413441091775894165 -0.330471128225326538 -0.209661290049552917
0.47392648458480835 -0.128159269690513611 0.109670005738735199
-0.548771798610687256 0.378817617893218994 0.172826558351516724
0.190709039568901062 -0.339464008808135986 -0.0131951477378606796
-0.201541021466255188 -0.135059520602226257 -0.0683423131704330444
-0.185390636324882507 0.312393426895141602 0.118024289608001709
0.103519000113010406 0.108131371438503265 0.174578815698623657
-0.444160580635070801 -0.0539842061698436737 0.0920216888189315796
-0.489181190729141235 0.030391056090593338 0.0170384645462036133
0.231543958187103271 0.0114265205338597298 0.315190315246582031
-0.0245545916259288788 0.113570064306259155 0.312607407569885254
0.243423253297805786 -0.0382163822650909424 0.204818218946456909
-0.38463863730430603 0.245634585618972778 0.0344593264162540436
-0.653844296932220459 0.217002451419830322 -0.0390089750289916992
0.483114480972290039 -0.11583951860666275 0.0235945340245962143
0.122377514839172363 0.0799231231212615967 0.13869379460811615
-0.381752043962478638 -0.07224283367395401 0.0957800298929214478
0.319868206977844238 -0.0719457417726516724 0.0625626668334007263
-0.440463274717330933 -0.0113112209364771843 0.00702905654907226562
-0.501950204372406006 0.233976811170578003 -0.0709146484732627869
-0.54701697826385498 0.203735888004302979 -0.0683050975203514099
0.0887877494096755981 0.0921066254377365112 0.0801596939563751221
-0.519650518894195557 0.20484510064125061 -0.0469641238451004028
-0.168079286813735962 0.0727860629558563232 0.232652857899665833
-0.0571500584483146667 -0.186449050903320312 0.0269393119961023331
-0.212329179048538208 0.291094362735748291 0.109275206923484802
0.249838486313819885 -0.00499938009306788445 0.022494778037071228
-0.555590271949768066 0.204657867550849915 0.118586339056491852
-0.457105845212936401 0.2167397141456604 0.024721980094909668
-0.462383568286895752 0.266767293214797974 -0.002535669831559062
-0.575199544429779053 0.247867614030838013 -0.0762192234396934509
-0.389109581708908081 0.275424271821975708 -0.0839651525020599365
0.343912482261657715 -0.134252861142158508 0.319026261568069458
-0.498376160860061646 0.20713469386100769 -0.011414090171456337
-0.345754027366638184 0.293124258518218994 -0.0499829985201358795
0.52610480785369873 -0.360691606998443604 0.0418668687343597412
-0.539768755435943604 0.215423032641410828 0.201299101114273071
-0.569052696228027344 0.29464229941368103 -0.00290518160909414291
0.316775918006896973 0.0241421610116958618 0.0489094778895378113
0.482186943292617798 -0.306627124547958374 -0.303580552339553833
0.479819327592849731 -0.325922220945358276 0.125481307506561279
0.523330032825469971 -0.306638538837432861 -0.098628602921962738
0.490539222955703735 -0.31039765477180481 -0.307339459657669067
0.5163307785987854 -0.324652522802352905 0.119942352175712585
0.444722890853881836 -0.299815744161605835 -0.290567547082901001
0.52334672212600708 -0.304189175367355347 -0.0972914472222328186
0.134412303566932678 0.116747923195362091 0.337227165699005127
-0.642185568809509277 0.242859527468681335 -0.00919597409665584564
-0.292449206113815308 -0.113529592752456665 -0.105568811297416687
0.53934168815612793 -0.255105495452880859 0.0922910422086715698
0.129276856780052185 0.0979657918214797974 0.317500472068786621
-0.235060885548591614 -0.143180504441261292 -0.0712271928787231445
0.252650827169418335 0.0304489918053150177 -0.0858141183853149414
0.531081855297088623 -0.322775691747665405 0.00691391248255968094
-0.599155068397521973 0.307595968246459961 0.104746460914611816
0.532199442386627197 -0.24427640438079834 0.0866430327296257019
-0.373932301998138428 -0.0605041757225990295 0.0924910008907318115
0.526695907115936279 -0.27495226263999939 -0.123171500861644745
-0.501043021678924561 0.149023503065109253 0.353258341550827026
0.38530421257019043 -0.297249555587768555 0.13195335865020752
0.132922783493995667 -0.331634551286697388 -0.100356213748455048
0.522887647151947021 -0.354502469301223755 -0.0148514965549111366
-0.436278045177459717 0.150814339518547058 -0.0848352760076522827
0.515878856182098389 -0.299731910228729248 0.0647968873381614685
0.393276751041412354 -0.367513805627822876 -0.213613584637641907
0.500633955001831055 -0.171064302325248718 0.130147635936737061
0.533350169658660889 -0.333644479513168335 0.0284748338162899017
-0.5797080397605896 0.349087923765182495 0.0405374057590961456
0.520126879215240479 -0.240555524826049805 -0.308626353740692139
-0.600821435451507568 0.370858907699584961 0.10491546243429184
-0.500545024871826172 0.147395029664039612 0.355462759733200073
0.234106943011283875 -0.277474015951156616 0.317537903785705566
-0.1811847984790802 -0.13668040931224823 -0.055502813309431076
-0.228223070502281189 -0.137639760971069336 -0.0533939562737941742
-0.204138964414596558 0.298695594072341919 0.126860439777374268
0.262658029794692993 -0.289283066987991333 0.323832094669342041
-0.362156033515930176 -0.0302044786512851715 0.119712643325328827
-0.499962896108627319 0.0197321493178606033 0.0320794209837913513
0.24302421510219574 0.000504999945405870676 0.322433203458786011
0.141489490866661072 -0.290054798126220703 0.311880141496658325
0.308239847421646118 -0.207145065069198608 0.248338058590888977
-0.385947346687316895 0.255155891180038452 0.0345137491822242737
0.531213879585266113 -0.261892825365066528 0.103019528090953827
0.224243730306625366 0.0231469143182039261 0.305587112903594971
0.530737698078155518 -0.14701417088508606 -0.30814853310585022
-0.644693374633789062 0.231645062565803528 -0.0472445115447044373
0.541391253471374512 -0.310578495264053345 -0.0443682894110679626
0.507967054843902588 -0.267376422882080078 -0.311408638954162598
0.514449596405029297 -0.315731346607208252 -0.29500269889831543
0.459010869264602661 -0.290493607521057129 -0.296500563621520996
-0.542896807193756104 0.268432348966598511 -0.189137965440750122
-0.621259152889251709 0.289238065481185913 0.0669209957122802734
0.363652974367141724 -0.383845269680023193 -0.206030532717704773
-0.0923611447215080261 0.267609208822250366 0.189480245113372803
-0.448264181613922119 0.131634816527366638 -0.208630815148353577
-0.575262844562530518 0.204084783792495728 -0.126876741647720337
-0.629907071590423584 0.192008838057518005 -0.0396755896508693695
-0.469564110040664673 0.13927815854549408 -0.23092961311340332
0.257875055074691772 -0.0166340246796607971 -0.0720102936029434204
0.230733543634414673 0.054304860532283783 -0.0450800135731697083
0.113233499228954315 0.110170662403106689 0.301762163639068604
-0.583908438682556152 0.218698412179946899 -0.221241384744644165
-0.598042666912078857 0.235533833503723145 -0.0105538349598646164
-0.366905003786087036 -0.0913710445165634155 0.122963063418865204
-0.329898923635482788 -0.12499401718378067 0.137406796216964722
-0.634436368942260742 0.199925363063812256 -0.0380902290344238281
-0.425572574138641357 -0.0545521974563598633 0.0993798822164535522
-0.477930605411529541 0.0204962845891714096 -0.0363873541355133057
0.208831056952476501 0.00902207102626562119 0.300965189933776855
-0.634013593196868896 0.248387694358825684 -0.00576898874714970589
-0.127918213605880737 0.270262777805328369 0.132353350520133972
0.271223485469818115 -0.329871475696563721 0.180217772722244263
0.533159375190734863 -0.20970703661441803 -0.0987968221306800842
-0.126316085457801819 -0.112239792943000793 -0.0547235757112503052
0.454322099685668945 -0.338468074798583984 -0.298017978668212891
-0.212460756301879883 0.0366390980780124664 -0.0595983974635601044
-0.553041934967041016 0.176114097237586975 0.0129917748272418976
-0.198387652635574341 0.140041708946228027 0.0212282184511423111
-0.0123759089037775993 -0.102085858583450317 -0.0428820177912712097
0.264897972345352173 -0.274476021528244019 0.202570155262947083
0.348843395709991455 -0.320659011602401733 3.36462289851624519e-05
-0.155801177024841309 0.0702186897397041321 0.0276176333427429199
-0.249060794711112976 0.131196051836013794 -0.0343532711267471313
0.199337437748908997 0.00213772756978869438 0.019149433821439743
0.0765504837036132812 0.081334233283996582 0.0240209437906742096
-0.283277630805969238 0.28865322470664978 -0.00584267918020486832
0.477082341909408569 -0.289382576942443848 -0.301660895347595215
-0.556709825992584229 0.266084849834442139 -0.0170511249452829361
-0.237250387668609619 0.0980466976761817932 -0.0323695726692676544
0.138016864657402039 -0.28042292594909668 0.150163844227790833
0.296541213989257812 -0.296940028667449951 0.056998811662197113
-0.285890400409698486 0.257638245820999146 0.000650294998195022345
-0.0209007859230041504 -0.0399035103619098663 0.0890748724341392517
0.204702287912368774 0.0432339310646057129 0.0657816678285598755
-0.14360162615776062 -0.0847548693418502808 0.0917967632412910461
0.372677356004714966 -0.072894856333732605 0.0316335335373878479
0.521464943885803223 -0.198641911149024963 -0.0984887927770614624
0.487224578857421875 -0.297386795282363892 -0.305314451456069946
0.480541020631790161 -0.314380824565887451 0.122376136481761932
0.513710200786590576 -0.306748628616333008 -0.102377966046333313
0.496146291494369507 -0.309021711349487305 -0.309679865837097168
0.506268501281738281 -0.327379852533340454 -0.00408772192895412445
0.511833131313323975 -0.324087709188461304 0.118405990302562714
0.466013014316558838 -0.288280993700027466 -0.296517282724380493
0.438118249177932739 -0.262971341609954834 -0.194259032607078552
0.135219722986221313 0.117395184934139252 0.337142974138259888
0.396640002727508545 -0.243862837553024292 0.318876892328262329
-0.601486682891845703 0.35462525486946106 0.0657895207405090332
-0.505101799964904785 0.357522189617156982 0.178528636693954468
0.542715847492218018 -0.282062172889709473 0.0979599356651306152
0.256592392921447754 0.0374114029109477997 -0.0720136985182762146
-0.233071520924568176 0.156396105885505676 -0.005206309724599123
0.506259143352508545 -0.331547647714614868 -0.00251012365333735943
0.444924622774124146 -0.249557211995124817 -0.22797749936580658
-0.639030635356903076 0.254870563745498657 0.0548072457313537598
0.53269273042678833 -0.262228578329086304 0.0932774841785430908
-0.393113821744918823 -0.0588782764971256256 0.10055619478225708
0.524006247520446777 -0.289212316274642944 -0.0920744389295578003
0.0281253457069396973 -0.273739516735076904 -0.0352665819227695465
0.385271340608596802 -0.305585920810699463 0.118875682353973389
-0.582181751728057861 0.367167830467224121 0.131972342729568481
0.240349903702735901 0.00344630121253430843 0.18120671808719635
-0.113006711006164551 0.165951207280158997 0.347634255886077881
0.482291042804718018 -0.367916584014892578 -0.022031707689166069
0.412365943193435669 -0.320712685585021973 -0.210997357964515686
0.507357478141784668 -0.155027061700820923 0.124061673879623413
0.528904139995574951 -0.334277927875518799 0.0128461308777332306
-0.584109246730804443 0.336772769689559937 0.0343598984181880951
-0.590756416320800781 0.382263034582138062 0.131533429026603699
0.526418089866638184 -0.24391600489616394 -0.310600906610488892
0.474551796913146973 -0.29030311107635498 -0.299413710832595825
-0.59723353385925293 0.354050427675247192 0.169933304190635681
-0.587338030338287354 0.37180212140083313 0.101384162902832031
-0.212035372853279114 -0.129149049520492554 -0.0576215460896492004
0.234436959028244019 -0.292570412158966064 0.315106779336929321
0.238137528300285339 0.0676402151584625244 0.320178687572479248
0.541947722434997559 -0.313418447971343994 -0.0580899640917778015
-0.444719254970550537 -0.0480106137692928314 0.127225682139396667
0.359692037105560303 -0.387923657894134521 -0.20897461473941803
-0.556540906429290771 0.211549162864685059 -0.113453179597854614
0.520918786525726318 -0.279119342565536499 -0.177088364958763123
0.24199889600276947 0.0352861136198043823 0.314657330513000488
0.242897212505340576 0.000986455706879496574 0.0237244181334972382
0.380788058042526245 0.0394298247992992401 0.0119650140404701233
0.526889562606811523 -0.230212002992630005 -0.31010735034942627
0.327105522155761719 0.0967821180820465088 -0.0358452722430229187
-0.374224245548248291 -0.0598697736859321594 -0.132799163460731506
0.512980222702026367 -0.167030170559883118 0.135955706238746643
-0.574487626552581787 0.322379082441329956 0.0497250817716121674
-0.559063911437988281 0.283803671598434448 0.364352703094482422
0.224571436643600464 0.0325102135539054871 -0.0581353530287742615
-0.574295401573181152 0.215016499161720276 -0.220880284905433655
-0.0442543365061283112 0.157101273536682129 0.08129090815782547
0.114187128841876984 0.110616683959960938 0.0255202800035476685
0.342866808176040649 -0.246507495641708374 -0.0968462228775024414
-0.285067766904830933 0.30085068941116333 -0.00272244284860789776
0.153428345918655396 -0.00383361941203474998 -0.0035084232222288847
0.0691306889057159424 0.139392077922821045 0.0757391452789306641
-0.270061582326889038 0.280610829591751099 0.00179703510366380215
0.503461241722106934 -0.292166352272033691 -0.159328311681747437
0.137090772390365601 -0.0252668000757694244 0.0131787834689021111
-0.339050084352493286 -0.0315814465284347534 0.022902321070432663
0.373488962650299072 -0.0912925228476524353 0.0443467684090137482
0.200051218271255493 0.101833350956439972 -0.00175323360599577427
-0.297288119792938232 -0.0246053580194711685 0.036030791699886322
0.131897717714309692 -0.0172617509961128235 -0.0260308738797903061
0.101503051817417145 0.0166081767529249191 0.0912940427660942078
0.175774246454238892 0.119939789175987244 0.0381041839718818665
-0.230525940656661987 -0.0632302239537239075 0.10474705696105957
0.486208409070968628 -0.296249181032180786 -0.303543448448181152
-0.603215217590332031 0.289876699447631836 0.185382530093193054
0.467265605926513672 -0.308256804943084717 0.120133921504020691
0.378363132476806641 -0.0138862049207091331 0.00644874805584549904
0.514458239078521729 -0.294880956411361694 -0.103470340371131897
0.518960177898406982 -0.239303126931190491 -0.307608276605606079
0.478045880794525146 -0.309316635131835938 -0.30029749870300293
0.483511745929718018 -0.274095654487609863 -0.299926906824111938
0.117279142141342163 0.119295090436935425 0.297707289457321167
-0.584188401699066162 0.356690764427185059 0.0660055503249168396
0.383822113275527954 -0.336881428956985474 0.125569239258766174
-0.574451088905334473 0.318043619394302368 -0.026379195973277092
-0.604431092739105225 0.217505991458892822 -0.0867331475019454956
0.267864495515823364 0.0398100167512893677 -0.0862096548080444336
-0.356397330760955811 -0.0217736177146434784 -0.131091982126235962
-0.564262211322784424 0.314676553010940552 -0.00773643050342798233
0.190777242183685303 -0.340395033359527588 -0.0747520178556442261
0.404299259185791016 -0.357207238674163818 -0.22404952347278595
-0.500293850898742676 0.145979225635528564 0.354806423187255859
0.509659647941589355 -0.150987684726715088 0.115032404661178589
0.496972948312759399 -0.263505816459655762 -0.304405748844146729
0.458098530769348145 -0.280453324317932129 -0.28976556658744812
0.441065520048141479 -0.264531433582305908 -0.283718407154083252
-0.588004529476165771 0.357794433832168579 0.0619194693863391876
0.50526505708694458 -0.126300528645515442 0.124455168843269348
-0.20623604953289032 0.312853366136550903 0.108844272792339325
0.268246889114379883 -0.28359454870223999 0.319290012121200562
0.232623517513275146 0.00404480937868356705 0.317957192659378052
0.51336747407913208 -0.175231829285621643 -0.281769245862960815
-0.11517711728811264 0.0103598041459918022 0.00595851615071296692
0.40403139591217041 -0.359236329793930054 -0.224672853946685791
0.417693197727203369 -0.312809616327285767 0.143825814127922058
-0.555501759052276611 0.376817107200622559 0.186996445059776306
-0.175656229257583618 0.309533208608627319 0.118523575365543365
-0.389705389738082886 0.276395857334136963 -0.0849664360284805298
0.365351438522338867 0.0523664578795433044 0.0246722325682640076
0.129248067736625671 0.11618775874376297 0.318938493728637695
-0.286490201950073242 -0.100211329758167267 -0.0920423269271850586
0.258237689733505249 0.101442553102970123 -0.061976894736289978
-0.361234724521636963 -0.059426184743642807 -0.144065767526626587
0.134198278188705444 0.114146724343299866 0.337886542081832886
-0.563063681125640869 0.199675619602203369 -0.2288636714220047
-0.276390612125396729 0.288380950689315796 -0.000839436484966427088
0.455017834901809692 -0.246020734310150146 -0.288305670022964478
0.460361719131469727 -0.27498432993888855 -0.290832459926605225
-0.634866714477539062 0.308498620986938477 0.170596793293952942
0.512578070163726807 -0.317045420408248901 -0.0385606437921524048
0.469066590070724487 -0.265383481979370117 -0.29795953631401062
0.478279203176498413 -0.294606268405914307 -0.300237715244293213
0.458274394273757935 -0.245804637670516968 -0.289877206087112427
0.381269603967666626 -0.360570728778839111 -0.213862955570220947
-0.479437172412872314 -0.012175033800303936 0.185997143387794495
-0.516472578048706055 0.366093426942825317 0.174234390258789062
-0.618515551090240479 0.202397912740707397 -0.0869912654161453247
-0.237258687615394592 0.0192290730774402618 -0.0724973976612091064
-0.382569044828414917 -0.0586529374122619629 0.0237965695559978485
0.474967598915100098 -0.36790737509727478 0.0218435376882553101
-0.649247825145721436 0.237114623188972473 0.0324327833950519562
0.412722110748291016 -0.346304148435592651 -0.22164665162563324
0.526145040988922119 -0.336716026067733765 0.0801032483577728271
0.506158053874969482 -0.238601759076118469 -0.308069407939910889
0.249603822827339172 -0.281779497861862183 0.318346410989761353
0.239292949438095093 0.0670713037252426147 0.314722985029220581
0.539667069911956787 -0.301414817571640015 -0.0936509072780609131
-0.447873711585998535 -0.0410130769014358521 0.126659691333770752
-0.0438147038221359253 0.104944556951522827 0.317894220352172852
0.248053163290023804 0.0215301122516393661 0.322287619113922119
-0.284813106060028076 -0.0993427485227584839 -0.0990582704544067383
-0.137695968151092529 -0.0146585572510957718 -0.0487625934183597565
-0.277850687503814697 0.338222146034240723 0.0470892637968063354
-0.254683047533035278 0.290284544229507446 -0.00315843196585774422
-0.218890145421028137 0.32226639986038208 0.06993836909532547
-0.573225557804107666 0.152636751532554626 -0.0743244662880897522
-0.289922386407852173 0.293079257011413574 0.0161225441843271255
0.525719285011291504 -0.320228636264801025 0.0272089987993240356
0.346237033605575562 -0.0299882944673299789 -0.0344261340796947479
0.52233278751373291 -0.362481415271759033 0.0894402787089347839
-0.0832475721836090088 -0.111387602984905243 0.078530333936214447
-0.403959095478057861 0.326388150453567505 0.121358916163444519
0.504860937595367432 -0.366643786430358887 -0.00445527024567127228
-0.118695057928562164 0.266519635915756226 0.121039971709251404
0.518817484378814697 -0.342523545026779175 0.0358808562159538269
0.130338877439498901 -0.334232926368713379 0.30134698748588562
0.466719686985015869 -0.310603946447372437 0.0725053995847702026
0.482965260744094849 -0.373569101095199585 0.0523700229823589325
0.421192765235900879 -0.0255343206226825714 0.0649190917611122131
0.494257807731628418 -0.363101929426193237 -0.0155048742890357971
-0.232944756746292114 0.287542045116424561 0.0842261910438537598
0.531317830085754395 -0.33133089542388916 -0.00719605851918458939
-0.271938562393188477 0.315767973661422729 0.114064231514930725
0.30836939811706543 0.00310457195155322552 0.0463605970144271851
0.467548638582229614 -0.262991458177566528 -0.296030998229980469
0.473908752202987671 -0.303876906633377075 0.114284530282020569
0.511282682418823242 -0.31321290135383606 -0.104366593062877655
0.509306013584136963 -0.244951173663139343 -0.308388203382492065
0.448081940412521362 -0.292087286710739136 -0.292720556259155273
0.466515034437179565 -0.282850742340087891 -0.297240853309631348
0.138431400060653687 0.113265596330165863 0.336826622486114502
-0.652094066143035889 0.286077648401260376 0.0982596725225448608
-0.638267695903778076 0.245192527770996094 -0.0380003713071346283
0.136414319276809692 0.0697539225220680237 0.337949663400650024
-0.577047169208526611 0.304169654846191406 -0.0553804337978363037
0.262641221284866333 0.0309883132576942444 -0.0734184831380844116
0.542027890682220459 -0.216273456811904907 0.11160605400800705
-0.360028773546218872 -0.0354144126176834106 -0.134270414710044861
-0.574690818786621094 0.327845901250839233 -0.0293870475143194199
-0.36174243688583374 -0.0705851092934608459 -0.0339261926710605621
-0.130533307790756226 -0.26722446084022522 0.119131758809089661
0.495227038860321045 -0.365395605564117432 -0.00034039080492220819
0.373960584402084351 -0.358968287706375122 -0.21002940833568573
-0.378370672464370728 -0.1065693199634552 0.101387642323970795
-0.067075289785861969 -0.263640254735946655 0.296570569276809692
0.51998436450958252 -0.242906570434570312 -0.309407293796539307
0.509551346302032471 -0.330131083726882935 0.0153028154745697975
-0.593326151371002197 0.369339078664779663 0.120793692767620087
-0.65532219409942627 0.176040545105934143 -0.102818228304386139
-0.222981050610542297 -0.14378868043422699 -0.0537006892263889313
-0.191229835152626038 0.317037314176559448 0.100798673927783966
0.256706535816192627 -0.283069580793380737 0.319780617952346802
0.239263191819190979 0.0327158086001873016 0.319194287061691284
-0.120055235922336578 -0.0456775836646556854 0.00734654814004898071
-0.641533851623535156 0.309010922908782959 0.102095738053321838
0.364848613739013672 -0.373514443635940552 -0.206945016980171204
0.537810206413269043 -0.217290520668029785 0.161896958947181702
-0.552719354629516602 0.382817685604095459 0.158170253038406372
-0.122476853430271149 0.259737879037857056 0.115171663463115692
0.119555048644542694 0.102967135608196259 0.0894922465085983276
-0.375376254320144653 0.266243577003479004 -0.0895091667771339417
0.51696401834487915 -0.348628044128417969 0.0988075211644172668
-0.293482512235641479 -0.10680793970823288 -0.109281398355960846
0.27514997124671936 0.103498473763465881 -0.0576160997152328491
-0.575030863285064697 0.219924375414848328 -0.212473824620246887
-0.115526251494884491 0.269016861915588379 0.179858699440956116
0.236061602830886841 -0.287553966045379639 0.314466387033462524
0.310233235359191895 -0.186873793601989746 0.241098150610923767
0.541848123073577881 -0.325417876243591309 -0.0208941344171762466
0.079018324613571167 -0.337335735559463501 0.282293945550918579
-0.00633028615266084671 -0.171443834900856018 0.00427389936521649361
-0.282213717699050903 0.262142449617385864 0.00708885909989476204
0.513238608837127686 -0.236674726009368896 -0.309403449296951294
-0.646894395351409912 0.278638005256652832 0.0797703191637992859
-0.6462554931640625 0.183554217219352722 -0.0906691327691078186
0.514184653759002686 -0.322089970111846924 0.0243141800165176392
-0.406930416822433472 -0.0632772147655487061 0.113605663180351257
0.516914248466491699 -0.355285346508026123 -0.0205981507897377014
-0.566532909870147705 0.374692618846893311 0.152682706713676453
0.236019223928451538 0.0435287095606327057 0.313741087913513184
-0.664769232273101807 0.227511346340179443 0.0233185160905122757
-0.448081880807876587 -0.0381145849823951721 0.127168938517570496
0.503103971481323242 -0.301849633455276489 -0.178856447339057922
-0.589066386222839355 0.361401528120040894 0.0862935110926628113
-0.194071993231773376 0.315311282873153687 0.104916393756866455
0.247036844491958618 0.0244334768503904343 0.323881626129150391
0.531002938747406006 -0.323381602764129639 -0.0580594949424266815
-0.182825401425361633 0.307417243719100952 0.128530338406562805
0.247283220291137695 0.00750807672739028931 0.324013769626617432
0.0587167814373970032 0.140138119459152222 0.345779746770858765
-0.505718231201171875 0.149779424071311951 0.357010066509246826
0.270762860774993896 -0.310821652412414551 0.326325893402099609
-0.253691494464874268 0.0239638667553663254 -0.0707089900970458984
0.241109445691108704 -0.294867843389511108 0.322570294141769409
0.249071180820465088 0.0443156138062477112 0.314469724893569946
0.468462556600570679 -0.101462885737419128 0.034639410674571991
-0.12473025918006897 0.195561394095420837 0.115434266626834869
0.240002468228340149 -0.326196491718292236 0.3180217444896698
0.500324606895446777 -0.36617085337638855 0.0746800675988197327
0.523513257503509521 -0.324296176433563232 0.0262325853109359741
0.444653719663619995 -0.252814918756484985 0.332422405481338501
0.321632057428359985 -0.130974546074867249 -0.106657013297080994
0.0634254142642021179 -0.0102769946679472923 0.321737587451934814
0.511379003524780273 -0.360474079847335815 0.0475384779274463654
0.135805070400238037 -0.100227348506450653 0.0405394099652767181
0.0496547706425189972 0.012028873898088932 0.0297299381345510483
0.0209018886089324951 0.0487176552414894104 0.0425965189933776855
0.0881988480687141418 -0.0656014531850814819 0.289673805236816406
-0.162084370851516724 -0.265318393707275391 0.148030251264572144
0.265089273452758789 -0.019665176048874855 0.0615652948617935181
-0.028872242197394371 -0.0285683255642652512 0.295598417520523071
0.502309799194335938 -0.239917099475860596 -0.301989197731018066
0.476084589958190918 -0.314550518989562988 -0.301931470632553101
-0.630846381187438965 0.306649208068847656 0.167579531669616699
0.475551337003707886 -0.320397704839706421 0.121050991117954254
0.509192824363708496 -0.300436556339263916 -0.105529487133026123
0.528353035449981689 -0.274507969617843628 -0.317164480686187744
0.493696510791778564 -0.332025974988937378 -0.310680180788040161
0.503592908382415771 -0.319721490144729614 0.0980410352349281311
0.47433018684387207 -0.30538100004196167 -0.298086285591125488
-0.559300541877746582 0.268455803394317627 0.364675551652908325
0.125112161040306091 0.117319487035274506 0.314239054918289185
-0.63347923755645752 0.282607585191726685 0.0544910132884979248
-0.587256729602813721 0.363155454397201538 0.102633707225322723
0.371687322854995728 -0.373667001724243164 -0.212721124291419983
0.438552707433700562 -0.347578495740890503 0.154386863112449646
0.0582078397274017334 0.121768847107887268 0.321154743432998657
-0.574492394924163818 0.36916881799697876 0.215742096304893494
0.264897197484970093 0.0250966828316450119 -0.0586213171482086182
0.368908315896987915 -0.33639642596244812 0.160674303770065308
0.510636448860168457 -0.301156967878341675 -0.111977867782115936
0.133812963962554932 -0.320253908634185791 -0.0977768823504447937
0.516691923141479492 -0.348409384489059448 -0.0202550999820232391
0.389473706483840942 -0.346390843391418457 -0.214077964425086975
-0.576910316944122314 0.319441854953765869 0.0409812740981578827
0.53616863489151001 -0.27748146653175354 -0.320567458868026733
0.468043625354766846 -0.310517996549606323 -0.299221813678741455
0.507308781147003174 -0.346744716167449951 0.0179671142250299454
-0.555812180042266846 0.310087352991104126 0.102445013821125031
0.194084852933883667 -0.339012086391448975 -0.0591593198478221893
0.0702947676181793213 -0.281892538070678711 -0.0778985470533370972
0.252579480409622192 -0.249917134642601013 0.320243477821350098
0.240057826042175293 0.0313585251569747925 0.316972047090530396
-0.120916776359081268 -0.0474769175052642822 0.00820077955722808838
0.178957924246788025 -0.0997813865542411804 -0.0147774443030357361
0.532580196857452393 -0.331938028335571289 -0.0131351463496685028
0.370549887418746948 -0.349116742610931396 -0.208859175443649292
0.535065054893493652 -0.245458215475082397 0.177312746644020081
0.561296820640563965 -0.315449565649032593 -0.330895811319351196
0.554639637470245361 -0.211339637637138367 0.133959829807281494
-0.543183565139770508 0.381118893623352051 0.164704993367195129
0.123044669628143311 0.117621295154094696 0.133169263601303101
-0.582138001918792725 0.352278590202331543 0.0980203971266746521
-0.481458425521850586 0.186322137713432312 -0.0914143025875091553
0.515758275985717773 -0.338819444179534912 0.0388739593327045441
0.253587126731872559 -0.27884441614151001 0.322065234184265137
0.278727829456329346 -0.355624079704284668 -0.126040756702423096
0.50808262825012207 -0.286286473274230957 -0.313638955354690552
-0.432067394256591797 -0.0569565072655677795 0.116840198636054993
0.202140554785728455 0.0909137502312660217 0.223420813679695129
0.244493409991264343 0.104993447661399841 -0.057185731828212738
-0.195647761225700378 0.201906010508537292 0.349371910095214844
0.250618726015090942 0.0253212396055459976 0.323405981063842773
0.239977642893791199 0.0194123610854148865 0.321097373962402344
-0.0313340537250041962 0.163096398115158081 0.382719904184341431
-0.48243364691734314 -0.015389690175652504 0.180351823568344116
0.483964204788208008 -0.368736833333969116 0.0461234152317047119
-0.643416285514831543 0.287450522184371948 0.0864877030253410339
0.276170253753662109 -0.165459752082824707 -0.070460200309753418
-0.411725521087646484 -0.0566257573664188385 0.0790434405207633972
-0.642914175987243652 0.176020711660385132 -0.0817574560642242432
-0.225820526480674744 -0.133682072162628174 -0.0521590635180473328
0.255090266466140747 -0.265253037214279175 0.321226418018341064
-0.345211982727050781 0.0175867918878793716 -0.116824202239513397
-0.287001252174377441 -0.0913176164031028748 -0.106453679502010345
-0.584929943084716797 0.210135504603385925 -0.217776402831077576
0.267747431993484497 -0.296716600656509399 0.315304368734359741
-0.0254294425249099731 -0.187001153826713562 -0.0434279851615428925
-0.617956757545471191 0.277249604463577271 0.0316590256989002228
-0.608740508556365967 0.298565536737442017 0.0927393063902854919
-0.397474139928817749 -0.0626286789774894714 0.119023196399211884
-0.451617062091827393 -0.0379440262913703918 0.119653649628162384
0.431236088275909424 -0.271447956562042236 0.329299658536911011
-0.0522982962429523468 0.141168594360351562 0.0917855054140090942
-0.502984046936035156 0.151403874158859253 0.355624467134475708
0.240962624549865723 -0.319018959999084473 0.322920352220535278
0.497339338064193726 -0.370560377836227417 0.0574418529868125916
0.399438798427581787 -0.256564468145370483 0.322579830884933472
-0.158240646123886108 -0.263301879167556763 0.181672334671020508
-0.499097496271133423 0.0142639763653278351 0.158284887671470642
0.417720645666122437 -0.297082036733627319 0.328850686550140381
0.535505592823028564 -0.339930325746536255 -0.0183649621903896332
0.344528257846832275 -0.267116636037826538 -0.127801477909088135
-0.496406525373458862 0.0722300782799720764 0.204184040427207947
0.443774998188018799 -0.271893084049224854 0.333525598049163818
0.522237002849578857 -0.335134506225585938 0.032875794917345047
0.453610807657241821 -0.3196524977684021 -0.292963564395904541
0.47443091869354248 -0.311407566070556641 0.11678873747587204
0.517459511756896973 -0.278176039457321167 -0.312750041484832764
0.502904593944549561 -0.325711965560913086 -0.314245641231536865
0.518313825130462646 -0.326851516962051392 0.102003790438175201
0.479560822248458862 -0.311186045408248901 -0.302101969718933105
0.114711873233318329 0.118926651775836945 0.289095640182495117
-0.121835559606552124 0.268958330154418945 0.158874824643135071
-0.6147117018699646 0.265725225210189819 0.0523606538772583008
-0.479314833879470825 0.0032829982228577137 0.181526660919189453
0.426891565322875977 -0.354772478342056274 0.158669948577880859
-0.292179882526397705 -0.110392026603221893 -0.105706386268138885
0.130664318799972534 0.0658335015177726746 0.321312934160232544
0.253966331481933594 0.0390193425118923187 -0.0777345597743988037
0.23571951687335968 0.0942169502377510071 -0.0530105456709861755
0.417928963899612427 -0.2612934410572052 -0.20228789746761322
0.521902918815612793 -0.354410260915756226 -0.0193807315081357956
-0.608789980411529541 0.381339609622955322 0.181519553065299988
0.517810940742492676 -0.279077112674713135 -0.314672261476516724
0.499332845211029053 -0.349753886461257935 0.0241602528840303421
-0.587742745876312256 0.369527310132980347 0.113318167626857758
0.506155550479888916 -0.104418866336345673 0.147360295057296753
-0.197933152318000793 0.311845660209655762 0.113034732639789581
0.26419559121131897 -0.286301583051681519 0.319893568754196167
0.237091198563575745 0.0624685101211071014 0.310633093118667603
-0.144363090395927429 -0.0432232990860939026 0.00426658149808645248
-0.65766674280166626 0.214921191334724426 -0.0459113083779811859
-0.288471847772598267 -0.075762428343296051 -0.068539939820766449
0.227481842041015625 0.0424941740930080414 -0.0480882078409194946
0.551716327667236328 -0.144202157855033875 0.132105842232704163
0.519959628582000732 -0.295113086700439453 0.0749715939164161682
0.51780933141708374 -0.283825129270553589 -0.181119546294212341
-0.357957363128662109 -0.0168880298733711243 -0.027838338166475296
0.0916723683476448059 0.0885477885603904724 0.0858460217714309692
0.466867744922637939 -0.3616485595703125 -0.0105910599231719971
-0.43280869722366333 0.157980740070343018 -0.0663364380598068237
0.523995518684387207 -0.335403680801391602 0.068978533148765564
0.263055711984634399 -0.285670548677444458 0.318616628646850586
0.0095380851998925209 -0.0907080397009849548 -0.0260546039789915085
0.0327196978032588959 -0.130115911364555359 0.0219260919839143753
-0.630620062351226807 0.26523628830909729 0.0293256808072328568
0.242293551564216614 0.0746376365423202515 0.318901717662811279
0.240365266799926758 0.0298831220716238022 0.318985462188720703
-0.174727141857147217 0.301132947206497192 0.116409212350845337
0.304782778024673462 -0.151007175445556641 0.307904839515686035
0.262089699506759644 -0.290472954511642456 0.321102440357208252
-0.476140290498733521 -0.00798709504306316376 0.166403234004974365
0.242929220199584961 0.082076244056224823 0.3122597336769104
0.520417928695678711 -0.351058870553970337 0.0820153653621673584
-0.0347859859466552734 -0.237372905015945435 0.124162182211875916
-0.638233482837677002 0.290231376886367798 0.0991112813353538513
-0.234135717153549194 -0.132657214999198914 -0.0579440221190452576
-0.379219681024551392 -0.108649544417858124 0.105657100677490234
-0.23634687066078186 -0.147683367133140564 -0.0577912405133247375
-0.657880842685699463 0.214615538716316223 -0.0336146093904972076
0.529056429862976074 -0.352393895387649536 0.0779570713639259338
-0.621068835258483887 0.270499825477600098 0.0527602657675743103
-0.404093146324157715 -0.0641735941171646118 0.112198770046234131
-0.446277469396591187 -0.0413316823542118073 0.122155904769897461
0.268157422542572021 -0.285362333059310913 0.323577851057052612
0.127755284309387207 -0.326388239860534668 0.312681019306182861
0.15241597592830658 -0.342879146337509155 0.317956537008285522
0.447942942380905151 -0.33541443943977356 -0.292935729026794434
0.515938460826873779 -0.302736431360244751 -0.107897989451885223
0.515432417392730713 -0.280047625303268433 -0.312768518924713135
0.485074311494827271 -0.327474355697631836 -0.309729248285293579
0.464556515216827393 -0.345682233572006226 -0.302604794502258301
0.54978489875793457 -0.210009559988975525 -0.31591874361038208
0.524299263954162598 -0.299841850996017456 -0.322416901588439941
0.518165290355682373 -0.300650864839553833 -0.318313896656036377
0.24701438844203949 0.0573577322065830231 0.316495746374130249
0.241497531533241272 0.0878295227885246277 0.312826931476593018
-0.291628539562225342 -0.100398927927017212 -0.101843886077404022
-0.453535199165344238 -0.051816307008266449 0.117252416908740997
0.404907763004302979 -0.271988570690155029 0.322623908519744873
-0.502363860607147217 0.00395910767838358879 0.189329013228416443
0.401200085878372192 -0.286970674991607666 0.324940711259841919
0.399348914623260498 -0.273284286260604858 0.323420256376266479
0.342418700456619263 -0.258696496486663818 0.0901802480220794678
-0.0186836160719394684 -0.244164884090423584 0.128734692931175232
-0.46446305513381958 0.0361794084310531616 0.189732357859611511
-0.194343850016593933 0.221875652670860291 0.172148376703262329
0.367038905620574951 -0.329020231962203979 -0.0234530083835124969
0.323625445365905762 -0.389874517917633057 -0.158828020095825195
0.53559565544128418 -0.323390394449234009 -0.0581608302891254425
-0.441719204187393188 -0.00454390561208128929 0.152868077158927917
-0.019014725461602211 -0.0592298209667205811 0.141806140542030334
-0.000119323580292984843 -0.235894307494163513 0.106449849903583527
0.526371598243713379 -0.201534584164619446 -0.0799767449498176575
0.449997484683990479 -0.308093428611755371 -0.292822390794754028
0.527025103569030762 -0.275210022926330566 -0.315619558095932007
0.500100135803222656 -0.324660748243331909 -0.312615811824798584
0.475409388542175293 -0.304810404777526855 -0.297339022159576416
-0.127395763993263245 0.246926844120025635 0.139057368040084839
-0.648937046527862549 0.282256186008453369 0.0945110544562339783
-0.198939740657806396 0.286938279867172241 0.335999369621276855
0.498140275478363037 -0.0864264070987701416 0.136729255318641663
0.200946852564811707 -0.358936667442321777 -0.0907846391201019287
0.505580723285675049 -0.367431730031967163 -0.022638147696852684
0.527385175228118896 -0.242401853203773499 0.173017054796218872
-0.585906088352203369 0.379558920860290527 0.170903176069259644
0.445215791463851929 -0.314687043428421021 -0.287697345018386841
0.498718827962875366 -0.110792927443981171 0.112238988280296326
-0.655700743198394775 0.175724521279335022 -0.103515379130840302
-0.201902300119400024 0.309043347835540771 0.0892491862177848816
0.201453849673271179 -0.0132754771038889885 0.295350760221481323
0.160225704312324524 -0.0618516094982624054 -0.044003412127494812
-0.579529106616973877 0.302498161792755127 0.368895649909973145
0.275244772434234619 0.0987349748611450195 -0.0290426239371299744
-0.435175895690917969 0.155682921409606934 -0.0858597680926322937
0.534603238105773926 -0.332793951034545898 0.0128084607422351837
-0.568643629550933838 0.197590500116348267 -0.22887103259563446
-0.497555464506149292 0.0452480316162109375 -0.0866608321666717529
0.031580604612827301 -0.103711433708667755 0.0330824404954910278
0.534276068210601807 -0.264249205589294434 -0.31626477837562561
0.00990850478410720825 0.198013707995414734 0.0276679769158363342
0.302361935377120972 0.039232790470123291 -0.0844047218561172485
-0.332052350044250488 -0.0157330259680747986 -0.107591986656188965
0.236638590693473816 0.0147688575088977814 0.321902483701705933
0.12520579993724823 0.0133180739358067513 0.299041002988815308
0.527676999568939209 -0.354912102222442627 0.0664038583636283875
0.467287123203277588 -0.309581875801086426 -0.233068674802780151
-0.651918351650238037 0.285595893859863281 0.104619652032852173
0.546721816062927246 -0.219678610563278198 0.163573116064071655
0.528205752372741699 -0.323116958141326904 -0.0159806739538908005
-0.382902055978775024 -0.05615977942943573 0.0763666629791259766
0.457116961479187012 -0.31057623028755188 -0.292519539594650269
0.50517803430557251 -0.339587748050689697 -0.317850440740585327
0.479029446840286255 -0.314062058925628662 -0.299461066722869873
0.520572185516357422 -0.301056355237960815 -0.317278295755386353
-0.00209544063545763493 -0.13970494270324707 -0.0247345641255378723
0.397683233022689819 -0.272842228412628174 0.323595583438873291
0.401353240013122559 -0.271268993616104126 0.323900014162063599
0.506259262561798096 -0.331707268953323364 0.10593259334564209
-0.467454463243484497 0.0427172444760799408 0.170847520232200623
0.410227000713348389 -0.345590293407440186 0.156691640615463257
-0.360638350248336792 -0.0350234545767307281 -0.147972792387008667
-0.128065809607505798 -0.267463386058807373 0.112493023276329041
0.512796878814697266 -0.368771284818649292 -0.0145820984616875648
-0.213525980710983276 0.312840372323989868 0.0977829620242118835
0.25075829029083252 -0.286815166473388672 0.323040515184402466
0.209195554256439209 0.00977782160043716431 -0.0460241064429283142
0.0701962858438491821 -0.151222780346870422 -0.0171571578830480576
-0.169568270444869995 0.305085420608520508 0.118973568081855774
0.47131761908531189 -0.364063948392868042 0.00713283848017454147
-0.29074820876121521 -0.0991891026496887207 -0.103101521730422974
0.036680515855550766 -0.149387508630752563 -0.0216202922165393829
0.232387572526931763 0.056585412472486496 0.309317111968994141
0.253564983606338501 -0.288376718759536743 0.320822209119796753
-0.471556395292282104 0.00140870502218604088 0.168865278363227844
0.241206347942352295 0.0630417019128799438 0.313217014074325562
0.509158492088317871 -0.351749211549758911 0.0640543922781944275
0.227592632174491882 -0.314533978700637817 0.314724326133728027
-0.375208884477615356 -0.0929060652852058411 0.0863332673907279968
-0.0625634491443634033 -0.241354629397392273 0.302684932947158813
-0.22248561680316925 -0.127393439412117004 -0.0530050024390220642
-0.409706443548202515 -0.0651882514357566833 0.0986934006214141846
-0.444824129343032837 -0.0444548092782497406 0.132929131388664246
0.239152416586875916 -0.293763250112533569 0.314596384763717651
0.154086574912071228 -0.324079722166061401 0.320268332958221436
0.425486385822296143 -0.25575140118598938 0.328742027282714844
0.438499152660369873 -0.342640995979309082 -0.292589008808135986
0.506596148014068604 -0.334289103746414185 -0.317995697259902954
0.445347636938095093 -0.351989775896072388 -0.286645829677581787
0.238472580909729004 0.0661049708724021912 0.312495946884155273
0.403427064418792725 -0.287199497222900391 0.326064705848693848
-0.494583696126937866 0.00699358386918902397 0.188608840107917786
0.485992550849914551 -0.0628528818488121033 0.131860941648483276
0.0127882706001400948 -0.170433789491653442 0.00994587689638137817
0.531793773174285889 -0.307319939136505127 -0.0621270425617694855
0.315097630023956299 -0.301957130432128906 -0.126734539866447449
0.446180522441864014 -0.291020870208740234 -0.285560071468353271
-0.33664017915725708 0.22500176727771759 0.12588636577129364
-0.400601029396057129 -0.0278851427137851715 -0.00173220760188996792
0.403338611125946045 -0.271411895751953125 0.324283093214035034
-0.13303886353969574 0.196138143539428711 0.167884752154350281
0.399388939142227173 -0.271348625421524048 0.324097037315368652
-0.446263909339904785 -0.0246623754501342773 0.0216172132641077042
-0.137721240520477295 0.245187342166900635 0.191842615604400635
-0.612489104270935059 0.294323891401290894 0.184041500091552734
0.124825663864612579 0.116451248526573181 0.316828221082687378
-0.120653428137302399 0.250928550958633423 0.161979019641876221
-0.582959830760955811 0.34844440221786499 0.0584335774183273315
0.427133530378341675 -0.347763001918792725 0.15317361056804657
-0.566374897956848145 0.295385509729385376 -0.0687080100178718567
0.252227753400802612 0.0271456576883792877 -0.079461514949798584
0.248014137148857117 0.100840173661708832 -0.0482277646660804749
-0.357116997241973877 -0.0553781427443027496 -0.141712486743927002
