ply
format ascii 1.0
element vertex 738
property float x
property float y
property float z
end_header
0.0323925353586673737 0.118292525410652161 0.0912906154990196228
0.321559160947799683 -0.172144129872322083 0.0109479557722806931
0.301477968692779541 -0.124235324561595917 -0.0411740876734256744
-0.377023935317993164 -0.00813302677124738693 -0.030125470831990242
0.448504865169525146 -0.272852867841720581 0.094759814441204071
0.31788170337677002 -0.117518797516822815 0.0139593249186873436
0.157963752746582031 -0.0914863646030426025 0.212943747639656067
-0.16210918128490448 0.146220803260803223 0.0704369321465492249
0.456465870141983032 -0.108654066920280457 -0.230889096856117249
-0.577340960502624512 0.244187325239181519 -0.119906708598136902
-0.571358084678649902 0.294475346803665161 -0.0640985295176506042
0.518103539943695068 -0.242481157183647156 -0.158295899629592896
-0.369531869888305664 0.098274528980255127 -0.0740375891327857971
-0.613740086555480957 0.263410657644271851 0.0385298915207386017
0.343165725469589233 -0.329100638628005981 -0.105926312506198883
0.340678036212921143 -0.189506843686103821 0.160705223679542542
0.53241264820098877 -0.247569337487220764 0.0931136682629585266
0.14377419650554657 0.0784484818577766418 0.092397056519985199
-0.572088062763214111 0.30481034517288208 -0.0513548776507377625
0.271472066640853882 0.00510667171329259872 0.0711665153503417969
-0.624980628490447998 0.192872583866119385 -0.0882820487022399902
-0.461072951555252075 0.291574031114578247 -0.0618100091814994812
-0.152366355061531067 0.179826885461807251 0.0908826440572738647
-0.548926472663879395 0.173839569091796875 -0.0440629087388515472
-0.543629884719848633 0.277461439371109009 0.171611636877059937
0.401245415210723877 -0.23400840163230896 -0.0231729485094547272
0.286882162094116211 -0.0626636818051338196 -0.0966452136635780334
0.221833035349845886 0.0398821793496608734 -0.0699955001473426819
0.103420369327068329 -0.138776093721389771 0.210893437266349792
0.115514621138572693 0.0722279399633407593 0.316544145345687866
-0.370358824729919434 0.118011228740215302 0.236839070916175842
-0.0229266844689846039 -0.0578059069812297821 0.137512102723121643
0.221970677375793457 -0.236299127340316772 0.0977459177374839783
0.0758734643459320068 0.0646288841962814331 0.0342994779348373413
-0.383706182241439819 -0.0585075505077838898 0.104144357144832611
0.104413524270057678 0.0788552239537239075 0.12622581422328949
0.252314239740371704 0.0285094063729047775 -0.0655757412314414978
-0.37213483452796936 0.269078493118286133 0.113533161580562592
0.0325383543968200684 -0.0559436865150928497 0.302232444286346436
-0.0147837242111563683 0.137440532445907593 0.0921694934368133545
-0.501411557197570801 0.0952761992812156677 -0.12791500985622406
-0.345619529485702515 0.0119788264855742455 0.150541633367538452
0.52681499719619751 -0.0547927133738994598 -0.308862209320068359
-0.500032961368560791 0.135553926229476929 -0.240914195775985718
0.473093360662460327 -0.269227087497711182 0.113537721335887909
0.377147257328033447 -0.134119793772697449 -0.0475856810808181763
0.234988957643508911 0.0927175581455230713 -0.0401370599865913391
0.137585461139678955 0.0125976009294390678 0.284785270690917969
0.520793557167053223 -0.204741373658180237 -0.0879499912261962891
-0.536249935626983643 0.124404929578304291 -0.105814218521118164
-0.579118430614471436 0.292355716228485107 -0.00110636011231690645
0.482806891202926636 -0.32531273365020752 0.10045488178730011
0.499547094106674194 -0.269781619310379028 0.0362475551664829254
0.493186533451080322 -0.330295741558074951 -0.0626697242259979248
-0.483325004577636719 0.119897857308387756 -0.0455846264958381653
-0.59140467643737793 0.30113828182220459 0.175554797053337097
0.483589798212051392 -0.323207765817642212 0.134793952107429504
0.505952715873718262 -0.303711354732513428 -0.103643849492073059
-0.380947649478912354 0.31659245491027832 0.158610805869102478
-0.546201765537261963 0.334008723497390747 0.134157434105873108
0.460613280534744263 -0.25963902473449707 0.115264490246772766
0.534015059471130371 -0.207499921321868896 -0.0875828936696052551
0.513495147228240967 -0.231896877288818359 -0.304530084133148193
-0.553846836090087891 0.259210348129272461 -0.0209249816834926605
0.461511433124542236 -0.304846197366714478 0.109304159879684448
-0.451807588338851929 0.112315446138381958 -0.224964931607246399
0.486454278230667114 -0.314323395490646362 -0.303198814392089844
-0.55927574634552002 0.317219585180282593 0.354520320892333984
0.17961294949054718 -0.10443318635225296 -0.0159839168190956116
0.306503176689147949 0.0179409962147474289 -0.111411541700363159
0.506482958793640137 -0.338097602128982544 0.0252363570034503937
0.404928475618362427 0.0224746372550725937 0.00850739795714616776
0.475368648767471313 -0.288353115320205688 -0.299665540456771851
0.0108975004404783249 0.153777927160263062 0.0575668178498744965
0.52330094575881958 -0.300629198551177979 -0.0975786894559860229
-0.3806113600730896 0.333523213863372803 0.204857483506202698
-0.55080801248550415 0.337071806192398071 0.124597661197185516
0.418708562850952148 -0.25288507342338562 0.0983020588755607605
-0.579936623573303223 0.207972005009651184 -0.214895427227020264
0.278698503971099854 -0.0854231789708137512 0.190763026475906372
-0.129442349076271057 0.224114462733268738 0.12655813992023468
-0.382000625133514404 0.103577658534049988 -0.0632802620530128479
0.551617562770843506 -0.220357984304428101 0.114602863788604736
0.38385888934135437 -0.242776796221733093 0.314133584499359131
-0.552536308765411377 0.162721917033195496 0.0798168927431106567
-0.134120911359786987 0.201025396585464478 0.168454632163047791
0.242613449692726135 0.10970732569694519 -0.0487380251288414001
0.116844065487384796 0.0394298285245895386 0.328319787979125977
-0.558916807174682617 0.277638942003250122 0.00251184054650366306
0.320144385099411011 -0.132985517382621765 -0.0794658064842224121
-0.574786067008972168 0.200000554323196411 -0.225842610001564026
0.208209589123725891 0.117704302072525024 0.0454219840466976166
0.463932842016220093 -0.308506280183792114 0.135071799159049988
-0.585089266300201416 0.319376856088638306 -0.0247880872339010239
0.530597865581512451 -0.253681540489196777 0.098553292453289032
-0.309504598379135132 0.082095608115196228 -0.0722060725092887878
-0.449289441108703613 0.0080676153302192688 -0.140097305178642273
-0.300842553377151489 0.290302127599716187 0.146354466676712036
-0.526196956634521484 0.181262776255607605 -0.215157940983772278
-0.391401499509811401 -0.0591001808643341064 0.100823506712913513
-0.54507523775100708 0.262438774108886719 -0.164614036679267883
0.313940763473510742 -0.33441045880317688 0.198022454977035522
-0.0594335868954658508 0.0935485735535621643 0.3213043212890625
-0.101292088627815247 0.143379226326942444 0.0936378166079521179
0.499940425157546997 -0.363060265779495239 0.0766878873109817505
0.349175333976745605 -0.283054620027542114 -0.134673580527305603
-0.412037938833236694 0.19765724241733551 0.0364339202642440796
-0.344814568758010864 0.251284956932067871 -0.0133940977975726128
-0.267138183116912842 0.0785276517271995544 -0.0145519301295280457
-0.180414825677871704 0.0182235259562730789 0.0397201888263225555
-0.553070902824401855 0.212262421846389771 -0.0473090745508670807
0.408011078834533691 -0.401020705699920654 -0.215278685092926025
0.517801582813262939 -0.285352915525436401 -0.0998808518052101135
0.395459800958633423 -0.264582514762878418 -0.193312555551528931
0.498031735420227051 -0.274397730827331543 -0.300323963165283203
0.434721052646636963 -0.257448107004165649 -0.00148372945841401815
-0.154130145907402039 -0.244556412100791931 0.148965910077095032
-0.629805803298950195 0.194056913256645203 -0.0475993715226650238
-0.354655325412750244 -1.29623094835551456e-06 -0.151053130626678467
-0.500805258750915527 0.14583924412727356 0.346245825290679932
-0.331262528896331787 0.29932209849357605 0.191071406006813049
-0.334281831979751587 -0.0320049002766609192 -0.132198095321655273
0.113515213131904602 0.095158405601978302 0.0295212268829345703
0.470268130302429199 -0.135124579071998596 0.0998444929718971252
0.399207204580307007 -0.3051605224609375 0.145524919033050537
-0.456903606653213501 0.167184546589851379 0.116857528686523438
-0.535952091217041016 0.286931663751602173 0.0421914085745811462
-0.275977283716201782 -0.128085330128669739 0.0820083916187286377
-0.48266899585723877 0.248735606670379639 -0.102823816239833832
0.171465620398521423 -0.272294282913208008 0.0368901118636131287
-0.344299554824829102 0.103038817644119263 0.00664814561605453491
-0.365594714879989624 0.282529681921005249 0.0870795547962188721
0.386768966913223267 -0.230131223797798157 -0.12133442610502243
-0.352752000093460083 0.00201609823852777481 0.035386301577091217
-0.517698049545288086 0.201598063111305237 0.0492687039077281952
-0.384588390588760376 0.182381078600883484 0.0922447368502616882
-0.571425437927246094 0.327801495790481567 -0.0115079823881387711
-0.338754713535308838 -0.0881699919700622559 -0.0538312941789627075
-0.136602416634559631 -0.269444197416305542 0.130500048398971558
0.275328099727630615 -0.166022613644599915 0.0553611889481544495
0.313410192728042603 -0.302754104137420654 -0.12796466052532196
-0.3808726966381073 0.24987947940826416 0.233461275696754456
0.311008155345916748 -0.217342928051948547 0.201560169458389282
0.496536999940872192 -0.255084723234176636 -0.104989439249038696
-0.118585161864757538 0.0722112357616424561 0.173781707882881165
0.512715339660644531 -0.362136304378509521 -0.0302755832672119141
-0.508785605430603027 0.268641680479049683 -0.00479634245857596397
-0.59482806921005249 0.243558302521705627 -0.00253690825775265694
-0.585961222648620605 0.250629454851150513 0.194416716694831848
-0.547434568405151367 0.120906665921211243 -0.133965492248535156
-0.244594857096672058 0.18233838677406311 0.357041299343109131
0.462642312049865723 -0.264323681592941284 -0.289878427982330322
0.456365853548049927 -0.256079524755477905 -0.186427831649780273
0.519609034061431885 -0.303008019924163818 0.0449628010392189026
-0.625335395336151123 0.199877172708511353 0.0451063737273216248
-0.255452364683151245 -0.00506229838356375694 -0.0619655773043632507
0.245865345001220703 0.0988182276487350464 -0.0685741901397705078
0.505164980888366699 -0.160131752490997314 0.131306618452072144
0.343467533588409424 -0.0702011436223983765 0.162458121776580811
0.400123417377471924 -0.237295970320701599 0.130764007568359375
-0.359352171421051025 -0.119272641837596893 0.116646379232406616
-0.478685826063156128 0.189180105924606323 0.0641351938247680664
-0.574313163757324219 0.341630667448043823 0.0254696328192949295
-0.358707278966903687 -0.0638048499822616577 0.0910309478640556335
-0.342444032430648804 0.0112132560461759567 -0.114194601774215698
0.303318828344345093 -0.296101212501525879 0.162466093897819519
-0.504299759864807129 0.220535203814506531 0.142060115933418274
-0.484875291585922241 0.0279986020177602768 -0.0466732196509838104
0.0336447395384311676 0.0876320526003837585 0.0880999937653541565
-0.231088384985923767 0.34682270884513855 0.148961782455444336
0.032335575670003891 0.0101859727874398232 0.0423437058925628662
-0.365413099527359009 -0.0371782518923282623 -0.0325444899499416351
-0.0478368513286113739 -0.234614938497543335 0.301936358213424683
0.186221256852149963 -0.293140947818756104 0.00405166670680046082
0.235084772109985352 -0.0118548739701509476 0.230582982301712036
-0.526143312454223633 0.140243887901306152 0.0682242587208747864
-0.519962430000305176 0.201025232672691345 -0.0671331286430358887
-0.551901400089263916 0.285334587097167969 0.107712522149085999
0.144187375903129578 0.00746883638203144073 0.308053195476531982
0.0682760700583457947 -0.286509335041046143 -0.0811632797122001648
-0.361680716276168823 0.0348564423620700836 -0.160928666591644287
0.307661116123199463 -0.293912410736083984 0.0299602411687374115
-0.338897824287414551 0.212984681129455566 0.159373775124549866
-0.187783226370811462 0.199650749564170837 0.367916107177734375
-0.539729297161102295 0.254498541355133057 -0.083851158618927002
0.52279895544052124 -0.199879452586174011 -0.092191159725189209
-0.518722057342529297 0.184907779097557068 0.136683031916618347
-0.543327033519744873 0.269603312015533447 -0.00218276586383581161
0.471318662166595459 -0.326539337635040283 0.0450464673340320587
0.289248347282409668 0.0307578090578317642 0.0541502609848976135
0.433480381965637207 -0.306309938430786133 -0.284576147794723511
-0.518330931663513184 0.0896362811326980591 -0.134812593460083008
-0.600277066230773926 0.284937232732772827 0.18416944146156311
0.467854022979736328 -0.321478188037872314 0.127809479832649231
0.467803537845611572 -0.260833650827407837 -0.293142110109329224
-0.403668433427810669 0.300111681222915649 0.143002793192863464
-0.453963518142700195 0.11907447874546051 -0.223632156848907471
0.481721103191375732 -0.312127828598022461 -0.301962196826934814
0.468398600816726685 -0.331012547016143799 -0.00254537630826234818
0.457462340593338013 -0.305560052394866943 -0.291900604963302612
0.524435102939605713 -0.262245059013366699 -0.101570330560207367
-0.408427804708480835 0.318219602108001709 0.162856191396713257
-0.560528278350830078 0.267166554927825928 0.365408450365066528
-0.575874030590057373 0.21022498607635498 -0.20048387348651886
0.447613447904586792 -0.296870321035385132 -0.222543269395828247
0.31073915958404541 -0.0765286311507225037 0.149205192923545837
0.534843623638153076 -0.248589619994163513 0.101599112153053284
-0.562333464622497559 0.119437240064144135 -0.232942640781402588
-0.407915085554122925 0.0762542113661766052 -0.116289801895618439
-0.579392611980438232 0.356005191802978516 0.0828512609004974365
0.041773676872253418 0.114122316241264343 0.312516719102859497
-0.45641365647315979 0.00840131659060716629 0.181818053126335144
0.409667700529098511 -0.344276487827301025 0.16031704843044281
-0.554430842399597168 0.288131803274154663 -0.0489658154547214508
0.543345868587493896 -0.256251633167266846 0.114031523466110229
0.0242813825607299805 -0.250222265720367432 0.205249086022377014
0.195912569761276245 0.129752770066261292 0.0351996459066867828
0.315763294696807861 -0.370804011821746826 -0.156573772430419922
0.110973238945007324 0.0591749176383018494 0.319255411624908447
-0.314576268196105957 0.306023299694061279 0.284268885850906372
-0.254226714372634888 -0.133150741457939148 -0.0729590877890586853
-0.386290401220321655 -0.0606843382120132446 0.106599532067775726
0.453385919332504272 -0.0729776546359062195 -0.115973018109798431
0.316114962100982666 -0.333442062139511108 0.19615490734577179
0.298093110322952271 0.0379046984016895294 0.0504587776958942413
0.476101815700531006 -0.331299573183059692 0.136779800057411194
0.440012723207473755 -0.267744481563568115 -0.281761467456817627
0.461657136678695679 -0.273379415273666382 0.138341188430786133
0.504264414310455322 -0.346702545881271362 0.01786009781062603
0.519168078899383545 -0.269838124513626099 -0.0867045670747756958
0.49892127513885498 -0.0883532613515853882 0.162193000316619873
0.542497217655181885 -0.215551659464836121 0.111222527921199799
-0.576818406581878662 0.326517015695571899 0.0806604698300361633
0.247008338570594788 0.111061155796051025 -0.0540267191827297211
0.0339625589549541473 0.0679822340607643127 0.272708505392074585
-0.561790764331817627 0.274884700775146484 0.0241968818008899689
-0.61372077465057373 0.27167847752571106 0.0387986674904823303
0.535859167575836182 -0.239533856511116028 0.103255182504653931
-0.575813412666320801 0.212363794445991516 -0.11642591655254364
-0.424833416938781738 0.0302656795829534531 -0.188274070620536804
0.304779350757598877 -0.126671820878982544 -0.107915706932544708
-0.384903699159622192 -0.0561975128948688507 0.100842170417308807
-0.603022992610931396 0.259211450815200806 0.0177032854408025742
-0.460421353578567505 0.305907100439071655 0.0814168602228164673
0.505120992660522461 -0.264200299978256226 -0.10881129652261734
0.534847259521484375 -0.192626267671585083 0.0290908347815275192
-0.615967929363250732 0.210136190056800842 -0.0558460801839828491
0.452830642461776733 -0.123859032988548279 0.0897584930062294006
0.0339197441935539246 -0.279876977205276489 -0.0355628691613674164
0.402240514755249023 -0.319108694791793823 0.131291702389717102
-0.0935236215591430664 0.0735884532332420349 0.293358713388442993
0.243535146117210388 -0.137049674987792969 0.0114643992856144905
0.161671161651611328 -0.271853059530258179 0.0441830232739448547
-0.59033578634262085 0.368799388408660889 0.0904518812894821167
0.0274116508662700653 -0.0120491711422801018 0.0282096602022647858
0.19615250825881958 0.0337165705859661102 0.178444042801856995
-0.305938541889190674 -0.0918993949890136719 0.305606037378311157
0.493946254253387451 -0.36712723970413208 0.0202434714883565903
0.521838665008544922 -0.311683684587478638 0.0464476644992828369
0.502877414226531982 -0.153753221035003662 0.119363941252231598
0.0811561048030853271 -0.2723807692527771 -0.0592495575547218323
-0.325204521417617798 -0.103711925446987152 0.0885971188545227051
-0.585947334766387939 0.334466218948364258 0.0188384018838405609
-0.0736177414655685425 -0.236180871725082397 0.301796466112136841
0.19464835524559021 -0.3401813805103302 -0.0619963556528091431
-0.398589342832565308 0.271661996841430664 -0.0543684214353561401
-0.521527230739593506 0.0437120385468006134 -0.0574681460857391357
-0.257507264614105225 0.14179837703704834 0.0915140360593795776
-0.213275507092475891 -0.136174306273460388 -0.0630360916256904602
0.508755922317504883 -0.104922205209732056 0.144683137536048889
0.214439928531646729 -0.279937893152236938 -0.00894533377140760422
0.238466531038284302 -0.0763329416513442993 0.127203017473220825
-0.140060141682624817 0.296183198690414429 0.148023888468742371
-0.655760705471038818 0.171130850911140442 -0.112170599400997162
0.253669232130050659 -0.00972536392509937286 0.250249594449996948
0.250527858734130859 -0.179127663373947144 0.30297514796257019
-0.262807756662368774 -0.137445464730262756 -0.0674433112144470215
-0.200450897216796875 0.313992232084274292 0.099167749285697937
0.258026182651519775 -0.278343707323074341 0.323297441005706787
0.179176852107048035 -0.0543127097189426422 -0.0506321005523204803
-0.443088799715042114 -0.0671487599611282349 0.129268422722816467
-0.503579556941986084 0.029589872807264328 0.247335329651832581
-0.496810197830200195 0.0360691845417022705 -0.0114300372079014778
0.232988104224205017 0.0225500259548425674 0.314324676990509033
-0.371162116527557373 -0.0462482720613479614 0.143546834588050842
-0.348649770021438599 0.106107801198959351 0.066198982298374176
0.307859361171722412 -0.199075013399124146 0.243221327662467957
0.308710068464279175 -0.00576075771823525429 0.21990165114402771
-0.4425010085105896 0.266181826591491699 -0.0370114408433437347
0.517330408096313477 -0.326786220073699951 -0.0808590203523635864
-0.538526713848114014 0.138063549995422363 -0.0968885421752929688
0.465993970632553101 -0.124631933867931366 0.0024257865734398365
-0.385046154260635376 0.254915028810501099 0.032994784414768219
0.494142740964889526 -0.302169978618621826 0.121509172022342682
0.465540766716003418 -0.106383234262466431 0.0600073449313640594
0.204078689217567444 0.0149625595659017563 -0.0418366827070713043
-0.224221080541610718 0.295355141162872314 0.158872604370117188
-0.124797910451889038 -0.0493591241538524628 0.0111568979918956757
-0.231403574347496033 0.227965757250785828 0.348291933536529541
-0.380556255578994751 -0.0548098310828208923 0.145659133791923523
0.341494321823120117 -0.0739736929535865784 0.0480969436466693878
-0.435699433088302612 -0.0126964645460247993 0.0342865139245986938
0.205740243196487427 0.0163755696266889572 0.0707622244954109192
0.0565645880997180939 -0.0863141641020774841 0.239527851343154907
-0.383642673492431641 -0.059996340423822403 0.11677609384059906
-0.136467576026916504 -0.265243172645568848 -0.000958475691732019186
-0.243456140160560608 0.0631112158298492432 0.245009467005729675
-0.541833102703094482 0.210428610444068909 0.162970453500747681
-0.59043419361114502 0.286791354417800903 -0.00697724428027868271
0.307278305292129517 0.0174133218824863434 0.0432909168303012848
0.478718727827072144 -0.314948886632919312 -0.304840266704559326
0.503984749317169189 -0.345747202634811401 -0.0632724910974502563
0.471887379884719849 -0.305384159088134766 0.115527123212814331
0.527341365814208984 -0.303101629018783569 -0.108846031129360199
-0.402544796466827393 0.311056584119796753 0.134908109903335571
0.518143057823181152 -0.251448690891265869 -0.306824535131454468
0.507828354835510254 -0.329234421253204346 -0.314202427864074707
0.51905745267868042 -0.331596255302429199 0.0920761823654174805
0.477601438760757446 -0.304418355226516724 -0.302475064992904663
0.527798235416412354 -0.285840809345245361 -0.10746011883020401
-0.55964428186416626 0.26678195595741272 0.365794330835342407
-0.639844834804534912 0.289197355508804321 0.0854634419083595276
0.371694177389144897 -0.401344984769821167 -0.21699129045009613
-0.449493557214736938 -0.0015144650824368 0.175306335091590881
0.17681710422039032 0.0727083161473274231 0.00703806662932038307
-0.453254193067550659 0.134300008416175842 -0.213335752487182617
0.403391242027282715 -0.336115598678588867 0.129433020949363708
-0.5985984206199646 0.206993639469146729 0.00112169969361275434
0.247886538505554199 -0.114738181233406067 -0.0703568160533905029
-0.482850402593612671 0.182349041104316711 -0.209736943244934082
-0.375811338424682617 -0.0635410919785499573 0.0919154807925224304
0.52316129207611084 -0.321181625127792358 0.036382380872964859
0.542639374732971191 -0.217617660760879517 0.108749888837337494
0.525969982147216797 -0.273747742176055908 0.055818311870098114
0.111579328775405884 0.0837348103523254395 0.3175506591796875
-0.350564509630203247 -0.0483347438275814056 0.0452377647161483765
0.105501390993595123 0.0718765184283256531 0.295790225267410278
-0.164898455142974854 0.132627367973327637 0.15159161388874054
0.503023505210876465 -0.256674438714981079 -0.101928941905498505
0.429210484027862549 -0.304101258516311646 0.136411592364311218
-0.355397284030914307 -0.101874291896820068 0.159244894981384277
0.498881667852401733 -0.201804831624031067 -0.107382342219352722
-0.578097701072692871 0.347665160894393921 0.152392596006393433
0.105447642505168915 -0.0117968861013650894 0.0215429980307817459
-0.340883553028106689 -0.123807139694690704 0.104805618524551392
-0.120358265936374664 -0.276040017604827881 0.174279153347015381
-0.160751089453697205 0.166867345571517944 0.32536587119102478
0.515274763107299805 -0.358816206455230713 0.0273140352219343185
0.521310091018676758 -0.287786334753036499 -0.0111507074907422066
0.479145586490631104 -0.140177041292190552 0.108142532408237457
-0.180458948016166687 0.0289147775620222092 0.0261997636407613754
-0.341599255800247192 -0.122028343379497528 0.103949107229709625
-0.599800825119018555 0.376376926898956299 0.188642948865890503
-0.11935870349407196 -0.267151474952697754 0.218522638082504272
0.523720741271972656 -0.309024125337600708 -0.0742470771074295044
0.516589641571044922 -0.252262204885482788 -0.30894780158996582
0.455265343189239502 -0.308368980884552002 -0.293890953063964844
0.240971192717552185 -0.0962250903248786926 0.159056022763252258
-0.619810104370117188 0.271868288516998291 0.0374907217919826508
-0.429569065570831299 -0.00425631040707230568 0.177542492747306824
-0.250009775161743164 -0.137214258313179016 -0.0708222165703773499
0.317646324634552002 -0.319223403930664062 0.12299773097038269
0.539571106433868408 -0.249939963221549988 0.107131168246269226
0.452999651432037354 -0.139968246221542358 0.0159675087779760361
0.429647237062454224 -0.321249604225158691 0.12420259416103363
0.413603454828262329 -0.330963611602783203 -0.209240034222602844
0.47408604621887207 -0.128753006458282471 0.110028527677059174
-0.548546731472015381 0.378161579370498657 0.172846168279647827
0.190904185175895691 -0.340043127536773682 -0.0128954816609621048
-0.201285466551780701 -0.135727018117904663 -0.068155437707901001
-0.185087218880653381 0.311712533235549927 0.118155412375926971
0.103770352900028229 0.107446111738681793 0.174814417958259583
-0.443933308124542236 -0.0547108389437198639 0.0920941159129142761
-0.488964080810546875 0.0296925865113735199 0.0171434395015239716
0.231759682297706604 0.0107524935156106949 0.315400362014770508
-0.0242736730724573135 0.112822592258453369 0.312728613615036011
0.243626028299331665 -0.0388656891882419586 0.205074220895767212
-0.384395748376846313 0.244930773973464966 0.0345860719680786133
-0.653640389442443848 0.216401070356369019 -0.0388835109770298004
0.483265697956085205 -0.116412945091724396 0.0239942688494920731
0.122614368796348572 0.0792534798383712769 0.138953402638435364
-0.381517678499221802 -0.0729768350720405579 0.0958591252565383911
0.320038765668869019 -0.072541452944278717 0.0629117116332054138
-0.440240621566772461 -0.0120177771896123886 0.00714206881821155548
-0.501739621162414551 0.233328789472579956 -0.0707619339227676392
-0.546809256076812744 0.203098371624946594 -0.0681539624929428101
0.0890269726514816284 0.0914377495646476746 0.0804406404495239258
-0.519438624382019043 0.204189375042915344 -0.0468209795653820038
-0.167797669768333435 0.072020605206489563 0.232750251889228821
-0.0569007918238639832 -0.187119722366333008 0.0271345209330320358
-0.212033256888389587 0.290403455495834351 0.109407037496566772
0.250020802021026611 -0.00560210132971405983 0.0228494387120008469
-0.555368304252624512 0.203970149159431458 0.118647865951061249
-0.456879168748855591 0.21604098379611969 0.0248409602791070938
-0.462163716554641724 0.266088038682937622 -0.00240902393124997616
-0.574996590614318848 0.247253820300102234 -0.0760706588625907898
-0.388876825571060181 0.27475854754447937 -0.0837906748056411743
0.34410509467124939 -0.134908631443977356 0.319240540266036987
-0.498159229755401611 0.206455573439598083 -0.0112828761339187622
-0.345511406660079956 0.292462319135665894 -0.0498078241944313049
0.52627253532409668 -0.361245870590209961 0.042211286723613739
-0.539534389972686768 0.21471482515335083 0.201325014233589172
-0.568853378295898438 0.294012874364852905 -0.00278231408447027206
0.316949367523193359 0.0235381629317998886 0.0492776073515415192
0.482335478067398071 -0.307093948125839233 -0.303145676851272583
0.479995071887969971 -0.326509237289428711 0.125797778367996216
0.523490488529205322 -0.307155728340148926 -0.0982353314757347107
0.490687727928161621 -0.310862809419631958 -0.306908637285232544
0.516504585742950439 -0.325232148170471191 0.120261453092098236
0.444874286651611328 -0.300287842750549316 -0.290129214525222778
0.523507118225097656 -0.304706782102584839 -0.0968979522585868835
0.134652987122535706 0.116054780781269073 0.337405025959014893
-0.641980230808258057 0.242250815033912659 -0.00908167660236358643
-0.292207002639770508 -0.114190541207790375 -0.105392239987850189
0.539508342742919922 -0.255675703287124634 0.0926331505179405212
0.129519939422607422 0.0972675979137420654 0.317681163549423218
-0.234808593988418579 -0.143851801753044128 -0.0710533112287521362
0.252825915813446045 0.0298763047903776169 -0.0854085460305213928
0.53124547004699707 -0.323320835828781128 0.00727607589215040207
-0.598941445350646973 0.306956321001052856 0.104803971946239471
0.532365202903747559 -0.244847014546394348 0.0869897603988647461
-0.373696386814117432 -0.0612377189099788666 0.0925758257508277893
0.526853382587432861 -0.275463730096817017 -0.122767247259616852
-0.500798344612121582 0.148271501064300537 0.353252410888671875
0.385483711957931519 -0.297848969697952271 0.132252529263496399
0.13312743604183197 -0.332201540470123291 -0.100053146481513977
0.523052334785461426 -0.355042040348052979 -0.014487365260720253
-0.436057895421981812 0.150138914585113525 -0.0846691206097602844
0.516045987606048584 -0.300296634435653687 0.065144754946231842
0.39344373345375061 -0.36800423264503479 -0.213196814060211182
0.500800013542175293 -0.171658501029014587 0.130488365888595581
0.533515393733978271 -0.334194809198379517 0.0288275685161352158
-0.579502522945404053 0.348468959331512451 0.0406263545155525208
0.520269215106964111 -0.241020679473876953 -0.308189272880554199
-0.600609540939331055 0.370235055685043335 0.104969464242458344
-0.500300347805023193 0.146642521023750305 0.355456531047821045
0.234305694699287415 -0.27812996506690979 0.317683964967727661
-0.180928096175193787 -0.137349769473075867 -0.055313456803560257
-0.22796986997127533 -0.138316676020622253 -0.0532214753329753876
-0.203839570283889771 0.298004895448684692 0.126982241868972778
0.262856990098953247 -0.289934277534484863 0.323984771966934204
-0.361916422843933105 -0.0309487432241439819 0.119792111217975616
-0.499745786190032959 0.0190337132662534714 0.032175842672586441
0.243236705660820007 -0.000167254067491739988 0.322643041610717773
0.141690447926521301 -0.290727853775024414 0.311988383531570435
0.308434903621673584 -0.207790911197662354 0.248555853962898254
-0.385704904794692993 0.254454851150512695 0.0346389412879943848
0.531382322311401367 -0.262467652559280396 0.103356324136257172
0.224462151527404785 0.0224724728614091873 0.305799990892410278
0.530870437622070312 -0.147485613822937012 -0.307692646980285645
-0.644490361213684082 0.23104529082775116 -0.0471155047416687012
0.541552424430847168 -0.311108559370040894 -0.0439921841025352478
0.508111715316772461 -0.267840713262557983 -0.310973554849624634
0.514598309993743896 -0.316197872161865234 -0.294579654932022095
0.459159314632415771 -0.29096415638923645 -0.296056121587753296
-0.542711377143859863 0.267853230237960815 -0.188960626721382141
-0.621049582958221436 0.288611501455307007 0.0669975951313972473
0.363824814558029175 -0.384337455034255981 -0.205619767308235168
-0.0920353159308433533 0.266914486885070801 0.189611971378326416
-0.448068141937255859 0.131012514233589172 -0.208442002534866333
-0.57506406307220459 0.20348009467124939 -0.126711338758468628
-0.629701614379882812 0.191395163536071777 -0.0395466983318328857
-0.469377249479293823 0.13867226243019104 -0.2307424396276474
0.25804784893989563 -0.0172038581222295761 -0.0716151371598243713
0.23091985285282135 0.0537128075957298279 -0.0446942299604415894
0.113484464585781097 0.109467066824436188 0.301942557096481323
-0.583730518817901611 0.218137249350547791 -0.22106441855430603
-0.5978354811668396 0.234905391931533813 -0.0104333823546767235
-0.36666753888130188 -0.092110075056552887 0.123030044138431549
-0.329657077789306641 -0.125733122229576111 0.137470141053199768
-0.634231150150299072 0.199314236640930176 -0.0379623547196388245
-0.42534250020980835 -0.0552831925451755524 0.0994521528482437134
-0.477714896202087402 0.0198124013841152191 -0.0362622886896133423
0.209053859114646912 0.0083415275439620018 0.301170289516448975
-0.633808016777038574 0.247776150703430176 -0.00565556949004530907
-0.127607807517051697 0.269573330879211426 0.132506057620048523
0.271417766809463501 -0.330488920211791992 0.180442094802856445
0.533312737941741943 -0.210226729512214661 -0.0983845368027687073
-0.126061737537384033 -0.112898156046867371 -0.0545086078345775604
0.454475492238998413 -0.338936865329742432 -0.297589749097824097
-0.212205693125724792 0.035960417240858078 -0.0593745969235897064
-0.552827954292297363 0.175445035099983215 0.0131116872653365135
-0.198112756013870239 0.139335900545120239 0.0214362498372793198
-0.0121399201452732086 -0.102721221745014191 -0.0426245257258415222
0.265093684196472168 -0.275107592344284058 0.202785089612007141
0.349019050598144531 -0.321218818426132202 0.000387972831958904862
-0.155533090233802795 0.0695156529545783997 0.0278302133083343506
-0.248800352215766907 0.13050214946269989 -0.0341388247907161713
0.199528828263282776 0.00152659113518893719 0.0194910913705825806
0.0767853632569313049 0.0806812196969985962 0.0243222285062074661
-0.283008188009262085 0.287968218326568604 -0.00564993266016244888
0.477228909730911255 -0.289851069450378418 -0.301215499639511108
-0.556503474712371826 0.265448957681655884 -0.0169252157211303711
-0.236991167068481445 0.0973524376749992371 -0.0321549810469150543
0.138221219182014465 -0.281066596508026123 0.150358065962791443
0.296722412109375 -0.297521650791168213 0.0573118440806865692
-0.285625815391540527 0.256951838731765747 0.000830888107884675264
-0.0206526238471269608 -0.0405946634709835052 0.0892882272601127625
0.204904243350028992 0.0426064804196357727 0.0661059319972991943
-0.143343403935432434 -0.0854684114456176758 0.0919525027275085449
0.372836917638778687 -0.07347860187292099 0.032012350857257843
0.521617591381072998 -0.199163943529129028 -0.0980715453624725342
0.487371951341629028 -0.297853201627731323 -0.304877609014511108
0.480715781450271606 -0.314967721700668335 0.122696816921234131
0.513870716094970703 -0.30726546049118042 -0.101981528103351593
0.496294409036636353 -0.309485852718353271 -0.309250295162200928
0.506432950496673584 -0.32792586088180542 -0.00371910678222775459
0.512006878852844238 -0.324667751789093018 0.118726201355457306
0.466159969568252563 -0.288751542568206787 -0.296068251132965088
0.43827444314956665 -0.263469696044921875 -0.19382612407207489
0.13546028733253479 0.11670248955488205 0.337321192026138306
0.396838009357452393 -0.244514897465705872 0.319082051515579224
-0.601278781890869141 0.3540077805519104 0.0658645406365394592
-0.504869699478149414 0.356845289468765259 0.178547322750091553
0.54288405179977417 -0.282631158828735352 0.098295949399471283
0.256768703460693359 0.0368337780237197876 -0.0716110095381736755
-0.232802271842956543 0.155695587396621704 -0.0049969223327934742
0.506423890590667725 -0.332094013690948486 -0.00214281282387673855
0.445076853036880493 -0.250047594308853149 -0.227537751197814941
-0.638821244239807129 0.254245668649673462 0.0548909679055213928
0.532860040664672852 -0.262800037860870361 0.093618541955947876
-0.392879843711853027 -0.0596129521727561951 0.100633338093757629
0.524165987968444824 -0.289731860160827637 -0.0916791483759880066
0.028353644534945488 -0.274362564086914062 -0.0350273288786411285
0.38544955849647522 -0.306180179119110107 0.119182378053665161
-0.581964671611785889 0.366529911756515503 0.132013991475105286
0.240554094314575195 0.00279937288723886013 0.18148118257522583
-0.112711183726787567 0.165189698338508606 0.347708195447921753
0.48245704174041748 -0.368461042642593384 -0.0216593407094478607
0.412527531385421753 -0.321205109357833862 -0.210573852062225342
0.507520973682403564 -0.155618563294410706 0.124408520758152008
0.529068708419799805 -0.33482477068901062 0.0132045987993478775
-0.583903849124908447 0.336153417825698853 0.0344526097178459167
-0.590539634227752686 0.381631553173065186 0.131575629115104675
0.526560425758361816 -0.244379907846450806 -0.31016618013381958
0.474698275327682495 -0.290772378444671631 -0.298966109752655029
-0.597011148929595947 0.35340505838394165 0.169959619641304016
-0.587128818035125732 0.371175676584243774 0.10143628716468811
-0.211780861020088196 -0.129821896553039551 -0.0574397630989551544
0.234635576605796814 -0.293223559856414795 0.315251797437667847
0.238353922963142395 0.0669731050729751587 0.320399194955825806
0.542108893394470215 -0.313944727182388306 -0.057711426168680191
-0.444489657878875732 -0.0487457700073719025 0.127283215522766113
0.359864622354507446 -0.388415038585662842 -0.208567306399345398
-0.556339144706726074 0.210933059453964233 -0.113288067281246185
0.521073698997497559 -0.279616624116897583 -0.176672056317329407
0.242213517427444458 0.0346166789531707764 0.31487622857093811
0.243081718683242798 0.000381584482965990901 0.0240768697112798691
0.380946427583694458 0.0388373248279094696 0.0123711191117763519
0.527030706405639648 -0.230676561594009399 -0.309669673442840576
0.327277004718780518 0.0961935296654701233 -0.0354263782501220703
-0.37399977445602417 -0.0605263747274875641 -0.132634624838829041
0.513146281242370605 -0.167623907327651978 0.136293932795524597
-0.574279069900512695 0.321748048067092896 0.049811042845249176
-0.558825254440307617 0.283097177743911743 0.364333093166351318
0.224755614995956421 0.0319240540266036987 -0.0577497556805610657
-0.574116647243499756 0.214451044797897339 -0.220701485872268677
-0.043970450758934021 0.156408250331878662 0.0815193131566047668
0.114417977631092072 0.109972752630710602 0.025838242843747139
0.34303554892539978 -0.247039660811424255 -0.0964477285742759705
-0.284802883863449097 0.300178021192550659 -0.00254354905337095261
0.15362994372844696 -0.00444895122200250626 -0.00317697646096348763
0.0693858563899993896 0.138725370168685913 0.0760138705372810364
-0.269791364669799805 0.279929965734481812 0.00198354432359337807
0.503618538379669189 -0.292669057846069336 -0.158914029598236084
0.137296766042709351 -0.0258899983018636703 0.0134925385937094688
-0.338811010122299194 -0.0322967581450939178 0.0230340901762247086
0.373649835586547852 -0.0918775796890258789 0.044717784970998764
0.200250715017318726 0.101215757429599762 -0.00138034927658736706
-0.297042489051818848 -0.0253224018961191177 0.0361719131469726562
0.132102057337760925 -0.0178740043193101883 -0.0257013551890850067
0.101728528738021851 0.0159428045153617859 0.0915670469403266907
0.175992712378501892 0.119309626519680023 0.0384399965405464172
-0.2302713543176651 -0.0639595687389373779 0.104869700968265533
0.486355692148208618 -0.296716183423995972 -0.303105205297470093
-0.602990388870239258 0.289215385913848877 0.185406580567359924
0.467440217733383179 -0.30884513258934021 0.120456404983997345
0.378515034914016724 -0.0144714396446943283 0.00685247033834457397
0.514617919921875 -0.295397818088531494 -0.103071190416812897
0.51910245418548584 -0.239768698811531067 -0.307170569896697998
0.478195011615753174 -0.309784471988677979 -0.299862414598464966
0.483657330274581909 -0.274564743041992188 -0.299481898546218872
0.117529928684234619 0.118596456944942474 0.297891467809677124
-0.583980560302734375 0.356068134307861328 0.0660800710320472717
0.384002894163131714 -0.337474554777145386 0.125866249203681946
-0.574249863624572754 0.317432582378387451 -0.0262556225061416626
-0.604229331016540527 0.216900989413261414 -0.0865835323929786682
0.26803705096244812 0.0392380319535732269 -0.0857972800731658936
-0.356170356273651123 -0.0224342383444309235 -0.130914613604545593
-0.564059197902679443 0.314055055379867554 -0.007619472686201334
0.190974012017250061 -0.340955585241317749 -0.0744305998086929321
0.404463708400726318 -0.357695311307907104 -0.22363126277923584
-0.500049173831939697 0.14522649347782135 0.354800313711166382
0.509821534156799316 -0.15157635509967804 0.115384750068187714
0.497117877006530762 -0.263973027467727661 -0.303966373205184937
0.458246380090713501 -0.280926167964935303 -0.289317816495895386
0.441214919090270996 -0.265006929636001587 -0.283274233341217041
-0.587797105312347412 0.357174485921859741 0.0619963258504867554
0.50542527437210083 -0.126893624663352966 0.124807782471179962
-0.205938622355461121 0.312171876430511475 0.108973637223243713
0.268446147441864014 -0.284245669841766357 0.319447040557861328
0.232838436961174011 0.00337050622329115868 0.318165212869644165
0.513505041599273682 -0.175709515810012817 -0.281314641237258911
-0.114917196333408356 0.00967093184590339661 0.00618775235489010811
0.404195994138717651 -0.359724223613739014 -0.224254846572875977
0.4178733229637146 -0.313409000635147095 0.144123226404190063
-0.55527794361114502 0.376159429550170898 0.187002703547477722
-0.17535090446472168 0.308852612972259521 0.118658594787120819
-0.389472693204879761 0.275730162858963013 -0.0847919732332229614
0.365514993667602539 0.0517692677676677704 0.02507023885846138
0.129492640495300293 0.115493066608905792 0.319120079278945923
-0.286241650581359863 -0.100867904722690582 -0.0918425992131233215
0.258421957492828369 0.100855275988578796 -0.0615673959255218506
-0.3610096275806427 -0.0600783452391624451 -0.143894821405410767
0.134438678622245789 0.113452956080436707 0.338063895702362061
-0.56288599967956543 0.199107348918914795 -0.228683099150657654
-0.27611956000328064 0.287696570158004761 -0.000648277811706066132
0.455164581537246704 -0.246495544910430908 -0.28785860538482666
0.460509032011032104 -0.27545696496963501 -0.29038432240486145
-0.634645521640777588 0.307856082916259766 0.17062753438949585
0.512740850448608398 -0.317580610513687134 -0.0381819307804107666
0.469212830066680908 -0.265854150056838989 -0.297513216733932495
0.478426277637481689 -0.295074820518493652 -0.299794137477874756
0.458420813083648682 -0.246278896927833557 -0.289430081844329834
0.381437122821807861 -0.361061751842498779 -0.213446289300918579
-0.479207813739776611 -0.0129311047494411469 0.18602396547794342
-0.516242682933807373 0.365423411130905151 0.174255400896072388
-0.61831355094909668 0.201796501874923706 -0.0868435651063919067
-0.237007811665534973 0.0185530800372362137 -0.0722820311784744263
-0.382336407899856567 -0.059366956353187561 0.0239110514521598816
0.475135356187820435 -0.368466019630432129 0.0222028978168964386
-0.649039685726165771 0.236495569348335266 0.0325278677046298981
0.412885069847106934 -0.346793085336685181 -0.221226811408996582
0.526314616203308105 -0.337281703948974609 0.0804375335574150085
0.506300747394561768 -0.239068403840065002 -0.307628422975540161
0.249802708625793457 -0.282432794570922852 0.318497508764266968
0.239509567618370056 0.0664047002792358398 0.314945757389068604
0.539827585220336914 -0.301932245492935181 -0.0932616367936134338
-0.447644591331481934 -0.041748046875 0.126717656850814819
-0.0435332357883453369 0.104190848767757416 0.318005174398422241
0.248265653848648071 0.0208603031933307648 0.322503596544265747
-0.28456529974937439 -0.0999973416328430176 -0.0988577902317047119
-0.137441426515579224 -0.015326070599257946 -0.0485284104943275452
-0.277582079172134399 0.3375568687915802 0.0472279265522956848
-0.254411607980728149 0.289615005254745483 -0.00296998047269880772
-0.21860155463218689 0.321596294641494751 0.0700861960649490356
-0.573019623756408691 0.152006223797798157 -0.0741777122020721436
-0.289656847715377808 0.292398661375045776 0.0162895359098911285
0.525884151458740234 -0.320780366659164429 0.0275656599551439285
0.346396505832672119 -0.0305610857903957367 -0.0340211875736713409
0.522504210472106934 -0.363049179315567017 0.0897676423192024231
-0.0829931870102882385 -0.112084098160266876 0.0787089690566062927
-0.40371471643447876 0.325695216655731201 0.121420018374919891
0.505026757717132568 -0.36718982458114624 -0.00409157946705818176
-0.118384592235088348 0.265833020210266113 0.121203742921352386
0.518984377384185791 -0.343078166246414185 0.036231309175491333
0.130539342761039734 -0.334901154041290283 0.301449179649353027
0.466889828443527222 -0.311177819967269897 0.0728504881262779236
0.48313632607460022 -0.374133020639419556 0.0527127310633659363
0.421347886323928833 -0.0261301752179861069 0.0653019919991493225
0.494423419237136841 -0.363646566867828369 -0.015135529451072216
-0.232658609747886658 0.286853402853012085 0.0843669325113296509
0.531481266021728516 -0.331871896982192993 -0.00683140615001320839
-0.271659970283508301 0.315078228712081909 0.114165805280208588
0.308542579412460327 0.0025023333728313446 0.0467245206236839294
0.467694997787475586 -0.263462811708450317 -0.295584678649902344
0.474081903696060181 -0.304463177919387817 0.114613652229309082
0.511443495750427246 -0.313729166984558105 -0.103970631957054138
0.509449124336242676 -0.245417132973670959 -0.307949274778366089
0.448232144117355347 -0.292559057474136353 -0.292279511690139771
0.466661632061004639 -0.283321231603622437 -0.296791166067123413
0.138670876622200012 0.112573310732841492 0.337005972862243652
-0.651886403560638428 0.285461872816085815 0.0983121767640113831
-0.63806450366973877 0.244590535759925842 -0.037874516099691391
0.136650413274765015 0.0690538734197616577 0.33812326192855835
-0.576846659183502197 0.30356442928314209 -0.0552437491714954376
0.262815535068511963 0.0304129160940647125 -0.0730141922831535339
0.5421944260597229 -0.216850519180297852 0.111946485936641693
-0.359802693128585815 -0.0360724441707134247 -0.134096279740333557
-0.574490547180175781 0.327239006757736206 -0.0292632505297660828
-0.361508578062057495 -0.0712790936231613159 -0.0337863974273204803
-0.13028283417224884 -0.267934799194335938 0.119236618280410767
0.495392560958862305 -0.36594545841217041 2.57449755736161023e-05
0.374128937721252441 -0.359460622072219849 -0.209613755345344543
-0.378137499094009399 -0.107305407524108887 0.101457446813583374
-0.0668459758162498474 -0.264375597238540649 0.296601533889770508
0.520126819610595703 -0.24337141215801239 -0.30897068977355957
0.50971674919128418 -0.33068200945854187 0.0156640391796827316
-0.593111515045166016 0.368708282709121704 0.12084043025970459
-0.655119419097900391 0.175457388162612915 -0.102667249739170074
-0.222726985812187195 -0.144465163350105286 -0.0535282045602798462
-0.190929368138313293 0.316361278295516968 0.100937657058238983
0.256905496120452881 -0.283722013235092163 0.319933533668518066
0.239477947354316711 0.0320451371371746063 0.319409936666488647
-0.119798921048641205 -0.0463613495230674744 0.00755870435386896133
-0.641322314739227295 0.308387994766235352 0.102153263986110687
0.365019321441650391 -0.374006986618041992 -0.206531986594200134
0.537983953952789307 -0.217886462807655334 0.1622113436460495
-0.552496135234832764 0.382167398929595947 0.158198386430740356
-0.122168458998203278 0.259049504995346069 0.115339025855064392
0.119790144264698029 0.102307282388210297 0.0897794738411903381
-0.375141233205795288 0.265578091144561768 -0.0893272608518600464
0.517136156558990479 -0.349200248718261719 0.0991331562399864197
-0.293240904808044434 -0.1074671670794487 -0.109101831912994385
0.27533113956451416 0.102911569178104401 -0.0572021827101707458
-0.574850022792816162 0.219356372952461243 -0.212295517325401306
-0.115207403898239136 0.268319368362426758 0.17998775839805603
0.236260354518890381 -0.28820762038230896 0.314612984657287598
0.310427069664001465 -0.187518671154975891 0.241324782371520996
0.542010366916656494 -0.325953692197799683 -0.0205265413969755173
0.0792237371206283569 -0.338015973567962646 0.282382100820541382
-0.00609165523201227188 -0.172095030546188354 0.00450503407046198845
-0.281947314739227295 0.261455506086349487 0.00726730190217494965
0.513380885124206543 -0.237140476703643799 -0.308963805437088013
-0.646685421466827393 0.278017520904541016 0.0798374861478805542
-0.646051466464996338 0.182964757084846497 -0.0905200615525245667
0.514349997043609619 -0.32264283299446106 0.0246730968356132507
-0.406697362661361694 -0.0640133246779441833 0.113673657178878784
0.51707911491394043 -0.355824202299118042 -0.0202316436916589737
-0.56631159782409668 0.374046117067337036 0.152713820338249207
0.23623540997505188 0.0428586900234222412 0.313959300518035889
-0.664561867713928223 0.226898327469825745 0.0234173256903886795
-0.44785270094871521 -0.0388498567044734955 0.127226918935775757
0.50326085090637207 -0.302346855401992798 -0.178439244627952576
-0.588857293128967285 0.360776603221893311 0.0863557979464530945
-0.193771690130233765 0.314633220434188843 0.105052120983600616
0.247249498963356018 0.0237635951489210129 0.324097156524658203
0.531164884567260742 -0.323908716440200806 -0.0576806962490081787
-0.182520687580108643 0.306732535362243652 0.128656819462776184
0.247495204210281372 0.00683698337525129318 0.324226111173629761
0.0589774586260318756 0.13942188024520874 0.345924526453018188
-0.505474269390106201 0.149029195308685303 0.357003659009933472
0.270961910486221313 -0.311468303203582764 0.326478242874145508
-0.253442347049713135 0.02328493632376194 -0.0704994797706604004
0.241307914257049561 -0.295520573854446411 0.322714805603027344
0.249284699559211731 0.0436488352715969086 0.31469300389289856
0.468614280223846436 -0.102041788399219513 0.035035211592912674
-0.124430306255817413 0.194850802421569824 0.115612618625164032
