ply
format ascii 1.0
element vertex 738
property float x
property float y
property float z
end_header
0.26236039400100708 0.0305107720196247101 -0.0736112967133522034
0.541826009750366211 -0.216735407710075378 0.111457422375679016
-0.360101014375686646 -0.0355679206550121307 -0.134444177150726318
-0.574928879737854004 0.327702760696411133 -0.0297672152519226074
-0.361808747053146362 -0.0707307159900665283 -0.0340860150754451752
-0.130564957857131958 -0.267371416091918945 0.119079723954200745
0.495067119598388672 -0.365795433521270752 -0.000502150447573512793
0.373836904764175415 -0.359327971935272217 -0.210204586386680603
-0.378430485725402832 -0.106689363718032837 0.101246573030948639
-0.0670969113707542419 -0.263834625482559204 0.296530961990356445
0.519842445850372314 -0.243289470672607422 -0.309636920690536499
0.509382128715515137 -0.330538630485534668 0.0151456426829099655
-0.593581736087799072 0.369195848703384399 0.120419636368751526
-0.655499637126922607 0.175915181636810303 -0.103247269988059998
-0.223028615117073059 -0.14395102858543396 -0.0537920258939266205
-0.191514641046524048 0.316771596670150757 0.100670970976352692
0.256586164236068726 -0.283417254686355591 0.319682598114013672
0.238997802138328552 0.0322540253400802612 0.319073498249053955
-0.120185688138008118 -0.045945584774017334 0.00723440526053309441
-0.641770422458648682 0.308865815401077271 0.101690448820590973
0.364727526903152466 -0.373868972063064575 -0.207117855548858643
0.537612080574035645 -0.217757821083068848 0.161754906177520752
-0.552975773811340332 0.382670462131500244 0.157840028405189514
-0.122763916850090027 0.259424686431884766 0.115052454173564911
0.119232818484306335 0.102513894438743591 0.089365057647228241
-0.375583231449127197 0.266044378280639648 -0.0897051766514778137
0.516791403293609619 -0.34903252124786377 0.0986626893281936646
-0.293526142835617065 -0.106952503323554993 -0.109391391277313232
0.274824231863021851 0.102995730936527252 -0.0578162893652915955
-0.575203001499176025 0.219780758023262024 -0.212852343916893005
-0.115811832249164581 0.268706083297729492 0.179760664701461792
0.235946744680404663 -0.287886917591094971 0.314376205205917358
0.310051679611206055 -0.18731178343296051 0.240967392921447754
0.541675925254821777 -0.325815677642822266 -0.0210579987615346909
0.0789588317275047302 -0.337553679943084717 0.282249927520751953
-0.00644182367250323296 -0.171707302331924438 0.00419254787266254425
-0.282446801662445068 0.261907339096069336 0.0069449334405362606
0.513096988201141357 -0.237061470746994019 -0.309632986783981323
-0.647125244140625 0.278491735458374023 0.0793522149324417114
-0.646436512470245361 0.183425068855285645 -0.0910928547382354736
0.514012575149536133 -0.322500616312026978 0.0241585131734609604
-0.407007575035095215 -0.0634124279022216797 0.113435663282871246
0.516750693321228027 -0.355678200721740723 -0.0207629036158323288
-0.566787302494049072 0.374545663595199585 0.152339249849319458
0.23574674129486084 0.043065827339887619 0.313620895147323608
-0.664972186088562012 0.227371439337730408 0.0229068957269191742
-0.448170363903045654 -0.0382499769330024719 0.126966267824172974
0.502960026264190674 -0.302240699529647827 -0.179043874144554138
-0.589324593544006348 0.361258417367935181 0.0859091207385063171
-0.19435495138168335 0.315046101808547974 0.10478983074426651
0.246775597333908081 0.0239702630788087845 0.323758214712142944
0.530837655067443848 -0.323776721954345703 -0.0582281090319156647
-0.183105587959289551 0.307145059108734131 0.128411278128623962
0.247031614184379578 0.00704723969101905823 0.323891282081604004
0.0584658235311508179 0.139754414558410645 0.345709621906280518
-0.505837917327880859 0.149621203541755676 0.356805920600891113
0.270647525787353516 -0.311159074306488037 0.326226621866226196
-0.253804564476013184 0.0237507447600364685 -0.0708420872688293457
0.240996569395065308 -0.295198380947113037 0.322479337453842163
0.248795107007026672 0.0438467934727668762 0.314344137907028198
0.46822434663772583 -0.101979613304138184 0.0344546325504779816
-0.124985255300998688 0.195238798856735229 0.115325085818767548
0.239896595478057861 -0.326506346464157104 0.317933976650238037
0.500157535076141357 -0.366571635007858276 0.0745306238532066345
0.523339509963989258 -0.324704140424728394 0.0260766632854938507
0.444505125284194946 -0.253257840871810913 0.332294076681137085
0.321435481309890747 -0.131409496068954468 -0.10682930052280426
0.0632476359605789185 -0.0106498291715979576 0.321672528982162476
0.51121056079864502 -0.360871881246566772 0.0473840720951557159
0.135601982474327087 -0.100606918334960938 0.0404287464916706085
0.049418959766626358 0.011641915887594223 0.0295991320163011551
0.0206562094390392303 0.0483330637216567993 0.0424659997224807739
0.0880329236388206482 -0.065970979630947113 0.289609521627426147
-0.162106126546859741 -0.265449255704879761 0.147978633642196655
0.264805376529693604 -0.0201511364430189133 0.0614006072282791138
-0.0290106721222400665 -0.0288954246789216995 0.295538157224655151
0.502169787883758545 -0.24030672013759613 -0.302214950323104858
0.475957721471786499 -0.314920723438262939 -0.302150815725326538
-0.631073176860809326 0.306500911712646484 0.167204394936561584
0.475381910800933838 -0.320821374654769897 0.120910860598087311
0.509036779403686523 -0.300837427377700806 -0.105702720582485199
0.528214216232299805 -0.274876147508621216 -0.31739470362663269
0.493567615747451782 -0.332385778427124023 -0.310905367136001587
0.503418803215026855 -0.320142090320587158 0.0978973731398582458
0.474204421043395996 -0.305756956338882446 -0.298303842544555664
-0.559462785720825195 0.268285155296325684 0.364411324262619019
0.124835535883903503 0.116900801658630371 0.314155101776123047
-0.633706629276275635 0.282462030649185181 0.0540880225598812103
-0.587516069412231445 0.363011181354522705 0.102251641452312469
0.371565967798233032 -0.374022841453552246 -0.212897494435310364
0.438393950462341309 -0.347983002662658691 0.154250964522361755
0.0579589046537876129 0.121380724012851715 0.321083962917327881
-0.57473301887512207 0.369018644094467163 0.215409711003303528
0.264614969491958618 0.024617120623588562 -0.0588121749460697174
0.368752390146255493 -0.336787551641464233 0.160543471574783325
0.510480821132659912 -0.30155608057975769 -0.112152561545372009
0.133719369769096375 -0.320505797863006592 -0.0978556498885154724
0.516527533531188965 -0.348804563283920288 -0.0204191971570253372
0.389347285032272339 -0.34675636887550354 -0.214257702231407166
-0.57715296745300293 0.319292932748794556 0.0406077280640602112
0.536028861999511719 -0.277845859527587891 -0.32079923152923584
0.467917680740356445 -0.310891121625900269 -0.299439013004302979
0.507141828536987305 -0.347146749496459961 0.0178092606365680695
-0.556057333946228027 0.309929192066192627 0.102095931768417358
0.193972527980804443 -0.339296311140060425 -0.0592508912086486816
0.0702083185315132141 -0.282126128673553467 -0.0779654383659362793
0.252449870109558105 -0.250281751155853271 0.320143252611160278
0.239792376756668091 0.030895942822098732 0.316850960254669189
-0.121045976877212524 -0.0477436557412147522 0.00808935798704624176
0.178747236728668213 -0.100178726017475128 -0.0149041246622800827
0.532409787178039551 -0.332336664199829102 -0.0132977878674864769
0.370424926280975342 -0.349476754665374756 -0.209032565355300903
0.53487706184387207 -0.245912760496139526 0.177175730466842651
0.561155438423156738 -0.315795034170150757 -0.331132471561431885
0.554435193538665771 -0.211802899837493896 0.133813709020614624
-0.543439090251922607 0.380970031023025513 0.164385348558425903
0.122720159590244293 0.117171637713909149 0.133050844073295593
-0.5823935866355896 0.352132320404052734 0.0976449772715568542
-0.481629490852355957 0.186149701476097107 -0.091681361198425293
0.515586793422698975 -0.339224338531494141 0.0387194827198982239
0.253466665744781494 -0.279192507266998291 0.321967989206314087
0.278606027364730835 -0.355943977832794189 -0.126168340444564819
0.507948815822601318 -0.286657005548477173 -0.313865602016448975
-0.43214714527130127 -0.0570879988372325897 0.116651028394699097
0.201819479465484619 0.090440116822719574 0.223303049802780151
0.244171053171157837 0.104505114257335663 -0.0573750957846641541
-0.19581545889377594 0.201627716422080994 0.349311321973800659
0.250355958938598633 0.0248560868203639984 0.323281019926071167
0.239720314741134644 0.0189524143934249878 0.320977121591567993
-0.0315462425351142883 0.162753552198410034 0.382661819458007812
-0.482531636953353882 -0.0155264204367995262 0.180134087800979614
0.48380163311958313 -0.369135379791259766 0.0459693856537342072
-0.643651187419891357 0.287303715944290161 0.0860693752765655518
0.275985479354858398 -0.165863722562789917 -0.0706030875444412231
-0.411806225776672363 -0.0567639879882335663 0.0788612514734268188
-0.643091499805450439 0.175889775156974792 -0.0821705013513565063
-0.225871741771697998 -0.13384796679019928 -0.0522531904280185699
0.25496518611907959 -0.265610188245773315 0.321127116680145264
-0.345308929681777954 0.0174116045236587524 -0.116995938122272491
-0.287047058343887329 -0.0914675518870353699 -0.106554023921489716
-0.585098505020141602 0.209994882345199585 -0.21816195547580719
0.267627626657485962 -0.297063142061233521 0.315203756093978882
-0.0255225375294685364 -0.187237948179244995 -0.0435102395713329315
-0.618182241916656494 0.277102291584014893 0.0312619395554065704
-0.608976781368255615 0.298414826393127441 0.0923539549112319946
-0.397551476955413818 -0.0627665892243385315 0.118860878050327301
-0.451706200838088989 -0.038079041987657547 0.119446024298667908
0.431092530488967896 -0.271879374980926514 0.329172998666763306
-0.0525606907904148102 0.140806064009666443 0.0916681811213493347
-0.503104686737060547 0.151244759559631348 0.355422049760818481
0.240855708718299866 -0.319333642721176147 0.322831809520721436
0.49717414379119873 -0.370957553386688232 0.0572889521718025208
0.399290978908538818 -0.256998956203460693 0.322449773550033569
-0.158259794116020203 -0.263435631990432739 0.181623861193656921
-0.499208748340606689 0.0141217326745390892 0.158040359616279602
0.417583882808685303 -0.297495812177658081 0.328726738691329956
0.535336136817932129 -0.340324848890304565 -0.0185291171073913574
0.34437987208366394 -0.267501264810562134 -0.127952650189399719
-0.496538281440734863 0.0720766335725784302 0.203948810696601868
0.443632215261459351 -0.272325754165649414 0.333400100469589233
0.522064328193664551 -0.335539072751998901 0.032720319926738739
0.453484982252120972 -0.320023030042648315 -0.293177127838134766
0.474260061979293823 -0.311837106943130493 0.116648472845554352
0.517322838306427002 -0.278546899557113647 -0.312977761030197144
0.50277400016784668 -0.326071083545684814 -0.314472466707229614
0.51813817024230957 -0.327265501022338867 0.101860180497169495
0.479433625936508179 -0.311557233333587646 -0.302321702241897583
0.114430107176303864 0.118505597114562988 0.289014518260955811
-0.122120261192321777 0.268649697303771973 0.158769279718399048
-0.614934086799621582 0.265575408935546875 0.0519710183143615723
-0.479426831007003784 0.00313536892645061016 0.181310608983039856
0.426735281944274902 -0.355170696973800659 0.158534705638885498
-0.292222291231155396 -0.110535629093647003 -0.105814307928085327
0.130416318774223328 0.0654171332716941833 0.321229696273803711
0.253683686256408691 0.038544781506061554 -0.0779254436492919922
0.235402494668960571 0.0937337577342987061 -0.0531954504549503326
0.417786926031112671 -0.261693358421325684 -0.202471330761909485
0.521738052368164062 -0.354802519083023071 -0.0195454861968755722
-0.609035849571228027 0.381197065114974976 0.181157618761062622
0.517674446105957031 -0.27944713830947876 -0.31490054726600647
0.499167144298553467 -0.350156784057617188 0.0240035019814968109
-0.588002026081085205 0.369383662939071655 0.112940415740013123
0.505910217761993408 -0.104938246309757233 0.147195592522621155
-0.198212608695030212 0.311581045389175415 0.112910345196723938
0.264074504375457764 -0.286651879549026489 0.319793283939361572
0.236806139349937439 0.0620024129748344421 0.310511380434036255
-0.144484519958496094 -0.0434778109192848206 0.00415543327108025551
-0.657859861850738525 0.214785978198051453 -0.0463248491287231445
-0.288534820079803467 -0.0759255290031433105 -0.0686591863632202148
0.227192521095275879 0.0420256592333316803 -0.0482659153640270233
0.551485180854797363 -0.144696339964866638 0.131949499249458313
0.519778847694396973 -0.295539677143096924 0.0748241618275642395
0.51765972375869751 -0.284218162298202515 -0.181309148669242859
-0.358049958944320679 -0.0170555096119642258 -0.0280067771673202515
0.091357208788394928 0.0880972668528556824 0.0857265740633010864
0.466712534427642822 -0.362050533294677734 -0.0107515612617135048
-0.432973802089691162 0.157800763845443726 -0.0665751248598098755
0.523820102214813232 -0.335810661315917969 0.068828970193862915
0.262934476137161255 -0.286020725965499878 0.318516582250595093
0.00938140694051980972 -0.0910185575485229492 -0.026170557364821434
0.0325706489384174347 -0.130424290895462036 0.0218317657709121704
-0.6308402419090271 0.265090674161911011 0.0289227496832609177
0.242002472281455994 0.0741702467203140259 0.31877744197845459
0.240101173520088196 0.0294210948050022125 0.318864375352859497
-0.175010725855827332 0.300854712724685669 0.116287916898727417
0.304600447416305542 -0.151450663805007935 0.307774841785430908
0.261970371007919312 -0.290819168090820312 0.32100340723991394
-0.476242274045944214 -0.00812767259776592255 0.166184872388839722
0.242631450295448303 0.0816061049699783325 0.312134623527526855
0.520244777202606201 -0.351460903882980347 0.0818674638867378235
-0.0348607376217842102 -0.237592041492462158 0.124107137322425842
-0.638467490673065186 0.290083825588226318 0.0987023636698722839
-0.234185397624969482 -0.132819533348083496 -0.0580397956073284149
-0.37927776575088501 -0.108769252896308899 0.105514861643314362
-0.236390382051467896 -0.147838026285171509 -0.0578839778900146484
-0.658075451850891113 0.214478954672813416 -0.0340284518897533417
0.528881549835205078 -0.352793216705322266 0.0778082236647605896
-0.621292591094970703 0.27035146951675415 0.0523661300539970398
-0.404170006513595581 -0.0643091872334480286 0.112030699849128723
-0.446364641189575195 -0.0414663553237915039 0.121953941881656647
0.268035799264907837 -0.28571513295173645 0.323476314544677734
0.127682521939277649 -0.326636582612991333 0.312627911567687988
0.152339562773704529 -0.343128979206085205 0.317898094654083252
0.447818189859390259 -0.335779845714569092 -0.293149292469024658
0.515781283378601074 -0.303134411573410034 -0.108072385191917419
0.515296339988708496 -0.280418425798416138 -0.312995940446853638
0.484946519136428833 -0.3278370201587677 -0.309952735900878906
0.464431881904602051 -0.346043527126312256 -0.302824884653091431
0.549634873867034912 -0.210395872592926025 -0.316157162189483643
0.524163722991943359 -0.300202071666717529 -0.322647571563720703
0.518030703067779541 -0.301013261079788208 -0.318542838096618652
0.246731624007225037 0.0568890981376171112 0.316370368003845215
0.241196990013122559 0.0873598530888557434 0.31270211935043335
-0.291669279336929321 -0.100543007254600525 -0.10194002091884613
-0.453617513179779053 -0.0519450008869171143 0.117045581340789795
0.404764235019683838 -0.272416383028030396 0.322495788335800171
-0.502467215061187744 0.00382142676971852779 0.189093068242073059
0.401061147451400757 -0.287388712167739868 0.32481461763381958
0.399206221103668213 -0.273710131645202637 0.323292285203933716
0.342240184545516968 -0.259114682674407959 0.0900446176528930664
-0.0187618136405944824 -0.24438871443271637 0.128680288791656494
-0.464581161737442017 0.0360251665115356445 0.189523652195930481
-0.194574475288391113 0.221594586968421936 0.172050967812538147
0.36688646674156189 -0.32940712571144104 -0.0235968250781297684
0.323505252599716187 -0.390204071998596191 -0.158980339765548706
0.535429418087005615 -0.323784530162811279 -0.0583297237753868103
-0.441822320222854614 -0.00469306297600269318 0.152672186493873596
-0.0191797930747270584 -0.0595605745911598206 0.141724571585655212
-0.000209586578421294689 -0.236130893230438232 0.106392540037631989
0.526189565658569336 -0.201974913477897644 -0.0801535993814468384
0.449871540069580078 -0.308468103408813477 -0.293034851551055908
0.526886463165283203 -0.27557864785194397 -0.315849184989929199
0.499969899654388428 -0.325021088123321533 -0.312841832637786865
0.475283652544021606 -0.30518689751625061 -0.297556489706039429
-0.127670705318450928 0.246615543961524963 0.138948053121566772
-0.649176061153411865 0.282108157873153687 0.0940767079591751099
-0.199142530560493469 0.286661326885223389 0.335927367210388184
0.497885406017303467 -0.0869535729289054871 0.136558800935745239
0.200842425227165222 -0.359213322401046753 -0.0908761546015739441
0.505421280860900879 -0.367822855710983276 -0.0228037629276514053
0.527196943759918213 -0.242859512567520142 0.172878623008728027
-0.586158514022827148 0.379413485527038574 0.170546740293502808
0.445089668035507202 -0.315059810876846313 -0.287907809019088745
0.498475790023803711 -0.11131364107131958 0.112070173025131226
-0.655877828598022461 0.175599262118339539 -0.10394403338432312
-0.202182039618492126 0.308780014514923096 0.0891190320253372192
0.201217904686927795 -0.0137217873707413673 0.295250743627548218
0.160008683800697327 -0.0622487552464008331 -0.0441413521766662598
-0.579700112342834473 0.30232846736907959 0.36861419677734375
0.274910658597946167 0.0982257723808288574 -0.0292394012212753296
-0.435337156057357788 0.155505210161209106 -0.0861013159155845642
0.534429728984832764 -0.333194941282272339 0.0126495976001024246
-0.568805277347564697 0.197447121143341064 -0.229244515299797058
-0.497672230005264282 0.0451060198247432709 -0.0869556143879890442
0.0314166508615016937 -0.104035660624504089 0.0329821407794952393
0.534134924411773682 -0.264619499444961548 -0.316495954990386963
0.00959175266325473785 0.197619020938873291 0.0275215674191713333
0.302077025175094604 0.0387379676103591919 -0.084613606333732605
-0.332135915756225586 -0.0159023385494947433 -0.107750415802001953
0.236385047435760498 0.014311385340988636 0.321783900260925293
0.124983817338943481 0.0129051953554153442 0.298962265253067017
0.527503252029418945 -0.35531008243560791 0.0662527084350585938
0.467153310775756836 -0.309964388608932495 -0.233267068862915039
-0.652158141136169434 0.285447984933853149 0.104184724390506744
0.546523451805114746 -0.220142871141433716 0.16343216598033905
0.528035521507263184 -0.323519289493560791 -0.0161429550498723984
-0.38298332691192627 -0.0563063062727451324 0.0762042105197906494
0.456991076469421387 -0.310950607061386108 -0.292733192443847656
0.505047857761383057 -0.33994176983833313 -0.31807941198348999
0.478902190923690796 -0.314432799816131592 -0.299680113792419434
0.520437061786651611 -0.301418215036392212 -0.31750720739364624
-0.0022216129582375288 -0.139982610940933228 -0.0248311962932348251
0.397540509700775146 -0.273267924785614014 0.323467552661895752
0.401209890842437744 -0.271696209907531738 0.323771864175796509
0.506086587905883789 -0.332121580839157104 0.105789639055728912
-0.467578023672103882 0.0425614453852176666 0.170629903674125671
0.410069674253463745 -0.345990091562271118 0.15655672550201416
-0.360709458589553833 -0.0351762436330318451 -0.148148313164710999
-0.128098279237747192 -0.267611056566238403 0.112440906465053558
0.512635171413421631 -0.369161605834960938 -0.0147471074014902115
-0.213801845908164978 0.312583684921264648 0.0976531431078910828
0.250640898942947388 -0.287156522274017334 0.322945237159729004
0.208926230669021606 0.00932647846639156342 -0.0461917035281658173
0.0700499862432479858 -0.151533022522926331 -0.0172504875808954239
-0.169854059815406799 0.304806530475616455 0.118852324783802032
0.471160769462585449 -0.364470720291137695 0.00697384215891361237
-0.290789276361465454 -0.0993337854743003845 -0.103197410702705383
0.0365451127290725708 -0.149680420756340027 -0.021714184433221817
0.232106894254684448 0.0561217255890369415 0.309197574853897095
0.253446996212005615 -0.288719087839126587 0.320725947618484497
-0.471663355827331543 0.00126345129683613777 0.168650195002555847
0.240920677781105042 0.0625743269920349121 0.313093632459640503
0.508988261222839355 -0.352152109146118164 0.0639035850763320923
0.227486923336982727 -0.314844608306884766 0.314639806747436523
-0.375275313854217529 -0.0930336117744445801 0.0861901119351387024
-0.0625919029116630554 -0.241564959287643433 0.302645385265350342
-0.222539797425270081 -0.127563536167144775 -0.053100142627954483
-0.409783095121383667 -0.0653223916888237 0.0985186398029327393
-0.444909006357192993 -0.044587939977645874 0.132731825113296509
0.239038378000259399 -0.29409414529800415 0.314505666494369507
0.154005974531173706 -0.3243427574634552 0.320208281278610229
0.425338268280029297 -0.256190299987792969 0.328612834215164185
0.438375413417816162 -0.343003988265991211 -0.292801260948181152
0.506465554237365723 -0.334644228219985962 -0.318224489688873291
0.445223808288574219 -0.352352142333984375 -0.286858826875686646
0.23818555474281311 0.0656383857131004333 0.312373518943786621
0.40328824520111084 -0.28761756420135498 0.32593873143196106
-0.494690209627151489 0.00685240048915147781 0.188379481434822083
0.485725373029708862 -0.0633880048990249634 0.131683915853500366
0.0126684503629803658 -0.170708179473876953 0.00986383203417062759
0.53162693977355957 -0.307719886302947998 -0.0622953735291957855
0.314959585666656494 -0.302314728498458862 -0.126873821020126343
0.446053177118301392 -0.291402995586395264 -0.285769790410995483
-0.336852967739105225 0.224782794713973999 0.125731781125068665
-0.400691092014312744 -0.0280378852039575577 -0.0019252019701525569
0.40319526195526123 -0.271839320659637451 0.324154973030090332
-0.133282914757728577 0.195824414491653442 0.167791426181793213
0.399245798587799072 -0.271775364875793457 0.323968887329101562
-0.446357697248458862 -0.024804290384054184 0.0213875323534011841
-0.137980535626411438 0.244883507490158081 0.191749513149261475
-0.612711608409881592 0.294171303510665894 0.183682873845100403
0.124550476670265198 0.116033315658569336 0.316744476556777954
-0.120929762721061707 0.250615894794464111 0.161876529455184937
-0.583211541175842285 0.348300725221633911 0.0580560341477394104
0.426975280046463013 -0.348165303468704224 0.153037726879119873
-0.566596686840057373 0.295234918594360352 -0.0690822824835777283
0.251952052116394043 0.0266752559691667557 -0.0796509459614753723
0.247690513730049133 0.100349076092243195 -0.0484169237315654755
-0.357180178165435791 -0.0555250346660614014 -0.141880542039871216
0.198708251118659973 0.120178282260894775 0.0357292480766773224
0.545609831809997559 -0.131637990474700928 0.111943252384662628
-0.581502258777618408 0.321925342082977295 -0.0229389593005180359
0.206197798252105713 0.0246214438229799271 0.176859468221664429
-0.595245063304901123 0.375290364027023315 0.171959176659584045
0.444939136505126953 -0.319265246391296387 0.127361282706260681
0.255246400833129883 -0.278689682483673096 0.316567748785018921
0.235596239566802979 0.0237475037574768066 0.316628158092498779
-0.362653225660324097 -0.049555700272321701 -0.0237759221345186234
-0.182504266500473022 0.118260607123374939 0.0423298552632331848
0.25496336817741394 -0.288124501705169678 0.319385796785354614
0.242026180028915405 0.033120475709438324 0.321889996528625488
0.399858593940734863 0.0232743825763463974 0.115121975541114807
-0.34021267294883728 -0.0658784285187721252 -0.147321060299873352
0.0760146975517272949 -0.332801252603530884 0.299090445041656494
-0.386509627103805542 -0.0605557635426521301 0.093840867280960083
-0.447942495346069336 -0.0410629101097583771 0.127738445997238159
0.439487159252166748 -0.279308676719665527 0.333688318729400635
0.0346871428191661835 -0.122739128768444061 -0.0256285332143306732
0.414459109306335449 -0.280757248401641846 0.327034682035446167
0.43316727876663208 -0.296049654483795166 0.333194494247436523
0.368142783641815186 -0.278636038303375244 -0.130354225635528564
-0.477159172296524048 0.00170244800392538309 0.188337460160255432
-0.29120403528213501 -0.0960433781147003174 -0.104530200362205505
0.241595551371574402 -0.31287655234336853 0.309752881526947021
0.473383873701095581 -0.354194015264511108 0.00698391348123550415
-0.296039491891860962 -0.0962903350591659546 -0.106985680758953094
0.244943216443061829 -0.288468897342681885 0.320142179727554321
0.0625516772270202637 -0.329500287771224976 0.297175824642181396
0.158298775553703308 -0.267595142126083374 -0.105549551546573639
0.250214487314224243 0.0633813291788101196 0.31551632285118103
-0.48226359486579895 -0.00764479907229542732 0.17795225977897644
0.236357152462005615 0.0665553063154220581 0.314875900745391846
0.238939687609672546 -0.331672102212905884 0.321486562490463257
-0.381948769092559814 -0.091709531843662262 0.0367380455136299133
-0.215801671147346497 -0.13979668915271759 -0.0543323233723640442
-0.382410377264022827 -0.0633637011051177979 0.0835553482174873352
0.15021871030330658 -0.331447482109069824 0.332001566886901855
0.446006327867507935 -0.279841363430023193 0.333611220121383667
0.407572567462921143 -0.280467748641967773 0.325148105621337891
-0.501778841018676758 0.00683513423427939415 0.188691616058349609
-0.321651220321655273 0.0974541381001472473 -0.0702751204371452332
0.532685339450836182 -0.207511186599731445 -0.0527265220880508423
0.451246201992034912 -0.293841809034347534 -0.290660262107849121
0.487705767154693604 -0.325189709663391113 -0.311083316802978516
0.446694135665893555 -0.309681951999664307 -0.291023045778274536
-0.57754826545715332 0.269340187311172485 0.365806221961975098
-0.461120545864105225 0.106040358543395996 -0.231073155999183655
0.375033736228942871 -0.318650424480438232 0.199082463979721069
-0.58961111307144165 0.367048829793930054 0.131170704960823059
0.392850697040557861 -0.353376954793930054 -0.217630729079246521
0.44139176607131958 -0.310223430395126343 -0.289231270551681519
-0.200567230582237244 0.305506229400634766 0.0949811190366744995
-0.155422493815422058 0.267991960048675537 0.1516895592212677
0.529979586601257324 -0.338441193103790283 0.071745261549949646
0.464073717594146729 -0.266105532646179199 -0.217831119894981384
-0.633327066898345947 0.275853604078292847 0.106957554817199707
0.438713371753692627 -0.308515697717666626 -0.287401467561721802
0.515738368034362793 -0.277162015438079834 -0.317047983407974243
0.516866981983184814 -0.340297579765319824 -0.32096138596534729
0.454654395580291748 -0.306999057531356812 -0.293460249900817871
0.491074234247207642 -0.321928113698959351 0.0943168103694915771
0.0209181476384401321 -0.275619775056838989 -0.0185618791729211807
-0.653805911540985107 0.172136783599853516 -0.108220547437667847
-0.224594578146934509 0.318606108427047729 0.121382489800453186
0.465559244155883789 -0.364075362682342529 0.00581285450607538223
0.481262952089309692 -0.336803585290908813 0.0501954853534698486
0.511770784854888916 -0.339356988668441772 -0.319620102643966675
0.44048723578453064 -0.356501281261444092 -0.297814100980758667
-0.269873589277267456 0.322092145681381226 0.0418895035982131958
0.42443886399269104 -0.313234210014343262 -0.282092392444610596
0.415662765502929688 -0.295207381248474121 0.328483164310455322
-0.325820505619049072 -0.075184263288974762 0.123516768217086792
-0.366610795259475708 -0.0664985477924346924 0.154723584651947021
-0.338103264570236206 0.214951068162918091 0.132870152592658997
0.0101585797965526581 0.119429655373096466 0.105153821408748627
0.542223453521728516 -0.309192299842834473 -0.0463257618248462677
0.0139277242124080658 -0.26161646842956543 0.0395345538854598999
-0.0032742766197770834 -0.236403673887252808 0.094300389289855957
0.000480104296002537012 -0.21944873034954071 0.0815549418330192566
0.465132862329483032 -0.36093217134475708 0.0302212070673704147
-0.269109398126602173 -0.137798666954040527 0.177568048238754272
-0.344814509153366089 -0.0656764060258865356 0.141313642263412476
0.123718827962875366 -0.276571929454803467 0.129009515047073364
-0.133702397346496582 0.0788982957601547241 0.0903065726161003113
0.463584721088409424 -0.0544762164354324341 0.0174543093889951706
-0.0138555942103266716 -0.216756552457809448 0.0803967490792274475
-0.554591953754425049 0.39174613356590271 0.147703066468238831
0.496817797422409058 -0.366805911064147949 0.00513948826119303703
-0.610540211200714111 0.294168829917907715 0.186487838625907898
0.53026658296585083 -0.275228053331375122 -0.317885667085647583
0.370526939630508423 -0.264635622501373291 0.181491002440452576
0.420530527830123901 -0.344481408596038818 0.150804504752159119
0.25207868218421936 0.0391705781221389771 -0.0667802020907402039
0.549517989158630371 -0.150027647614479065 0.124136067926883698
-0.570357322692871094 0.284203439950942993 -0.00647136429324746132
0.501086890697479248 -0.362658470869064331 -0.00139295915141701698
0.208252638578414917 0.115638129413127899 -0.0105293681845068932
-0.288878828287124634 -0.0854302942752838135 -0.0663830935955047607
0.159398958086967468 -0.0832091346383094788 -0.0362193100154399872
-0.339669376611709595 -0.105234913527965546 0.141359627246856689
0.511280655860900879 -0.281389206647872925 -0.313400030136108398
-0.338985443115234375 -0.0794300734996795654 0.0386504270136356354
-0.369154214859008789 0.280869185924530029 -0.0625798031687736511
0.510009229183197021 -0.341009020805358887 0.0650282204151153564
0.302419692277908325 -0.205941438674926758 0.247894614934921265
0.542968213558197021 -0.312076061964035034 -0.060877285897731781
0.141581669449806213 0.0694803819060325623 0.336399763822555542
-0.594678938388824463 0.267680764198303223 0.0121271321550011635
0.222039669752120972 -0.00713362684473395348 0.295575320720672607
0.23087136447429657 0.0342801287770271301 0.312761873006820679
0.533668577671051025 -0.319685935974121094 -0.0129109323024749756
-0.389043331146240234 -0.063765697181224823 0.105809018015861511
-0.44728580117225647 -0.0399154610931873322 0.126589804887771606
0.495991617441177368 -0.0914623364806175232 0.154357835650444031
0.250881969928741455 0.0630583241581916809 0.316634148359298706
-0.291076809167861938 -0.0925261005759239197 0.307836532592773438
-0.366253137588500977 -0.11452985554933548 0.10411505401134491
-0.56316375732421875 0.127490922808647156 -0.0784847065806388855
-0.501248717308044434 0.0236772317439317703 0.186735749244689941
0.518338441848754883 -0.29740867018699646 -0.314236253499984741
0.472813397645950317 -0.328300267457962036 -0.300083786249160767
-0.574081838130950928 0.269006252288818359 0.36273348331451416
-0.571020841598510742 0.355035632848739624 0.167040213942527771
-0.191655188798904419 0.304754674434661865 0.101343050599098206
-0.661871016025543213 0.239947378635406494 0.0416209027171134949
-0.504678666591644287 0.144589886069297791 0.353408336639404297
0.507356643676757812 -0.347223579883575439 -0.318516761064529419
-0.200477942824363708 0.305089384317398071 0.102003343403339386
0.475283712148666382 -0.357721209526062012 0.00456899451091885567
0.509893059730529785 -0.330829143524169922 0.0663041546940803528
-0.610552668571472168 0.367734074592590332 0.0877600014209747314
-0.562297821044921875 0.288456380367279053 -0.0559788942337036133
0.219965830445289612 0.0102266194298863411 0.309103190898895264
0.2405281662940979 0.00505393277853727341 0.321558862924575806
-0.359231710433959961 -0.0566694624722003937 -0.137876510620117188
0.399373173713684082 -0.252852946519851685 0.32189410924911499
0.399678200483322144 -0.263221174478530884 0.32464832067489624
0.224211618304252625 -0.324126541614532471 0.320719897747039795
0.411160945892333984 -0.267962664365768433 0.325067132711410522
-0.508895158767700195 0.0496401414275169373 0.195325344800949097
-0.63097989559173584 0.156697750091552734 -0.052679646760225296
-0.50165247917175293 0.147155001759529114 0.345380961894989014
0.52115708589553833 -0.350784987211227417 -0.32326158881187439
0.495457202196121216 -0.348449677228927612 8.5959210991859436e-05
-0.197648286819458008 0.0162790268659591675 -0.049949057400226593
-0.557565867900848389 0.341936677694320679 -0.00575243448838591576
0.488663822412490845 -0.36057889461517334 0.0409189462661743164
0.449205905199050903 -0.0743922367691993713 0.00177540117874741554
-0.556120812892913818 0.385353714227676392 0.157825827598571777
0.374709337949752808 -0.0813168436288833618 -0.120114833116531372
-0.38954472541809082 0.319703340530395508 0.168854594230651855
-0.384507089853286743 0.328260838985443115 0.197557508945465088
-0.363934248685836792 0.238144367933273315 -0.0834841951727867126
-0.407093256711959839 0.19966048002243042 0.0409157611429691315
-0.644281089305877686 0.286980897188186646 0.0935892835259437561
0.40870058536529541 -0.347351729869842529 0.136323884129524231
0.222360044717788696 0.0827935487031936646 -0.0336725078523159027
0.498607516288757324 -0.161464735865592957 0.123673811554908752
0.500328481197357178 -0.0930706039071083069 0.134585663676261902
0.215381592512130737 0.00178378983400762081 0.299437910318374634
-0.352844297885894775 -0.067968420684337616 -0.00906583294272422791
-0.385182738304138184 0.266132742166519165 -0.0716712325811386108
0.506579995155334473 -0.34722784161567688 0.0547788105905056
-0.356650948524475098 -0.056132882833480835 -0.145468071103096008
0.132209226489067078 0.0725424885749816895 0.32212713360786438
-0.0993011146783828735 -0.265431970357894897 0.00612921221181750298
0.242429718375205994 0.0231910180300474167 0.321862399578094482
-0.480125457048416138 -0.0115682603791356087 0.185337096452713013
0.242450594902038574 0.0481743365526199341 0.317040562629699707
-0.278038233518600464 0.332764267921447754 0.0406726300716400146
0.369865328073501587 -0.0310374535620212555 -0.0401495732367038727
0.520290255546569824 -0.348137915134429932 -0.0364925526082515717
0.293319106101989746 -0.0121273668482899666 0.0368544496595859528
-0.64396744966506958 0.28489983081817627 0.0924368202686309814
0.0357363000512123108 0.13664323091506958 0.0850533470511436462
-0.397174149751663208 -0.0574729330837726593 0.12591080367565155
-0.44114452600479126 -0.0380698628723621368 0.131335094571113586
0.523961842060089111 -0.317730844020843506 -0.0656429529190063477
0.422517538070678711 -0.280148774385452271 0.331133663654327393
0.509743034839630127 -0.345123916864395142 0.0569468289613723755
0.403931528329849243 -0.259028613567352295 0.323541522026062012
-0.480045497417449951 0.0181800313293933868 0.176720395684242249
0.235483437776565552 0.0683578476309776306 0.314437955617904663
-0.479191869497299194 -0.00822389964014291763 0.167365968227386475
0.239107474684715271 0.0673657134175300598 0.314838767051696777
0.388105154037475586 0.0257408283650875092 0.105805583298206329
0.21973419189453125 -0.316129386425018311 0.310375988483428955
0.38292810320854187 0.0426566265523433685 0.0688383802771568298
0.462619364261627197 0.0104644820094108582 0.174868255853652954
0.39955708384513855 -0.258818924427032471 0.32711675763130188
-0.499358803033828735 0.0212566405534744263 0.180937141180038452
-0.573274910449981689 0.266282498836517334 0.359957218170166016
-0.664330065250396729 0.230013146996498108 0.0217638909816741943
-0.149192705750465393 0.275335758924484253 0.0790305063128471375
0.522195160388946533 -0.335209548473358154 -0.322877079248428345
-0.220282703638076782 0.315655231475830078 0.0967271775007247925
0.499967455863952637 -0.346716254949569702 0.0668406113982200623
-0.18964993953704834 0.302733063697814941 0.114745736122131348
0.313680827617645264 -0.130363240838050842 0.300619363784790039
0.22512488067150116 -0.0354166850447654724 0.305079191923141479
0.0576027929782867432 -0.330771207809448242 0.291421622037887573
0.435308873653411865 -0.280186444520950317 0.332644492387771606
0.409040570259094238 -0.285976231098175049 0.330815792083740234
0.385748028755187988 -0.266012996435165405 0.318694382905960083
0.397601693868637085 -0.384816825389862061 -0.225927233695983887
-0.162171617150306702 0.278358101844787598 0.12859286367893219
0.380566388368606567 0.0436782501637935638 0.0767829045653343201
0.390870392322540283 -0.25597614049911499 0.31869933009147644
-0.500079512596130371 0.0245380625128746033 0.185774967074394226
0.499752521514892578 -0.32608988881111145 -0.313503652811050415
0.380781024694442749 -0.376106590032577515 -0.21653418242931366
0.521263778209686279 -0.349431276321411133 -0.325278192758560181
0.520822823047637939 -0.348570674657821655 -0.322216778993606567
0.513441205024719238 -0.319819986820220947 -0.318844318389892578
0.2550811767578125 -0.222521126270294189 0.05732770636677742
0.18612419068813324 -0.142415151000022888 -0.105804555118083954
0.507864415645599365 -0.320419460535049438 0.028986779972910881
-0.469220906496047974 -0.0118230869993567467 0.181033357977867126
0.496346443891525269 -0.349125593900680542 -0.310171008110046387
0.521600604057312012 -0.327694207429885864 -0.322350502014160156
0.476153105497360229 -0.320409327745437622 -0.303450614213943481
-0.340975403785705566 0.229914426803588867 -0.0443801134824752808
0.20160384476184845 0.132613971829414368 0.112040586769580841
-0.172403275966644287 0.0222216788679361343 0.0255242437124252319
0.265684634447097778 -0.165984794497489929 0.00583440577611327171
0.544776976108551025 -0.328500181436538696 -0.0481281578540802002
-0.456053256988525391 -0.0530089288949966431 0.162150442600250244
0.469855666160583496 -0.356217741966247559 -0.307504892349243164
0.478584527969360352 -0.269974410533905029 -0.301938921213150024
0.467470288276672363 -0.362024992704391479 -0.308594405651092529
-0.320010781288146973 0.266687750816345215 0.0114413294941186905
0.0331384092569351196 0.098461642861366272 0.128402084112167358
-0.284263134002685547 -0.099988304078578949 -0.0874054208397865295
-0.616524577140808105 0.217099472880363464 -0.104902669787406921
0.24432845413684845 0.104306250810623169 -0.029989391565322876
0.466376721858978271 -0.235291317105293274 -0.22888629138469696
-0.293522119522094727 -0.0884434878826141357 -0.0959632247686386108
0.249203115701675415 -0.276033550500869751 0.322475314140319824
0.221990793943405151 0.0666883140802383423 -0.0281374920159578323
-0.25055992603302002 -0.130124419927597046 -0.0555433481931686401
-0.211515873670578003 0.30198332667350769 0.14866308867931366
0.339821398258209229 -0.140813499689102173 0.318163812160491943
0.529739081859588623 -0.356761246919631958 0.0694207027554512024
-0.599673151969909668 0.356704801321029663 0.0603361278772354126
-0.345966935157775879 -0.0556617192924022675 -0.143704190850257874
-0.432502388954162598 0.15766453742980957 -0.0847068279981613159
0.526639401912689209 -0.331890523433685303 0.020113503560423851
0.528226017951965332 -0.288142502307891846 -0.0704440176486968994
-0.498530298471450806 0.142787948250770569 -0.253974497318267822
0.146405398845672607 0.156595140695571899 0.058625686913728714
0.253210514783859253 -0.00786539167165756226 0.327531397342681885
0.349965512752532959 -0.147400349378585815 0.320398002862930298
0.44241681694984436 -0.322640448808670044 -0.229687213897705078
-0.223792046308517456 -0.139939934015274048 -0.053856581449508667
0.522557973861694336 -0.350399792194366455 0.0966965183615684509
-0.645842373371124268 0.253568202257156372 0.0237978361546993256
0.393242299556732178 -0.280278116464614868 0.322146862745285034
-0.474399060010910034 -0.0097684049978852272 0.164812132716178894
0.224500030279159546 -0.325128495693206787 0.318976372480392456
-0.363350152969360352 -0.121087074279785156 0.130358710885047913
-0.238235220313072205 -0.140561938285827637 -0.05398564413189888
-0.113789714872837067 -0.00916112679988145828 -0.0167583022266626358
0.389468163251876831 -0.278549373149871826 0.320477813482284546
-0.506719231605529785 0.0113637391477823257 0.201900988817214966
0.462766468524932861 -0.29701530933380127 -0.294653266668319702
0.35130918025970459 -0.148358479142189026 0.321254134178161621
0.45800471305847168 -0.303818047046661377 -0.229156807065010071
0.0246513374149799347 -0.14377826452255249 -0.0202681049704551697
0.369041204452514648 -0.327905058860778809 0.318635076284408569
0.391694247722625732 -0.281702041625976562 0.316739022731781006
0.128778070211410522 -0.319174855947494507 -0.0972275063395500183
-0.13447202742099762 0.278417915105819702 0.117447972297668457
-0.333036988973617554 0.0946067124605178833 -0.102449692785739899
0.374218136072158813 -0.375968098640441895 -0.215085670351982117
0.520040392875671387 -0.345820486545562744 -0.322894781827926636
0.523608148097991943 -0.358083128929138184 -0.326753556728363037
-0.0681042522192001343 -0.254748821258544922 0.0988797023892402649
0.325759321451187134 -0.13105417788028717 0.314588159322738647
0.424353241920471191 -0.25995481014251709 0.328142017126083374
-0.479668855667114258 0.032002624124288559 0.196657136082649231
0.526777565479278564 -0.29969024658203125 -0.322361528873443604
0.538208961486816406 -0.292542159557342529 -0.324776113033294678
0.378012329339981079 -0.374207943677902222 -0.213797241449356079
0.371516019105911255 -0.357145488262176514 -0.213800415396690369
0.524229049682617188 -0.35168302059173584 -0.325135767459869385
0.525536477565765381 -0.363458573818206787 -0.323222994804382324
0.515699207782745361 -0.327235370874404907 -0.320216208696365356
0.479658335447311401 -0.352377086877822876 -0.312348484992980957
0.478627026081085205 -0.365644842386245728 -0.313064098358154297
-0.361684232950210571 0.310476601123809814 0.239760056138038635
-0.320620924234390259 0.104194477200508118 0.0221825540065765381
-0.447400778532028198 0.204395651817321777 -0.0404069572687149048
-0.377560257911682129 0.279461413621902466 -0.00732728373259305954
-0.0223700627684593201 -0.260687977075576782 0.143848732113838196
-0.591781556606292725 0.361574470996856689 0.064134940505027771
0.367719143629074097 -0.373532354831695557 -0.21258661150932312
-0.123932324349880219 -0.010608479380607605 0.00794060993939638138
0.39678114652633667 -0.353427737951278687 -0.218415006995201111
0.507364571094512939 -0.159722626209259033 0.1250600665807724
0.195367753505706787 0.124654486775398254 0.00628183828666806221
-0.0269128084182739258 0.166839867830276489 0.383019059896469116
-0.333834379911422729 -0.120936200022697449 0.100353024899959564
-0.325092107057571411 0.3030051589012146 -0.0367424488067626953
0.534177839756011963 -0.346922069787979126 0.0377007611095905304
0.525425851345062256 -0.331957101821899414 0.0343721956014633179
-0.595618128776550293 0.382214367389678955 0.113322094082832336
-0.0109342364594340324 -0.144182592630386353 -0.0268849357962608337
-0.235141083598136902 0.172126561403274536 -0.00167582335416227579
-0.485287249088287354 -0.0104543715715408325 0.177233576774597168
-0.277960151433944702 0.336175531148910522 0.0422229059040546417
0.513513028621673584 -0.349187582731246948 0.0969600081443786621
-0.448389798402786255 -0.0356007330119609833 0.117427505552768707
0.434430330991744995 -0.253406792879104614 0.331739872694015503
0.414926230907440186 -0.278503626585006714 0.327218055725097656
-0.468711405992507935 0.0346154049038887024 0.193595752120018005
0.502363979816436768 -0.339674860239028931 0.00782630685716867447
-0.481252968311309814 -0.00261820829473435879 0.177563250064849854
-0.377223074436187744 -0.106513231992721558 0.0929389894008636475
-0.500827133655548096 0.0223905537277460098 0.184336036443710327
0.360794961452484131 -0.286976337432861328 -0.141920417547225952
0.00173256301786750555 -0.231310799717903137 0.0900816246867179871
-0.140244454145431519 0.265130698680877686 0.0884170681238174438
-0.129557132720947266 0.254450470209121704 0.0714048221707344055
0.312758445739746094 -0.293320327997207642 -0.131261646747589111
0.428265601396560669 -0.255644440650939941 0.330240339040756226
-0.615224182605743408 0.306737154722213745 0.392233073711395264
0.410937368869781494 -0.358014613389968872 -0.226489543914794922
0.505297660827636719 -0.346545279026031494 -0.319990187883377075
0.507993817329406738 -0.352580636739730835 -0.322698205709457397
0.523760676383972168 -0.298551470041275024 -0.31878235936164856
0.509952306747436523 -0.346892297267913818 -0.320315659046173096
0.270143002271652222 -0.169459149241447449 -0.0796404704451560974
0.133733808994293213 0.120281122624874115 0.329128086566925049
0.2519339919090271 -0.285055249929428101 0.328217774629592896
0.324508309364318848 -0.120350249111652374 0.310621351003646851
0.302503079175949097 -0.204513177275657654 0.251162409782409668
0.250091582536697388 -0.00387743907049298286 0.325087189674377441
0.507366776466369629 -0.343225151300430298 0.0874957218766212463
0.241700902581214905 0.0897850096225738525 0.309991389513015747
0.463049978017807007 -0.284130394458770752 -0.231278151273727417
-0.262118667364120483 0.31405600905418396 0.0458535812795162201
0.344160318374633789 -0.140110194683074951 0.329425394535064697
0.374061346054077148 -0.363896161317825317 -0.208793938159942627
0.33770287036895752 -0.129379570484161377 0.320667803287506104
0.526688158512115479 -0.347234249114990234 -0.324138104915618896
0.52445608377456665 -0.35208931565284729 -0.326692044734954834
0.480267196893692017 -0.372355252504348755 -0.313154041767120361
-0.359798461198806763 -0.0648448988795280457 0.0829295888543128967
-0.407257288694381714 0.0887861400842666626 -0.113184161484241486
0.0141251431778073311 0.0981310829520225525 0.217193767428398132
-0.378276318311691284 -0.093022473156452179 -0.0283167809247970581
0.26550525426864624 0.0683487951755523682 -0.0919345691800117493
-0.108120203018188477 -0.0150905456393957138 0.0460327155888080597
-0.357860594987869263 -0.0918609127402305603 0.0129517065361142159
-0.290288001298904419 0.304872035980224609 0.166635826230049133
-0.35531771183013916 -0.0734098032116889954 0.0406625233590602875
-0.598447561264038086 0.294689059257507324 0.186539381742477417
0.249401479959487915 0.096704438328742981 -0.0343919135630130768
0.379342526197433472 -0.354951173067092896 -0.209467455744743347
0.469842612743377686 -0.324825823307037354 0.137937620282173157
0.464611440896987915 -0.271919459104537964 -0.0930844694375991821
-0.43942791223526001 -0.042920377105474472 0.0842479690909385681
-0.336107581853866577 -0.124605432152748108 0.127663403749465942
0.528402268886566162 -0.341999858617782593 0.050938822329044342
0.392682313919067383 0.0469829179346561432 0.133509457111358643
-0.185885429382324219 0.31413733959197998 0.107859358191490173
-0.441389083862304688 -0.0428151786327362061 0.117827720940113068
0.537458360195159912 -0.326263964176177979 -0.0557517446577548981
-0.352933734655380249 0.306478500366210938 0.11421513557434082
0.494226247072219849 -0.34618791937828064 0.0440247319638729095
-0.575400292873382568 0.305268555879592896 0.379374891519546509
0.431016653776168823 -0.28109276294708252 0.333703160285949707
-0.477437674999237061 0.00414781505241990089 0.16414952278137207
0.525061070919036865 -0.349951565265655518 -0.00266155391000211239
-0.0671463087201118469 -0.262774288654327393 0.298568516969680786
-0.511734426021575928 0.00470669055357575417 0.188078835606575012
0.390088766813278198 -0.360375851392745972 -0.215766489505767822
-0.118469715118408203 0.254421651363372803 0.0636283978819847107
-0.500249207019805908 0.00512251630425453186 0.1932716965675354
0.426498293876647949 -0.27459755539894104 0.330634355545043945
-0.333380281925201416 0.104251109063625336 -0.118532255291938782
-0.105844661593437195 0.254276484251022339 0.0936480537056922913
0.510871469974517822 -0.341786324977874756 -0.319793492555618286
-0.612685024738311768 0.302701383829116821 0.396256446838378906
-0.508823633193969727 0.0367000959813594818 0.18859785795211792
-0.29085889458656311 -0.0890353694558143616 -0.0786233767867088318
0.509727418422698975 -0.345064938068389893 -0.321218818426132202
0.0718083381652832031 0.139282464981079102 0.0724965259432792664
