ply
format ascii 1.0
element vertex 738
property float x
property float y
property float z
end_header
-0.429874420166015625 -0.00379606499336659908 0.177541166543960571
-0.250333905220031738 -0.13677564263343811 -0.070847339928150177
0.317279964685440063 -0.319117128849029541 0.122619852423667908
0.539315462112426758 -0.249933212995529175 0.106641337275505066
0.452695995569229126 -0.140015006065368652 0.0154964756220579147
0.429334014654159546 -0.321191847324371338 0.123754359781742096
0.413284271955490112 -0.330927014350891113 -0.209708273410797119
0.473783522844314575 -0.128801554441452026 0.10954757034778595
-0.548944056034088135 0.378357023000717163 0.172857373952865601
0.190506964921951294 -0.339852035045623779 -0.0131629360839724541
-0.201625123620033264 -0.13532412052154541 -0.0681877583265304565
-0.185537904500961304 0.311866551637649536 0.118134886026382446
0.103257112205028534 0.107543736696243286 0.174610510468482971
-0.444239407777786255 -0.0542329289019107819 0.0920914709568023682
-0.489304542541503906 0.0300959404557943344 0.0171195380389690399
0.231323778629302979 0.0108056431636214256 0.31510394811630249
-0.0247146952897310257 0.11301780492067337 0.312653988599777222
0.243178293108940125 -0.0388161353766918182 0.20475199818611145
-0.384820520877838135 0.245223641395568848 0.0345591939985752106
-0.654024481773376465 0.216600000858306885 -0.038998238742351532
0.482978075742721558 -0.116475321352481842 0.0235054623335599899
0.12211541086435318 0.0793319270014762878 0.138726770877838135
-0.381827950477600098 -0.0724798217415809631 0.095852285623550415
0.31963503360748291 -0.072562195360660553 0.0625252127647399902
-0.440572828054428101 -0.0115751652047038078 0.00712865404784679413
-0.502150356769561768 0.233580470085144043 -0.0708366855978965759
-0.547207236289978027 0.20334307849407196 -0.0682455077767372131
0.0885166823863983154 0.0915188565850257874 0.0802308991551399231
-0.519839465618133545 0.204455465078353882 -0.0468933694064617157
-0.168183013796806335 0.0723166465759277344 0.232713669538497925
-0.0572836771607398987 -0.186785921454429626 0.0270590092986822128
-0.21247941255569458 0.290583193302154541 0.109384834766387939
0.249576866626739502 -0.00561676686629652977 0.0225134938955307007
-0.555741667747497559 0.204240843653678894 0.118629820644855499
-0.457288652658462524 0.216344341635704041 0.0248088967055082321
-0.462592869997024536 0.266356199979782104 -0.00244200695306062698
-0.575401782989501953 0.247455492615699768 -0.0761763826012611389
-0.389316260814666748 0.275014370679855347 -0.0838476568460464478
0.343758255243301392 -0.134888008236885071 0.318859696388244629
-0.498564302921295166 0.206742838025093079 -0.0113342497497797012
-0.345950514078140259 0.292695850133895874 -0.0498607940971851349
0.526010334491729736 -0.361188352108001709 0.041727893054485321
-0.53989410400390625 0.214997068047523499 0.201337233185768127
-0.569283127784729004 0.29419177770614624 -0.0028702856507152319
0.316531836986541748 0.0234780609607696533 0.0488890446722507477
0.482061713933944702 -0.307073771953582764 -0.303658068180084229
0.479710489511489868 -0.326459527015686035 0.125328958034515381
0.523233294486999512 -0.307131826877593994 -0.0987321212887763977
0.490416526794433594 -0.3108406662940979 -0.307420998811721802
0.51623910665512085 -0.325186192989349365 0.119783610105514526
0.444580525159835815 -0.300269454717636108 -0.290625572204589844
0.523250222206115723 -0.304683953523635864 -0.0973948240280151367
0.134190857410430908 0.116145811975002289 0.337208181619644165
-0.642370045185089111 0.242443054914474487 -0.00918477308005094528
-0.292529314756393433 -0.11374247819185257 -0.105417884886264801
0.539253413677215576 -0.255666345357894897 0.0921422392129898071
0.129052013158798218 0.0973711833357810974 0.317484289407730103
-0.23513437807559967 -0.143419638276100159 -0.0710792690515518188
0.25239834189414978 0.029824472963809967 -0.0857621952891349792
0.530988633632659912 -0.323282927274703979 0.00678668217733502388
-0.599333763122558594 0.307147860527038574 0.10476849228143692
0.532105982303619385 -0.244843780994415283 0.0864991173148155212
-0.374011576175689697 -0.0607541985809803009 0.0925652086734771729
0.526600003242492676 -0.275453925132751465 -0.123270176351070404
-0.501097202301025391 0.148607447743415833 0.353288084268569946
0.385145515203475952 -0.297787010669708252 0.131826087832450867
0.132734447717666626 -0.331971526145935059 -0.100259408354759216
0.522790074348449707 -0.354992061853408813 -0.0149744981899857521
-0.43644985556602478 0.150461867451667786 -0.0847304761409759521
0.515780210494995117 -0.300266295671463013 0.0646604076027870178
0.393106311559677124 -0.367950767278671265 -0.213655859231948853
0.500517547130584717 -0.171689078211784363 0.130002513527870178
0.533258020877838135 -0.3341502845287323 0.0283401627093553543
-0.57991492748260498 0.348647981882095337 0.0405639894306659698
0.520017802715301514 -0.241025760769844055 -0.308714509010314941
-0.601009070873260498 0.370402902364730835 0.104931682348251343
-0.500598013401031494 0.146979391574859619 0.355492323637008667
0.233990222215652466 -0.277985632419586182 0.317369401454925537
-0.181274816393852234 -0.136959448456764221 -0.0553495585918426514
-0.228300437331199646 -0.137889966368675232 -0.0532488599419593811
-0.204285353422164917 0.298179805278778076 0.126965895295143127
0.262548774480819702 -0.289808601140975952 0.323646962642669678
-0.362238675355911255 -0.0304826237261295319 0.119775965809822083
-0.500079691410064697 0.019439302384853363 0.0321535579860210419
0.24280896782875061 -0.00011863894178532064 0.322337925434112549
0.141379609704017639 -0.290501177310943604 0.3117503821849823
0.30807960033416748 -0.207722455263137817 0.24818672239780426
-0.386132329702377319 0.254742860794067383 0.0346133075654506683
0.531123757362365723 -0.26245453953742981 0.102868460118770599
0.22401823103427887 0.0225263722240924835 0.305508792400360107
0.530626654624938965 -0.147532179951667786 -0.308239161968231201
-0.644879162311553955 0.23123796284198761 -0.0472311675548553467
0.541301906108856201 -0.311078786849975586 -0.0444875210523605347
0.507853209972381592 -0.267835170030593872 -0.311493426561355591
0.514337778091430664 -0.316171854734420776 -0.295095711946487427
0.458877772092819214 -0.290950983762741089 -0.296565592288970947
-0.543113768100738525 0.268028527498245239 -0.189088806509971619
-0.621441006660461426 0.288799077272415161 0.0669355839490890503
0.363470405340194702 -0.384270340204238892 -0.206059902906417847
-0.0925054401159286499 0.267044484615325928 0.189578130841255188
-0.448442995548248291 0.131318330764770508 -0.208533570170402527
-0.575456202030181885 0.203696504235267639 -0.126830771565437317
-0.630083680152893066 0.191615477204322815 -0.0396545715630054474
-0.469751030206680298 0.138961389660835266 -0.230843067169189453
0.257623940706253052 -0.0172372125089168549 -0.0719640254974365234
0.230476289987564087 0.0536725893616676331 -0.0450272522866725922
0.113005027174949646 0.109580792486667633 0.30176118016242981
-0.584116220474243164 0.218320101499557495 -0.221208468079566956
-0.598231792449951172 0.235119625926017761 -0.0105225322768092155
-0.366966605186462402 -0.0916075631976127625 0.123021684587001801
-0.329943835735321045 -0.125231042504310608 0.137455031275749207
-0.634614348411560059 0.199528500437736511 -0.0380716472864151001
-0.425649583339691162 -0.0548022948205471039 0.0994477346539497375
-0.478056848049163818 0.0202154833823442459 -0.0362935811281204224
0.208604961633682251 0.00841259676963090897 0.300888776779174805
-0.634200215339660645 0.247968673706054688 -0.00575530296191573143
-0.128067299723625183 0.269714474678039551 0.132463186979293823
0.271050572395324707 -0.33034127950668335 0.180101349949836731
0.53306424617767334 -0.21024787425994873 -0.0988933295011520386
-0.126439571380615234 -0.11256890743970871 -0.0545646399259567261
0.454179823398590088 -0.338903456926345825 -0.298086225986480713
-0.212599292397499084 0.0362641066312789917 -0.0594433322548866272
-0.553215742111206055 0.175720065832138062 0.0130456844344735146
-0.198539182543754578 0.13958151638507843 0.0213686153292655945
-0.0125644952058792114 -0.102489463984966278 -0.0427350103855133057
0.264721572399139404 -0.274978846311569214 0.202447324991226196
0.348664194345474243 -0.321148663759231567 -1.51291751535609365e-05
-0.155956476926803589 0.0697727873921394348 0.0277543831616640091
-0.249212294816970825 0.130779623985290527 -0.0342069156467914581
0.199060097336769104 0.00153873523231595755 0.0191975310444831848
0.0762964338064193726 0.0807589292526245117 0.0241225454956293106
-0.283468335866928101 0.288178026676177979 -0.00569572765380144119
0.476958692073822021 -0.289838880300521851 -0.301735162734985352
-0.556916713714599609 0.265661507844924927 -0.0170041751116514206
-0.237396225333213806 0.0976424291729927063 -0.0322216823697090149
0.137828201055526733 -0.280827820301055908 0.15013478696346283
0.296344190835952759 -0.297422885894775391 0.0569482669234275818
-0.286066174507141113 0.257182598114013672 0.000781636626925319433
-0.0211039725691080093 -0.0403641015291213989 0.0891668349504470825
0.204431325197219849 0.0426141992211341858 0.0658031702041625977
-0.143721967935562134 -0.0851175859570503235 0.091894887387752533
0.372469186782836914 -0.073531031608581543 0.0315891057252883911
0.521363437175750732 -0.199191927909851074 -0.0985782891511917114
0.487102538347244263 -0.297836780548095703 -0.305393368005752563
0.480431944131851196 -0.314924538135528564 0.12222588062286377
0.513608694076538086 -0.307242751121520996 -0.102476544678211212
0.496025890111923218 -0.309464007616043091 -0.309763640165328979
0.506163656711578369 -0.327887564897537231 -0.00420295912772417068
0.511739015579223633 -0.324622005224227905 0.118248917162418365
0.465885519981384277 -0.288740098476409912 -0.296586513519287109
0.437976717948913574 -0.26346588134765625 -0.19430994987487793
0.134998142719268799 0.116792529821395874 0.337123692035675049
0.396546691656112671 -0.244482815265655518 0.318669706583023071
-0.601682960987091064 0.354178428649902344 0.0658071637153625488
-0.505272507667541504 0.357077181339263916 0.178569614887237549
0.542634129524230957 -0.282607495784759521 0.0978056341409683228
0.256340533494949341 0.0367791391909122467 -0.0719666257500648499
-0.233224958181381226 0.155951589345932007 -0.00506323529407382011
0.506154179573059082 -0.332053661346435547 -0.00262635410763323307
0.444784820079803467 -0.250049948692321777 -0.228029757738113403
-0.639204680919647217 0.254443109035491943 0.0548182912170886993
0.532602369785308838 -0.262787103652954102 0.093129478394985199
-0.393190741539001465 -0.059127364307641983 0.100625336170196533
0.523910760879516602 -0.289715558290481567 -0.0921769142150878906
0.027964957058429718 -0.274056166410446167 -0.0351389274001121521
0.385110169649124146 -0.306116342544555664 0.118754439055919647
-0.582361996173858643 0.366711169481277466 0.131995290517807007
0.240089729428291321 0.00283020222559571266 0.18115803599357605
-0.113111965358257294 0.165400236845016479 0.347694933414459229
0.482173562049865723 -0.368407607078552246 -0.0221384819597005844
0.412209182977676392 -0.321172505617141724 -0.211042195558547974
0.507239699363708496 -0.155656799674034119 0.123919568955898285
0.528809785842895508 -0.334781229496002197 0.0127169331535696983
-0.584314942359924316 0.336334019899368286 0.0343861132860183716
-0.590936183929443359 0.381804019212722778 0.131553351879119873
0.526311695575714111 -0.244382888078689575 -0.310692042112350464
0.474427998065948486 -0.290760129690170288 -0.299487262964248657
-0.597395837306976318 0.353586971759796143 0.169952452182769775
-0.587534129619598389 0.371344923973083496 0.101403787732124329
-0.212119832634925842 -0.129413232207298279 -0.0574714690446853638
0.234322831034660339 -0.293073773384094238 0.314936369657516479
0.237909317016601562 0.0670004785060882568 0.32010158896446228
0.541858792304992676 -0.313914328813552856 -0.0582075938582420349
-0.44479033350944519 -0.0482694543898105621 0.127281934022903442
0.359509944915771484 -0.388344258069992065 -0.20900215208530426
-0.55673670768737793 0.211156502366065979 -0.113398447632789612
0.520819187164306641 -0.279605507850646973 -0.177181929349899292
0.241774827241897583 0.0346529707312583923 0.314572989940643311
0.242634236812591553 0.000369559595128521323 0.0237460397183895111
0.380576074123382568 0.0387351438403129578 0.0119321886450052261
0.526782989501953125 -0.230685651302337646 -0.310197919607162476
0.326880276203155518 0.0960834994912147522 -0.0358396619558334351
-0.374325186014175415 -0.0600875243544578552 -0.132665306329727173
0.51286923885345459 -0.167656227946281433 0.135805889964103699
-0.574687838554382324 0.321940749883651733 0.0497564859688282013
-0.559152126312255859 0.283302754163742065 0.364386051893234253
0.224312826991081238 0.0318946875631809235 -0.0580761730670928955
-0.574502468109130859 0.214640066027641296 -0.220842704176902771
-0.0444475002586841583 0.156546682119369507 0.0814064070582389832
0.113929972052574158 0.110008120536804199 0.025607232004404068
0.342684119939804077 -0.24701334536075592 -0.0968548506498336792
-0.285253256559371948 0.300384074449539185 -0.00258804392069578171
0.153161346912384033 -0.00439887307584285736 -0.0034330049529671669
0.0688909217715263367 0.138794347643852234 0.0758226737380027771
-0.270241737365722656 0.280137300491333008 0.00193558982573449612
0.503353476524353027 -0.292653888463973999 -0.15941619873046875
0.136828988790512085 -0.0258107129484415054 0.013252895325422287
-0.339150011539459229 -0.0318550765514373779 0.0230135861784219742
0.373283714056015015 -0.0919206738471984863 0.0442947372794151306
0.19977039098739624 0.101174123585224152 -0.00169034849386662245
-0.297391980886459351 -0.0249029248952865601 0.0361426696181297302
0.131637930870056152 -0.0178032498806715012 -0.0259382575750350952
0.101225942373275757 0.0160545483231544495 0.0913517773151397705
0.175515174865722656 0.11929640918970108 0.0381557755172252655
-0.230618417263031006 -0.0635519251227378845 0.104832574725151062
0.486086547374725342 -0.296700358390808105 -0.303621977567672729
-0.603361368179321289 0.289419740438461304 0.185402587056159973
0.467149257659912109 -0.308803528547286987 0.119988583028316498
0.378142893314361572 -0.014560856856405735 0.00641928054392337799
0.514357566833496094 -0.295380532741546631 -0.103567555546760559
0.518850624561309814 -0.23977448046207428 -0.307695835828781128
0.477918833494186401 -0.309763282537460327 -0.30037352442741394
0.483390361070632935 -0.274558424949645996 -0.300002157688140869
0.117050834000110626 0.118700243532657623 0.297706156969070435
-0.584388792514801025 0.356245189905166626 0.0660293549299240112
0.383664578199386597 -0.337393522262573242 0.125442460179328918
-0.574666857719421387 0.31761246919631958 -0.0263448432087898254
-0.604622423648834229 0.217106550931930542 -0.0867011994123458862
0.267615467309951782 0.0391728766262531281 -0.0861648768186569214
-0.356510967016220093 -0.0220218542963266373 -0.130954861640930176
-0.564478218555450439 0.314243346452713013 -0.00769819319248199463
0.190579965710639954 -0.340772867202758789 -0.0746975690126419067
0.404135614633560181 -0.357647091150283813 -0.224095508456230164
-0.500346541404724121 0.145564496517181396 0.354835838079452515
0.509541451930999756 -0.151617228984832764 0.114893689751625061
0.496855109930038452 -0.263969928026199341 -0.30448538064956665
0.457966327667236328 -0.280917257070541382 -0.289829373359680176
0.44092223048210144 -0.265003025531768799 -0.283770233392715454
-0.588205218315124512 0.357349216938018799 0.061941884458065033
0.505138576030731201 -0.126944199204444885 0.12431751936674118
-0.206386804580688477 0.312338203191757202 0.108954444527626038
0.268135488033294678 -0.284126400947570801 0.319104313850402832
0.232405707240104675 0.00342566077597439289 0.317867875099182129
0.513254523277282715 -0.175745606422424316 -0.281851768493652344
-0.115344993770122528 0.00992747768759727478 0.00610038544982671738
0.403867393732070923 -0.359675198793411255 -0.224719017744064331
0.417554736137390137 -0.313349783420562744 0.143681943416595459
-0.555674552917480469 0.376345604658126831 0.187023043632507324
-0.175803095102310181 0.309001654386520386 0.118635065853595734
-0.389912724494934082 0.275985896587371826 -0.0848488211631774902
0.365132004022598267 0.0516701638698577881 0.0246424730867147446
0.129023730754852295 0.115588009357452393 0.318925678730010986
-0.286571860313415527 -0.100406132638454437 -0.0918627679347991943
0.257991939783096313 0.100773729383945465 -0.0619330741465091705
-0.361336648464202881 -0.0596451945602893829 -0.143929347395896912
0.133976966142654419 0.113545402884483337 0.33786696195602417
-0.563268780708312988 0.199309229850769043 -0.228820845484733582
-0.276578456163406372 0.287903249263763428 -0.000693864712957292795
0.45488092303276062 -0.246500477194786072 -0.28836292028427124
0.460230410099029541 -0.275450378656387329 -0.290896683931350708
-0.635016083717346191 0.30804029107093811 0.170606702566146851
0.512475669384002686 -0.317549318075180054 -0.0386696457862854004
0.468937724828720093 -0.265851408243179321 -0.298026472330093384
0.478155642747879028 -0.295060396194458008 -0.300313055515289307
0.458139002323150635 -0.246284082531929016 -0.2899361252784729
0.381095200777053833 -0.361007481813430786 -0.213897541165351868
-0.479502081871032715 -0.0124602997675538063 0.186038509011268616
-0.51664435863494873 0.365645289421081543 0.174273461103439331
-0.61870121955871582 0.202004998922348022 -0.0869652628898620605
-0.237388923764228821 0.0188844706863164902 -0.0723431706428527832
-0.382658779621124268 -0.0588950403034687042 0.0239013601094484329
0.474847614765167236 -0.368407577276229858 0.0217276904731988907
-0.649421334266662598 0.236696183681488037 0.032442137598991394
0.41256338357925415 -0.346750229597091675 -0.221695438027381897
0.526052772998809814 -0.337232202291488647 0.0799550712108612061
0.506042897701263428 -0.239075526595115662 -0.308151096105575562
0.249489396810531616 -0.282299309968948364 0.318170130252838135
0.239063620567321777 0.0664310157299041748 0.314646393060684204
0.539580285549163818 -0.301908522844314575 -0.0937622487545013428
-0.447947293519973755 -0.0412762314081192017 0.126716315746307373
-0.0439598634839057922 0.104398839175701141 0.317939847707748413
0.247833803296089172 0.0208975300192832947 0.322195827960968018
-0.284895896911621094 -0.0995400846004486084 -0.0988798215985298157
-0.137846872210502625 -0.0150475669652223587 -0.0486066006124019623
-0.278028249740600586 0.3377532958984375 0.0472030825912952423
-0.254858583211898804 0.289805620908737183 -0.00302181928418576717
-0.219050496816635132 0.321761995553970337 0.0700569376349449158
-0.57339942455291748 0.152267679572105408 -0.074275188148021698
-0.29010474681854248 0.292615950107574463 0.0162507779896259308
0.525623857975006104 -0.320742428302764893 0.0270788073539733887
0.346016019582748413 -0.0306276958435773849 -0.0344335585832595825
0.522240161895751953 -0.362986981868743896 0.0892874598503112793
-0.0833943858742713928 -0.111768573522567749 0.0786341056227684021
-0.404142081737518311 0.325960606336593628 0.121427237987518311
0.504754960536956787 -0.367135137319564819 -0.00457514543086290359
-0.118847332894802094 0.265966564416885376 0.121153011918067932
0.518719136714935303 -0.343029320240020752 0.0357480309903621674
0.130234614014625549 -0.334645122289657593 0.301219642162322998
0.466597914695739746 -0.311138629913330078 0.0723804086446762085
0.482850611209869385 -0.37406805157661438 0.0522401332855224609
0.421001195907592773 -0.0262109898030757904 0.0648458153009414673
0.494146376848220825 -0.363594532012939453 -0.0156174460425972939
-0.233102887868881226 0.287047773599624634 0.0843391939997673035
0.531224310398101807 -0.331831037998199463 -0.00732108065858483315
-0.272100657224655151 0.315291672945022583 0.114159278571605682
0.308121830224990845 0.00245435489341616631 0.0463433340191841125
0.467418938875198364 -0.263460993766784668 -0.296096831560134888
0.473795205354690552 -0.304426312446594238 0.114140331745147705
0.511179625988006592 -0.313703745603561401 -0.104464732110500336
0.509192407131195068 -0.245421186089515686 -0.308471739292144775
0.447942018508911133 -0.292544245719909668 -0.292779535055160522
0.466387748718261719 -0.283312022686004639 -0.297309637069702148
0.138209119439125061 0.112662628293037415 0.336804777383804321
-0.652268588542938232 0.285620123147964478 0.0982451140880584717
-0.638456881046295166 0.244779214262962341 -0.0379862338304519653
0.136196285486221313 0.0691631808876991272 0.337918967008590698
-0.577261745929718018 0.303741693496704102 -0.0553444661200046539
0.262390077114105225 0.0303565394133329391 -0.0733736604452133179
0.541938245296478271 -0.216861873865127563 0.111452817916870117
-0.360138207674026489 -0.0356520749628543854 -0.134134083986282349
-0.574908196926116943 0.327414810657501221 -0.0293537266552448273
-0.361833244562149048 -0.0708168447017669678 -0.0338014550507068634
-0.130594611167907715 -0.267483919858932495 0.119178622961044312
0.495116353034973145 -0.365891546010971069 -0.000457338494015857577
0.373783677816390991 -0.359404683113098145 -0.210059940814971924
-0.378438115119934082 -0.106773950159549713 0.10145675390958786
-0.0670989826321601868 -0.264008492231369019 0.296509325504302979
0.519875168800354004 -0.243375465273857117 -0.309495538473129272
0.50944828987121582 -0.330640703439712524 0.0151807414367794991
-0.593509197235107422 0.368882089853286743 0.120812848210334778
-0.655499041080474854 0.175657674670219421 -0.1028117835521698
-0.223056674003601074 -0.14403831958770752 -0.053555171936750412
-0.191380769014358521 0.316513568162918091 0.100913308560848236
0.256593704223632812 -0.28359377384185791 0.319600343704223633
0.239040479063987732 0.0320848450064659119 0.319109350442886353
-0.120205193758010864 -0.046067453920841217 0.00748413987457752228
-0.641706466674804688 0.308561146259307861 0.102099433541297913
0.364666730165481567 -0.373943686485290527 -0.206973224878311157
0.537726402282714844 -0.217895135283470154 0.161725535988807678
-0.552895069122314453 0.38236042857170105 0.158200919628143311
-0.122630029916763306 0.259188085794448853 0.115286216139793396
0.119287237524986267 0.102361492812633514 0.0895473957061767578
-0.375578254461288452 0.265833526849746704 -0.0893883630633354187
0.516869664192199707 -0.349143713712692261 0.0986541956663131714
-0.293565452098846436 -0.107022635638713837 -0.109128929674625397
0.274908006191253662 0.102819681167602539 -0.0575807392597198486
-0.575237452983856201 0.219543620944023132 -0.212436065077781677
-0.115668043494224548 0.268462568521499634 0.179958164691925049
0.235946148633956909 -0.288060933351516724 0.314296334981918335
0.310062825679779053 -0.187459006905555725 0.240954369306564331
0.541758954524993896 -0.325915813446044922 -0.0210195966064929962
0.0789194703102111816 -0.337711632251739502 0.282194226980209351
-0.00649879267439246178 -0.17181338369846344 0.00440839771181344986
-0.282389551401138306 0.261682599782943726 0.00722015416249632835
0.513126373291015625 -0.237147912383079529 -0.309488236904144287
-0.647068440914154053 0.278195410966873169 0.0797705575823783875
-0.646433651447296143 0.183166250586509705 -0.090659409761428833
0.514083981513977051 -0.322604477405548096 0.0241888146847486496
-0.407001614570617676 -0.0635248497128486633 0.113668233156204224
0.516813695430755615 -0.355774760246276855 -0.0207176730036735535
-0.566708505153656006 0.37423408031463623 0.15270976722240448
0.235793113708496094 0.0428965017199516296 0.313661187887191772
-0.664940357208251953 0.227097943425178528 0.0233237147331237793
-0.448156237602233887 -0.0383796393871307373 0.127225488424301147
0.502995729446411133 -0.302327960729598999 -0.178944781422615051
-0.589262485504150391 0.36095002293586731 0.0863142535090446472
-0.194222316145896912 0.314788848161697388 0.105029553174972534
0.246817260980606079 0.0238006766885519028 0.323790580034255981
0.530908644199371338 -0.323874801397323608 -0.0581737570464611053
-0.18297046422958374 0.306889533996582031 0.128638267517089844
0.247067049145698547 0.00687993224710226059 0.323918253183364868
0.0585211291909217834 0.139556258916854858 0.345800012350082397
-0.505771756172180176 0.149361580610275269 0.357039749622344971
0.270659297704696655 -0.311340212821960449 0.326134592294692993
-0.253820568323135376 0.023626033216714859 -0.0705572366714477539
0.240999028086662292 -0.295375704765319824 0.322394222021102905
0.248846068978309631 0.0436763353645801544 0.314384609460830688
0.468314498662948608 -0.102107256650924683 0.0345533154904842377
-0.124887332320213318 0.195029646158218384 0.115549564361572266
0.23989589512348175 -0.326684921979904175 0.31784406304359436
0.500219166278839111 -0.366676241159439087 0.0745376124978065491
0.523416757583618164 -0.324808180332183838 0.0261029936373233795
0.444587528705596924 -0.253442823886871338 0.3322029709815979
0.321422934532165527 -0.131533414125442505 -0.106641650199890137
0.0632447749376296997 -0.0108148921281099319 0.321725189685821533
0.511277914047241211 -0.360974729061126709 0.0474025271832942963
0.135559871792793274 -0.100726023316383362 0.0405965857207775116
0.049410548061132431 0.0115072447806596756 0.0298320092260837555
0.0206682607531547546 0.0481878332793712616 0.0427038855850696564
0.0880093351006507874 -0.0661176368594169617 0.289643436670303345
-0.162120848894119263 -0.265569567680358887 0.1480540931224823
0.264829516410827637 -0.0202835407108068466 0.0615570917725563049
-0.0290059372782707214 -0.0290678944438695908 0.295611470937728882
0.50219351053237915 -0.240392521023750305 -0.302069246768951416
0.475955545902252197 -0.31499442458152771 -0.302006959915161133
-0.630997061729431152 0.30619204044342041 0.167590707540512085
0.475439578294754028 -0.320937365293502808 0.120902068912982941
0.509089469909667969 -0.300933867692947388 -0.105624660849571228
0.528247594833374023 -0.274958312511444092 -0.317258894443511963
0.493572413921356201 -0.332458674907684326 -0.310765832662582397
0.50349193811416626 -0.320254802703857422 0.0978941172361373901
0.474202632904052734 -0.305830508470535278 -0.298160374164581299
-0.559385418891906738 0.267965018749237061 0.364707827568054199
0.124887384474277496 0.116721309721469879 0.314229696989059448
-0.633660852909088135 0.282171905040740967 0.0545013695955276489
-0.587449193000793457 0.36270064115524292 0.10265447199344635
0.371507734060287476 -0.374096810817718506 -0.212752804160118103
0.438429117202758789 -0.348104804754257202 0.154230177402496338
0.0580074414610862732 0.121192730963230133 0.321175664663314819
-0.574644863605499268 0.368695527315139771 0.215767264366149902
0.264645755290985107 0.0244649630039930344 -0.0585811510682106018
0.368753194808959961 -0.336909741163253784 0.160533592104911804
0.510533392429351807 -0.301651865243911743 -0.112073250114917755
0.133623480796813965 -0.320598095655441284 -0.0976795926690101624
0.516591191291809082 -0.348901897668838501 -0.0203737057745456696
0.389304667711257935 -0.346834689378738403 -0.214114561676979065
-0.577112257480621338 0.319004416465759277 0.0410121530294418335
0.536066353321075439 -0.277928054332733154 -0.320665508508682251
0.467911690473556519 -0.310964852571487427 -0.299293100833892822
0.507204592227935791 -0.347247421741485596 0.0178429670631885529
-0.555999159812927246 0.309642791748046875 0.102482415735721588
0.193886682391166687 -0.33939555287361145 -0.0591119378805160522
0.0701177939772605896 -0.282220363616943359 -0.0777677297592163086
0.252457022666931152 -0.250455081462860107 0.320072472095489502
0.23983485996723175 0.0307274889200925827 0.316886991262435913
-0.121065713465213776 -0.0478651486337184906 0.00833801086992025375
0.178703963756561279 -0.10030384361743927 -0.0147121697664260864
0.532487034797668457 -0.332436442375183105 -0.0132594211027026176
0.370373636484146118 -0.349555879831314087 -0.208886146545410156
0.534988701343536377 -0.246052458882331848 0.177133232355117798
0.561200737953186035 -0.315873056650161743 -0.33100658655166626
0.554556608200073242 -0.211934730410575867 0.133796319365501404
-0.54335784912109375 0.380662888288497925 0.164737999439239502
0.122787535190582275 0.117012865841388702 0.133207589387893677
-0.582330048084259033 0.351827353239059448 0.098044179379940033
-0.481658011674880981 0.185948625206947327 -0.0913068875670433044
0.51565861701965332 -0.339328110218048096 0.0387417152523994446
0.253473788499832153 -0.279369086027145386 0.321886509656906128
0.278533756732940674 -0.356038779020309448 -0.126027300953865051
0.507968485355377197 -0.286735981702804565 -0.313725531101226807
-0.432138800621032715 -0.0572078637778759003 0.11690068244934082
0.201881155371665955 0.090284004807472229 0.223388731479644775
0.244245976209640503 0.10432954877614975 -0.0571370571851730347
-0.195724070072174072 0.201370909810066223 0.34942975640296936
0.250399142503738403 0.024686276912689209 0.323313862085342407
0.239757895469665527 0.0187846925109624863 0.321008443832397461
-0.0314799994230270386 0.162525445222854614 0.382770061492919922
-0.482498139142990112 -0.0156765487045049667 0.180392593145370483
0.48384973406791687 -0.369236946105957031 0.0459959954023361206
-0.643591165542602539 0.287003934383392334 0.0864876061677932739
0.275955080986022949 -0.165985852479934692 -0.0704324468970298767
-0.411806821823120117 -0.0568723976612091064 0.0791205167770385742
-0.643089711666107178 0.175638079643249512 -0.0817425549030303955
-0.225900128483772278 -0.13393634557723999 -0.052013494074344635
0.254973053932189941 -0.265785396099090576 0.321050286293029785
-0.345337331295013428 0.0173058882355690002 -0.116685673594474792
-0.287089914083480835 -0.0915386602282524109 -0.106293290853500366
-0.585134685039520264 0.209759533405303955 -0.217742547392845154
0.267637312412261963 -0.297240227460861206 0.315118074417114258
-0.0255796108394861221 -0.187341436743736267 -0.0432785935699939728
-0.61814570426940918 0.276818066835403442 0.0316763520240783691
-0.60891956090927124 0.298120349645614624 0.0927582159638404846
-0.397544503211975098 -0.0628786757588386536 0.119083844125270844
-0.451693803071975708 -0.0382077358663082123 0.119712889194488525
0.431167542934417725 -0.272063314914703369 0.329079866409301758
-0.0524899959564208984 0.14062480628490448 0.0918983221054077148
-0.503038525581359863 0.150985851883888245 0.355654388666152954
0.240856826305389404 -0.319513082504272461 0.322741299867630005
0.497231930494308472 -0.371060311794281006 0.0573059022426605225
0.399351418018341064 -0.257179617881774902 0.322368413209915161
-0.15826667845249176 -0.263568282127380371 0.181672677397727966
-0.499177545309066772 0.0139562683179974556 0.158328965306282043
0.417650759220123291 -0.297679305076599121 0.328629642724990845
0.535413563251495361 -0.340423226356506348 -0.0184902194887399673
0.344347566366195679 -0.267604857683181763 -0.127809032797813416
-0.496488809585571289 0.0718854963779449463 0.204220205545425415
0.443713784217834473 -0.272511422634124756 0.333302736282348633
0.522140085697174072 -0.33564266562461853 0.0327435322105884552
0.453470677137374878 -0.320096850395202637 -0.29302862286567688
0.47431790828704834 -0.311952114105224609 0.116642676293849945
0.517349660396575928 -0.278627872467041016 -0.312840044498443604
0.502784967422485352 -0.326145142316818237 -0.314334303140640259
0.518220424652099609 -0.327379316091537476 0.101850986480712891
0.47943386435508728 -0.311631202697753906 -0.302178800106048584
0.114481240510940552 0.118333294987678528 0.289097785949707031
-0.121980927884578705 0.268407851457595825 0.15897822380065918
-0.614892840385437012 0.265294730663299561 0.0523803979158401489
-0.479387253522872925 0.00299225468188524246 0.181571140885353088
0.426763206720352173 -0.355292856693267822 0.158513501286506653
-0.29226115345954895 -0.110605642199516296 -0.105554044246673584
0.130444169044494629 0.0652466043829917908 0.321288079023361206
0.253714293241500854 0.0383883677423000336 -0.0776850804686546326
0.235468029975891113 0.0935621485114097595 -0.0529582686722278595
0.41777646541595459 -0.261784851551055908 -0.20232759416103363
0.521804690361022949 -0.354899168014526367 -0.0195023622363805771
-0.608948349952697754 0.380869090557098389 0.181535065174102783
0.517701029777526855 -0.279527962207794189 -0.314762473106384277
0.499225020408630371 -0.350257635116577148 0.0240368600934743881
-0.587931394577026367 0.369070738554000854 0.113338597118854523
0.506024956703186035 -0.105076216161251068 0.147216439247131348
-0.19808216392993927 0.311325341463088989 0.113145090639591217
0.264084488153457642 -0.286829233169555664 0.319709181785583496
0.236861348152160645 0.0618305765092372894 0.310557395219802856
-0.14450228214263916 -0.0435987971723079681 0.00440490758046507835
-0.657846689224243164 0.214520737528800964 -0.0459013395011425018
-0.288565874099731445 -0.0760116949677467346 -0.0683943852782249451
0.227223560214042664 0.0418703556060791016 -0.0480331480503082275
0.551616311073303223 -0.144831389188766479 0.131951168179512024
0.519863605499267578 -0.29565158486366272 0.0748307481408119202
0.517708122730255127 -0.28430861234664917 -0.181212157011032104
-0.358065932989120483 -0.0171572323888540268 -0.0277121085673570633
0.0913897454738616943 0.0879587829113006592 0.0859134271740913391
0.466742724180221558 -0.36214601993560791 -0.0106933508068323135
-0.432980984449386597 0.157621517777442932 -0.0662318766117095947
0.523901164531707764 -0.335918575525283813 0.0688346996903419495
0.262943834066390991 -0.28619760274887085 0.318433165550231934
0.00933235883712768555 -0.0911354869604110718 -0.02591727115213871
0.032517358660697937 -0.130536779761314392 0.0220325104892253876
-0.630804479122161865 0.264808207750320435 0.029338642954826355
0.242064476013183594 0.0739937722682952881 0.318824470043182373
0.240143075585365295 0.0292523391544818878 0.318899482488632202
-0.174874290823936462 0.300600558519363403 0.116521529853343964
0.304624199867248535 -0.151615500450134277 0.307745039463043213
0.261979639530181885 -0.290997028350830078 0.320918112993240356
-0.476211726665496826 -0.00827683508396148682 0.166447833180427551
0.242697849869728088 0.0814297795295715332 0.312184900045394897
0.520323336124420166 -0.351569116115570068 0.0818666517734527588
-0.0349130406975746155 -0.237705126404762268 0.124207630753517151
-0.638405263423919678 0.28978392481803894 0.0991147533059120178
-0.234214171767234802 -0.132905885577201843 -0.0577982068061828613
-0.379282355308532715 -0.108860358595848083 0.105723053216934204
-0.236418172717094421 -0.147921934723854065 -0.0576474368572235107
-0.658059358596801758 0.21421322226524353 -0.0336055271327495575
0.528965532779693604 -0.352900862693786621 0.0778072774410247803
-0.621250033378601074 0.270067840814590454 0.0527769103646278381
-0.404164612293243408 -0.0644204244017601013 0.112262070178985596
-0.446352303028106689 -0.0415937602519989014 0.122214309871196747
0.268047869205474854 -0.285893678665161133 0.3233909010887146
0.127655461430549622 -0.326806485652923584 0.312550932168960571
0.152317047119140625 -0.343304187059402466 0.317811846733093262
0.447798192501068115 -0.33585202693939209 -0.293000191450119019
0.515838027000427246 -0.303230643272399902 -0.107996515929698944
0.515321612358093262 -0.280498981475830078 -0.31285780668258667
0.484946876764297485 -0.327910006046295166 -0.309810340404510498
0.464417964220046997 -0.346113830804824829 -0.302679598331451416
0.549687445163726807 -0.210486441850662231 -0.316018581390380859
0.524190545082092285 -0.30028042197227478 -0.3225117027759552
0.51805424690246582 -0.301091223955154419 -0.318406194448471069
0.246787488460540771 0.0567160695791244507 0.316413730382919312
0.241265758872032166 0.0871822461485862732 0.31275370717048645
-0.291712760925292969 -0.10061095654964447 -0.10168340802192688
-0.45360797643661499 -0.0520707406103610992 0.117312081158161163
0.404826462268829346 -0.272597759962081909 0.322408586740493774
-0.502429664134979248 0.00365277752280235291 0.189365938305854797
0.401121228933334351 -0.287570953369140625 0.324722915887832642
0.399266183376312256 -0.273891687393188477 0.323205024003982544
0.34223446249961853 -0.259228497743606567 0.090096496045589447
-0.0188186205923557281 -0.24450114369392395 0.12877364456653595
-0.464539438486099243 0.0358592532575130463 0.189772740006446838
-0.19447682797908783 0.221370905637741089 0.172241881489753723
0.366866439580917358 -0.329508483409881592 -0.0235023517161607742
0.323439359664916992 -0.390289306640625 -0.15883927047252655
0.535503387451171875 -0.323882728815078735 -0.0582769624888896942
-0.441796451807022095 -0.00483379838988184929 0.152917385101318359
-0.0192051716148853302 -0.05968485027551651 0.141870871186256409
-0.000271846569376066327 -0.236239448189735413 0.106503263115882874
0.526272177696228027 -0.202086567878723145 -0.0800712928175926208
0.449856966733932495 -0.308542937040328979 -0.292884111404418945
0.526919245719909668 -0.275660723447799683 -0.315713495016098022
0.499979555606842041 -0.325095117092132568 -0.312703162431716919
0.475282639265060425 -0.305260360240936279 -0.297413676977157593
-0.127545684576034546 0.246383786201477051 0.139164984226226807
-0.649110317230224609 0.281804382801055908 0.0945028811693191528
-0.199023962020874023 0.286379247903823853 0.336067825555801392
0.498000681400299072 -0.0870909318327903748 0.136594235897064209
0.20074819028377533 -0.359309107065200806 -0.0907319337129592896
0.505474746227264404 -0.367917925119400024 -0.022754281759262085
0.527303338050842285 -0.242997556924819946 0.172841012477874756
-0.586074531078338623 0.379091024398803711 0.170924097299575806
0.445072263479232788 -0.315134614706039429 -0.287757426500320435
0.498584330081939697 -0.111444473266601562 0.112110026180744171
-0.655877530574798584 0.175342157483100891 -0.103508785367012024
-0.202055990695953369 0.308525621891021729 0.0893658474087715149
0.20122954249382019 -0.0138741815462708473 0.295271575450897217
0.159973740577697754 -0.0623783357441425323 -0.0439196303486824036
-0.579618990421295166 0.301992118358612061 0.368924856185913086
0.27499854564666748 0.0980533957481384277 -0.029012586921453476
-0.435349404811859131 0.155327931046485901 -0.0857548043131828308
0.5345115065574646 -0.333296746015548706 0.0126773808151483536
-0.568848013877868652 0.197224289178848267 -0.228830382227897644
-0.49769476056098938 0.0449560880661010742 -0.0865724757313728333
0.0313692465424537659 -0.104150563478469849 0.0331846289336681366
0.534173190593719482 -0.264703363180160522 -0.316360920667648315
0.00970419775694608688 0.197413921356201172 0.0277942884713411331
0.302123099565505981 0.0385804437100887299 -0.0843769237399101257
-0.332166343927383423 -0.0159981418401002884 -0.107450224459171295
0.236419767141342163 0.0141443070024251938 0.321813464164733887
0.124989882111549377 0.012749440036714077 0.299013257026672363
0.527584433555603027 -0.355415850877761841 0.0662578046321868896
0.467157334089279175 -0.310044825077056885 -0.233139798045158386
-0.652089059352874756 0.285141497850418091 0.104609929025173187
0.546642959117889404 -0.220281034708023071 0.163399040699005127
0.528110802173614502 -0.323619872331619263 -0.0161015540361404419
-0.382985234260559082 -0.0564096681773662567 0.0764473900198936462
0.456979960203170776 -0.311024844646453857 -0.292585402727127075
0.505057692527770996 -0.340014159679412842 -0.317941963672637939
0.478902101516723633 -0.314506679773330688 -0.29953804612159729
0.520462274551391602 -0.301496386528015137 -0.317371755838394165
-0.00227601779624819756 -0.140092805027961731 -0.0245968587696552277
0.39759981632232666 -0.273449510335922241 0.323380529880523682
0.401270836591720581 -0.271877855062484741 0.323684871196746826
0.506160616874694824 -0.332235187292098999 0.105780921876430511
-0.467539995908737183 0.0423960462212562561 0.170892477035522461
0.410089254379272461 -0.346111416816711426 0.156540855765342712
-0.360749125480651855 -0.035258166491985321 -0.147836789488792419
-0.128129869699478149 -0.267721861600875854 0.112545013427734375
0.512694656848907471 -0.369257181882858276 -0.0147030288353562355
-0.213679894804954529 0.312330305576324463 0.0978949591517448425
0.25064694881439209 -0.287333875894546509 0.322861343622207642
0.208933070302009583 0.0091806165874004364 -0.0459604673087596893
0.0699873343110084534 -0.151644840836524963 -0.0170439146459102631
-0.169715091586112976 0.304551243782043457 0.119085446000099182
0.471195042133331299 -0.364566534757614136 0.00702347094193100929
-0.290833026170730591 -0.099401816725730896 -0.102940492331981659
0.0364851132035255432 -0.149790793657302856 -0.0214944370090961456
0.232157960534095764 0.0559515468776226044 0.309242486953735352
0.25345340371131897 -0.288896113634109497 0.320642203092575073
-0.471630394458770752 0.00111452420242130756 0.16891033947467804
0.240977376699447632 0.0624014809727668762 0.313139200210571289
0.509056985378265381 -0.352257490158081055 0.063914760947227478
0.227482497692108154 -0.315020620822906494 0.314553976058959961
-0.375286489725112915 -0.0931135043501853943 0.0864112377166748047
-0.0625937581062316895 -0.241739943623542786 0.302628636360168457
-0.222568601369857788 -0.127653330564498901 -0.0528579801321029663
-0.409780800342559814 -0.0654315650463104248 0.0987622365355491638
-0.444894552230834961 -0.0447170063853263855 0.13298332691192627
0.23903849720954895 -0.294268935918807983 0.314424037933349609
0.153985157608985901 -0.324516892433166504 0.32012474536895752
0.425411015748977661 -0.256373435258865356 0.328525930643081665
0.438349127769470215 -0.343075394630432129 -0.292649656534194946
0.506476998329162598 -0.334717363119125366 -0.318087011575698853
0.445200264453887939 -0.352422446012496948 -0.28671225905418396
0.238242790102958679 0.0654653459787368774 0.312419980764389038
0.403349399566650391 -0.287800103425979614 0.325846463441848755
-0.494651556015014648 0.00668924720957875252 0.188647568225860596
0.485841423273086548 -0.0635271593928337097 0.131734803318977356
0.0126094957813620567 -0.170815214514732361 0.0100699374452233315
0.531700611114501953 -0.307819783687591553 -0.0622391439974308014
0.314910084009170532 -0.302415907382965088 -0.126732826232910156
0.446039974689483643 -0.291480004787445068 -0.285618066787719727
-0.336791247129440308 0.22457490861415863 0.125969737768173218
-0.400703996419906616 -0.0281404443085193634 -0.00161980302073061466
0.403257071971893311 -0.272021085023880005 0.324067622423171997
-0.133185148239135742 0.195611804723739624 0.167983561754226685
0.399305939674377441 -0.27195701003074646 0.323882013559341431
-0.446366697549819946 -0.0249204486608505249 0.0217112861573696136
-0.137858211994171143 0.244647517800331116 0.191937550902366638
-0.612634837627410889 0.293866723775863647 0.184058696031570435
0.124601565301418304 0.115853413939476013 0.316818267107009888
-0.120800144970417023 0.250381439924240112 0.162081107497215271
-0.583160817623138428 0.348001450300216675 0.0584588497877120972
0.427003741264343262 -0.348286420106887817 0.153020232915878296
-0.566591203212738037 0.294956833124160767 -0.0686654448509216309
0.251974701881408691 0.0265221241861581802 -0.0794105455279350281
0.247766047716140747 0.100175373256206512 -0.0481825359165668488
-0.357220262289047241 -0.0556016378104686737 -0.14157530665397644
0.198797374963760376 0.120007447898387909 0.0359316430985927582
0.545740723609924316 -0.131770133972167969 0.111959256231784821
-0.581480085849761963 0.32163703441619873 -0.0225235838443040848
0.206223592162132263 0.024489106610417366 0.176952376961708069
-0.595161020755767822 0.374967694282531738 0.172336950898170471
0.444979488849639893 -0.31938210129737854 0.127356961369514465
0.255253016948699951 -0.278864830732345581 0.316488146781921387
0.235634505748748779 0.0235804617404937744 0.316661924123764038
-0.362673372030258179 -0.0496489256620407104 -0.0234887562692165375
-0.182464197278022766 0.118085712194442749 0.0425850376486778259
0.254970043897628784 -0.288301229476928711 0.319302529096603394
0.242070049047470093 0.0329502671957015991 0.321925520896911621
0.399963140487670898 0.0231253448873758316 0.115240007638931274
-0.340254157781600952 -0.065951421856880188 -0.147024348378181458
0.0759808644652366638 -0.332965046167373657 0.299027472734451294
-0.386508643627166748 -0.0606605112552642822 0.0940736383199691772
-0.447928667068481445 -0.0411921665072441101 0.127996310591697693
0.439566314220428467 -0.279494255781173706 0.333589881658554077
0.0346311666071414948 -0.122852809727191925 -0.0253966599702835083
0.414525657892227173 -0.28094017505645752 0.326942533254623413
0.433242082595825195 -0.296234786510467529 0.333093643188476562
0.368116974830627441 -0.278736680746078491 -0.130217462778091431
-0.477109313011169434 0.00159211689606308937 0.188595622777938843
-0.291247278451919556 -0.096112571656703949 -0.104271188378334045
0.241594284772872925 -0.313051521778106689 0.309669047594070435
0.473421961069107056 -0.354292005300521851 0.00703289872035384178
-0.29607999324798584 -0.0963615626096725464 -0.106721594929695129
0.244946718215942383 -0.288645178079605103 0.320059448480606079
0.0625183507800102234 -0.329663306474685669 0.297118127346038818
0.158213764429092407 -0.2676963210105896 -0.105371579527854919
0.250274509191513062 0.063207186758518219 0.315561473369598389
-0.482228577136993408 -0.0077932160347700119 0.178213804960250854
0.23641398549079895 0.0663815960288047791 0.314921975135803223
0.238939225673675537 -0.331852227449417114 0.321394175291061401
-0.381963580846786499 -0.0917989015579223633 0.0369976349174976349
-0.21583026647567749 -0.139885753393173218 -0.054093632847070694
-0.382412135601043701 -0.063465707004070282 0.0837918370962142944
0.150199726223945618 -0.331625670194625854 0.331911981105804443
0.4460887610912323 -0.280027329921722412 0.333511114120483398
0.407635897397994995 -0.280650079250335693 0.325057446956634521
-0.501740872859954834 0.00666612107306718826 0.188964754343032837
-0.321657836437225342 0.097307838499546051 -0.0699786841869354248
0.532774567604064941 -0.207623571157455444 -0.0526560023427009583
0.451234549283981323 -0.29391750693321228 -0.290509521961212158
0.487708002328872681 -0.325263053178787231 -0.310941249132156372
0.446677953004837036 -0.309756964445114136 -0.290871858596801758
-0.577469706535339355 0.269013255834579468 0.366114169359207153
-0.461173772811889648 0.105899602174758911 -0.230701431632041931
0.37504538893699646 -0.31878313422203064 0.199049636721611023
-0.589536786079406738 0.366735935211181641 0.131557554006576538
0.392808020114898682 -0.353453844785690308 -0.217488184571266174
0.441372901201248169 -0.310298770666122437 -0.289078742265701294
-0.200439527630805969 0.305251985788345337 0.095224626362323761
-0.155294165015220642 0.267749905586242676 0.151900544762611389
0.530064761638641357 -0.338549405336380005 0.0717478320002555847
0.464085102081298828 -0.266193270683288574 -0.21770159900188446
-0.633266270160675049 0.275559604167938232 0.107363276183605194
0.438693583011627197 -0.30859142541885376 -0.287248373031616211
0.515763640403747559 -0.277242839336395264 -0.316908299922943115
0.51688385009765625 -0.340370535850524902 -0.320826798677444458
0.454642444849014282 -0.307073593139648438 -0.293311089277267456
0.491138726472854614 -0.322039246559143066 0.094318196177482605
0.0208403505384922028 -0.275716692209243774 -0.0183715205639600754
-0.653808474540710449 0.171884790062904358 -0.107788555324077606
-0.224473744630813599 0.318352162837982178 0.121611818671226501
0.465590298175811768 -0.364171594381332397 0.00586465280503034592
0.481314480304718018 -0.336908191442489624 0.0502222180366516113
0.511784791946411133 -0.3394298255443573 -0.31948426365852356
0.440459132194519043 -0.356570571660995483 -0.297662883996963501
-0.269785076379776001 0.321846038103103638 0.0421571582555770874
0.42441144585609436 -0.313310116529464722 -0.281936526298522949
0.415728956460952759 -0.295390784740447998 0.328386932611465454
