ply
format ascii 1.0
element vertex 736
property float x
property float y
property float z
end_header
0.474943071603775024 -0.126044973731040955 -0.021976914256811142
0.384978711605072021 -0.0642404332756996155 -0.0660728886723518372
-0.447969913482666016 -0.00614850828424096107 -0.0222941655665636063
0.470452278852462769 -0.201807796955108643 0.0138102853670716286
0.439080655574798584 -0.251467347145080566 -0.209928169846534729
-0.405113190412521362 0.144800588488578796 -0.0550360977649688721
0.456706136465072632 -0.261299401521682739 -0.211436435580253601
-0.106311477720737457 0.0448218844830989838 0.270357131958007812
0.501119732856750488 -0.261979103088378906 0.0208597481250762939
0.323580414056777954 -0.204370990395545959 0.206898391246795654
0.447996795177459717 -0.346414446830749512 -0.22925800085067749
0.482133269309997559 -0.358901858329772949 -0.070924803614616394
0.500064969062805176 -0.319967210292816162 -0.310986578464508057
-0.113106384873390198 0.144780069589614868 0.367744147777557373
-0.497207462787628174 0.133571147918701172 -0.0524563640356063843
-0.435786247253417969 -0.0296157896518707275 0.166053101420402527
-0.631666719913482666 0.304399281740188599 0.182370290160179138
0.487653642892837524 -0.321879655122756958 0.125563323497772217
-0.251626670360565186 -0.026677323505282402 0.0657152608036994934
0.389764845371246338 0.0467012003064155579 -0.0433102287352085114
0.514967024326324463 -0.309653580188751221 -0.102766446769237518
-0.375758975744247437 0.330445855855941772 0.143435239791870117
-0.365906178951263428 -0.00625915685668587685 -0.126474276185035706
-0.535031735897064209 0.284802287817001343 -0.00452928943559527397
-0.194307953119277954 -0.0195588264614343643 0.173225685954093933
0.357463210821151733 -0.28293493390083313 0.0422417968511581421
-0.215133875608444214 -0.0853885337710380554 0.0358405411243438721
0.077953241765499115 -0.0511057712137699127 0.264122277498245239
0.464590758085250854 -0.308633476495742798 -0.219168871641159058
-0.574747860431671143 0.361286938190460205 0.266983300447463989
-0.574294149875640869 0.274428904056549072 0.235909014940261841
-0.552258729934692383 0.270486831665039062 -0.107104308903217316
0.532066166400909424 -0.201722562313079834 -0.0902287513017654419
0.47130584716796875 -0.30713576078414917 -0.0189738254994153976
-0.585350751876831055 0.26096227765083313 -0.0426594987511634827
0.420752406120300293 -0.302678883075714111 0.0655999630689620972
-0.45857703685760498 0.116968333721160889 -0.232480496168136597
0.314047247171401978 0.0441290028393268585 0.0267820954322814941
0.495360106229782104 -0.32163432240486145 -0.309725910425186157
0.343141734600067139 -0.186120405793190002 0.163804933428764343
0.449895560741424561 -0.359357893466949463 -0.0816897675395011902
-0.295707195997238159 0.214145764708518982 0.0125746587291359901
-0.467307239770889282 0.155231162905693054 -0.0452661886811256409
0.448903083801269531 -0.265206426382064819 -0.144526422023773193
0.512958288192749023 -0.330358624458312988 0.111568354070186615
0.477161943912506104 -0.303377419710159302 -0.303138136863708496
-0.383184254169464111 0.333648502826690674 0.16208842396736145
-0.560737550258636475 0.263684511184692383 0.364188641309738159
0.445632189512252808 -0.331946313381195068 -0.229044914245605469
-0.559214413166046143 0.333217889070510864 0.11283431202173233
0.438191354274749756 -0.250100284814834595 0.0919713452458381653
-0.363529860973358154 0.246383547782897949 -0.015892302617430687
0.442731648683547974 -0.235508471727371216 -0.226708024740219116
0.134354859590530396 0.120971754193305969 0.337482422590255737
0.285456180572509766 -0.081426471471786499 0.19085143506526947
0.541266977787017822 -0.221114426851272583 0.112641453742980957
0.159874260425567627 0.0942605957388877869 0.124615944921970367
-0.049058821052312851 -0.0633112192153930664 0.0490313507616519928
-0.589702010154724121 0.27100682258605957 -0.00775668025016784668
-0.610749900341033936 0.236646577715873718 -0.0566319301724433899
-0.343819916248321533 0.166797906160354614 0.0329450145363807678
-0.581975102424621582 0.190736040472984314 0.0902726352214813232
-0.436929076910018921 0.0521040819585323334 -0.14905315637588501
-0.0910182446241378784 0.266258090734481812 0.177496999502182007
0.249674946069717407 0.104017548263072968 -0.0588069744408130646
0.111492007970809937 0.0956060290336608887 -0.0142262233421206474
0.386377036571502686 -0.264544874429702759 0.196623161435127258
-0.01546512171626091 0.00314877904020249844 0.222801938652992249
-0.438448250293731689 -0.0139962863177061081 -0.0324775539338588715
-0.136532619595527649 -0.0375050827860832214 0.0951819196343421936
0.0254776254296302795 0.142652213573455811 0.294716298580169678
-0.555581629276275635 0.150797754526138306 -0.113797225058078766
0.0428561940789222717 -0.0584798790514469147 0.153880670666694641
-0.156122997403144836 -0.00242858380079269409 0.156144723296165466
0.0369550026953220367 0.139203831553459167 0.0901879295706748962
-0.462807178497314453 0.00750214792788028717 0.166406497359275818
-0.287407606840133667 -0.0541364103555679321 0.135231643915176392
0.207837030291557312 -0.153571411967277527 0.212911635637283325
0.0320086292922496796 0.118346266448497772 0.091280810534954071
0.321505039930343628 -0.172155484557151794 0.0109121100977063179
0.301409423351287842 -0.124263092875480652 -0.0412258580327033997
-0.377945572137832642 -0.00805334746837615967 -0.0304028689861297607
0.448463618755340576 -0.272811263799667358 0.0947212874889373779
0.317842066287994385 -0.117526493966579437 0.0139368614181876183
0.157800093293190002 -0.0914500132203102112 0.212981522083282471
-0.162804797291755676 0.146308988332748413 0.0703511536121368408
0.45638728141784668 -0.108696110546588898 -0.231052681803703308
-0.578331649303436279 0.244264870882034302 -0.12040429562330246
-0.572351396083831787 0.29457816481590271 -0.0645703151822090149
0.517965376377105713 -0.242478117346763611 -0.158455848693847656
-0.370469897985458374 0.0983490049839019775 -0.0743139386177062988
-0.614714324474334717 0.263541162014007568 0.0380658097565174103
0.343036383390426636 -0.32914501428604126 -0.1060834601521492
0.34065595269203186 -0.189470663666725159 0.160726115107536316
0.532332658767700195 -0.247498676180839539 0.0930738598108291626
0.14357149600982666 0.0784823149442672729 0.0924206599593162537
-0.573079586029052734 0.30492052435874939 -0.0518205948173999786
0.271432578563690186 0.00512492330744862556 0.0711867213249206543
-0.625956952571868896 0.192952901124954224 -0.0888064652681350708
-0.462068170309066772 0.291679143905639648 -0.0621605105698108673
-0.153055563569068909 0.179921641945838928 0.0908179357647895813
-0.549906611442565918 0.17392730712890625 -0.0445048138499259949
-0.544634222984313965 0.277619808912277222 0.171263441443443298
0.40118446946144104 -0.234011620283126831 -0.0232475865632295609
0.286807835102081299 -0.062706679105758667 -0.0967154204845428467
0.221708893775939941 0.0398595593869686127 -0.0700434222817420959
0.103190280497074127 -0.138744264841079712 0.210905805230140686
0.115278065204620361 0.0723156481981277466 0.316626548767089844
-0.371257126331329346 0.118149042129516602 0.236700102686882019
-0.0233694929629564285 -0.0577522441744804382 0.137473598122596741
0.221852764487266541 -0.236300960183143616 0.0977211743593215942
0.0755590572953224182 0.064655989408493042 0.0342690646648406982
-0.384600043296813965 -0.0583929605782032013 0.103907570242881775
0.104153208434581757 0.0789024606347084045 0.126253455877304077
0.25222507119178772 0.0284873936325311661 -0.0656209588050842285
-0.373095661401748657 0.26923447847366333 0.113348022103309631
0.032217763364315033 -0.0558712407946586609 0.302256584167480469
-0.0152482911944389343 0.137504279613494873 0.0921456515789031982
-0.502398073673248291 0.0953296124935150146 -0.128354042768478394
-0.34648662805557251 0.0121002523228526115 0.150366157293319702
0.52670520544052124 -0.0548165850341320038 -0.309066742658615112
-0.501026153564453125 0.135580867528915405 -0.241414770483970642
0.473050445318222046 -0.269173592329025269 0.113506406545639038
0.377108901739120483 -0.134134382009506226 -0.0476455613970756531
0.234887510538101196 0.0927122235298156738 -0.0401636026799678802
0.137385830283164978 0.0126690706238150597 0.284853130578994751
0.520689666271209717 -0.204718530178070068 -0.0880555510520935059
-0.537235558032989502 0.124467901885509491 -0.106277652084827423
-0.580107450485229492 0.292477607727050781 -0.0015773155028000474
0.482734829187393188 -0.325261145830154419 0.100392825901508331
0.499470174312591553 -0.26973646879196167 0.0361807532608509064
0.493059366941452026 -0.33027803897857666 -0.0628072917461395264
-0.484301507472991943 0.119980029761791229 -0.0459601655602455139
-0.592402040958404541 0.301306664943695068 0.175158053636550903
0.483518153429031372 -0.323149740695953369 0.134744942188262939
0.50581657886505127 -0.303699254989624023 -0.103792399168014526
-0.381922900676727295 0.316764295101165771 0.158436745405197144
-0.547204971313476562 0.334177732467651367 0.133789435029029846
0.460572034120559692 -0.259588390588760376 0.115237750113010406
0.533901751041412354 -0.207470640540122986 -0.0876898244023323059
0.513314366340637207 -0.231942057609558105 -0.304779231548309326
-0.554833829402923584 0.259319961071014404 -0.0213611777871847153
0.461460232734680176 -0.304798811674118042 0.109257407486438751
-0.452788710594177246 0.112342968583106995 -0.225412994623184204
0.486259162425994873 -0.314385056495666504 -0.303481131792068481
-0.560246050357818604 0.317424207925796509 0.354258507490158081
0.179441601037979126 -0.10445944219827652 -0.0160221438854932785
0.30645674467086792 0.0179070550948381424 -0.111482419073581696
0.50637519359588623 -0.33805316686630249 0.0251359771937131882
0.40495714545249939 0.0224951431155204773 0.00848584529012441635
0.475197345018386841 -0.288421303033828735 -0.299935609102249146
0.0104676075279712677 0.153831645846366882 0.0575357973575592041
0.523157715797424316 -0.300607681274414062 -0.0977237075567245483
-0.381591469049453735 0.33370816707611084 0.204706624150276184
-0.551809608936309814 0.337239772081375122 0.124219827353954315
0.418674767017364502 -0.252850234508514404 0.0982742607593536377
-0.580931901931762695 0.208017840981483459 -0.215442612767219543
0.278681308031082153 -0.0853891372680664062 0.190821930766105652
-0.130110964179039001 0.224219411611557007 0.126523286104202271
-0.382941454648971558 0.103655628859996796 -0.0635637342929840088
0.551534593105316162 -0.22027452290058136 0.114578738808631897
0.383845895528793335 -0.242703497409820557 0.314176082611083984
-0.553504705429077148 0.162843450903892517 0.0794234797358512878
-0.134787902235984802 0.201131731271743774 0.168440058827400208
0.242518395185470581 0.109702281653881073 -0.0487680509686470032
0.116618774831295013 0.039516933262348175 0.32839396595954895
-0.559907436370849609 0.277757823467254639 0.00205939123407006264
0.32007405161857605 -0.133023396134376526 -0.0795403271913528442
-0.575782299041748047 0.200042456388473511 -0.226392224431037903
0.20808786153793335 0.117725610733032227 0.0454392842948436737
0.463875293731689453 -0.30845305323600769 0.135031789541244507
-0.586077690124511719 0.319499552249908447 -0.0252556297928094864
0.530517756938934326 -0.253610581159591675 0.0985135212540626526
-0.310381591320037842 0.0821640565991401672 -0.0724442750215530396
-0.450261503458023071 0.00810988806188106537 -0.140502899885177612
-0.30174332857131958 0.290457636117935181 0.146243438124656677
-0.527192592620849609 0.181302919983863831 -0.215661570429801941
-0.392301440238952637 -0.0589858926832675934 0.100578702986240387
-0.546072900295257568 0.262506842613220215 -0.165104478597640991
0.313886553049087524 -0.33438834547996521 0.197995543479919434
-0.0599272884428501129 0.0936535075306892395 0.321337461471557617
-0.101895786821842194 0.143460243940353394 0.0935857519507408142
0.49984276294708252 -0.363008081912994385 0.0765982866287231445
0.349054217338562012 -0.283107459545135498 -0.134828940033912659
-0.412994682788848877 0.197775930166244507 0.0361773595213890076
-0.345743149518966675 0.251398950815200806 -0.0136133860796689987
-0.267964959144592285 0.0786070600152015686 -0.0147336777299642563
-0.181118443608283997 0.0182969514280557632 0.0395868159830570221
-0.554054319858551025 0.212354972958564758 -0.0477536991238594055
0.407827198505401611 -0.401084750890731812 -0.215540796518325806
0.517666399478912354 -0.285334467887878418 -0.100020721554756165
0.395338892936706543 -0.264642387628555298 -0.193496838212013245
0.497848063707351685 -0.274451941251754761 -0.300587892532348633
0.434657782316207886 -0.257434964179992676 -0.00155821116641163826
-0.154726222157478333 -0.244496926665306091 0.14883461594581604
-0.630777060985565186 0.194150283932685852 -0.0481088533997535706
-0.355573117733001709 3.50941372744273394e-05 -0.15138457715511322
-0.5017356276512146 0.145998120307922363 0.346041291952133179
-0.332197129726409912 0.299490571022033691 0.190958350896835327
-0.335175663232803345 -0.0319677665829658508 -0.132509112358093262
0.113259002566337585 0.0951817333698272705 0.0295086223632097244
0.470264077186584473 -0.135071143507957458 0.0998491570353507996
0.399166524410247803 -0.305122047662734985 0.14549572765827179
-0.457872211933135986 0.16731579601764679 0.116586565971374512
-0.536942660808563232 0.287065267562866211 0.0418007597327232361
-0.27676236629486084 -0.127998366951942444 0.0818273797631263733
-0.483664661645889282 0.24881879985332489 -0.103217564523220062
0.171270549297332764 -0.272310644388198853 0.0368205159902572632
-0.345202386379241943 0.103135421872138977 0.00642984453588724136
-0.366560459136962891 0.282687664031982422 0.0868901684880256653
0.386676043272018433 -0.230169326066970825 -0.1214609295129776
-0.353642791509628296 0.00211454299278557301 0.0351580679416656494
-0.518676042556762695 0.2017173171043396 0.0489036254584789276
-0.385543972253799438 0.182523667812347412 0.092054121196269989
-0.572416782379150391 0.327929854393005371 -0.0119597027078270912
-0.339635848999023438 -0.0881107598543167114 -0.0541095435619354248
-0.137182876467704773 -0.269389241933822632 0.130362406373023987
0.275257319211959839 -0.166027560830116272 0.0553459189832210541
0.313272088766098022 -0.302812963724136353 -0.12812437117099762
-0.381826192140579224 0.250043630599975586 0.233326226472854614
0.310975372791290283 -0.217307686805725098 0.201583579182624817
0.496421754360198975 -0.255077153444290161 -0.105119824409484863
-0.11919122189283371 0.072300255298614502 0.173747777938842773
0.512577950954437256 -0.362102478742599487 -0.0304115228354930878
-0.509777605533599854 0.268757432699203491 -0.00517226429656147957
-0.595805704593658447 0.243671804666519165 -0.00300232786685228348
-0.586949467658996582 0.250788301229476929 0.194039836525917053
-0.548421978950500488 0.120961122214794159 -0.134453490376472473
-0.245350882411003113 0.18248303234577179 0.357050031423568726
0.462479770183563232 -0.26439240574836731 -0.290129870176315308
0.456239432096481323 -0.256113618612289429 -0.186607569456100464
0.519511103630065918 -0.30295369029045105 0.0448843240737915039
-0.626299560070037842 0.199998646974563599 0.0446353219449520111
-0.256261438131332397 -0.00500701367855072021 -0.0621830709278583527
0.245771855115890503 0.0988055020570755005 -0.068615056574344635
0.505133688449859619 -0.160059750080108643 0.131313800811767578
0.34346771240234375 -0.0701576694846153259 0.16250196099281311
0.400097548961639404 -0.237256452441215515 0.130756184458732605
-0.360214591026306152 -0.119165621697902679 0.116418942809104919
-0.479662030935287476 0.189302220940589905 0.0638196095824241638
-0.575304687023162842 0.341773808002471924 0.0250288192182779312
-0.359582006931304932 -0.0636956468224525452 0.0908081978559494019
-0.34334900975227356 0.0112632866948843002 -0.114491045475006104
0.303267002105712891 -0.296082943677902222 0.162446826696395874
-0.505287468433380127 0.220677450299263 0.14174962043762207
-0.485848605632781982 0.0280730072408914566 -0.0470637455582618713
0.033267538994550705 0.0876822099089622498 0.0880838260054588318
-0.231928929686546326 0.346984952688217163 0.148898065090179443
0.0319540128111839294 0.0102174878120422363 0.0422880910336971283
-0.366319179534912109 -0.0371037349104881287 -0.0328215658664703369
-0.0482108741998672485 -0.234568983316421509 0.301887661218643188
0.186054110527038574 -0.293171107769012451 0.00398111250251531601
0.235001921653747559 -0.0118004847317934036 0.230650514364242554
-0.527113199234008789 0.140360802412033081 0.0678535550832748413
-0.520949065685272217 0.201109707355499268 -0.0675510242581367493
-0.552894830703735352 0.285481840372085571 0.107322528958320618
0.144001603126525879 0.00754443975165486336 0.308124125003814697
0.0679067373275756836 -0.286551833152770996 -0.0813293084502220154
-0.36260676383972168 0.034893915057182312 -0.161266922950744629
0.307578086853027344 -0.293922722339630127 0.0298917293548583984
-0.339810490608215332 0.213127002120018005 0.159237012267112732
-0.188485726714134216 0.199791386723518372 0.367972463369369507
-0.54072272777557373 0.254587382078170776 -0.084297865629196167
0.522694408893585205 -0.199856698513031006 -0.0922976583242416382
-0.519700825214385986 0.185043498873710632 0.136354222893714905
-0.544315814971923828 0.269720315933227539 -0.00260245101526379585
0.471236348152160645 -0.326503157615661621 0.0449621938169002533
0.289218246936798096 0.0307747907936573029 0.054163612425327301
0.433308303356170654 -0.306389719247817993 -0.284840852022171021
-0.519317984580993652 0.089686863124370575 -0.135274603962898254
-0.601269364356994629 0.285103708505630493 0.18376941978931427
0.467790186405181885 -0.321426093578338623 0.127760499715805054
0.467638790607452393 -0.260900825262069702 -0.293394148349761963
-0.404650598764419556 0.300276458263397217 0.142799004912376404
-0.45494544506072998 0.119103372097015381 -0.224080577492713928
0.481529682874679565 -0.312191635370254517 -0.302242666482925415
0.468303561210632324 -0.330988705158233643 -0.00265215919353067875
0.457285702228546143 -0.30563238263130188 -0.29217115044593811
0.52430349588394165 -0.262224048376083374 -0.10170331597328186
-0.409417539834976196 0.318392276763916016 0.162656471133232117
-0.561487555503845215 0.267354816198348999 0.36515343189239502
-0.576868951320648193 0.210272759199142456 -0.201020941138267517
0.447462528944015503 -0.296920567750930786 -0.222763568162918091
0.31072080135345459 -0.076495051383972168 0.149243876338005066
0.534762561321258545 -0.248516321182250977 0.101561814546585083
-0.563329100608825684 0.119465157389640808 -0.233496204018592834
-0.40887153148651123 0.076312236487865448 -0.116631150245666504
-0.580388784408569336 0.356170475482940674 0.0824198722839355469
0.0414180606603622437 0.114219732582569122 0.312588244676589966
-0.457364737987518311 0.00853443145751953125 0.181561082601547241
0.409613907337188721 -0.344237178564071655 0.160274311900138855
-0.555423200130462646 0.288238614797592163 -0.0494134165346622467
0.543258011341094971 -0.256173014640808105 0.11399482935667038
0.0239538382738828659 -0.250194579362869263 0.205201193690299988
0.195772185921669006 0.129773542284965515 0.0352116711437702179
0.315596014261245728 -0.370872616767883301 -0.156782969832420349
0.110733658075332642 0.0592623874545097351 0.319332897663116455
-0.315478742122650146 0.306205421686172485 0.284219831228256226
-0.255023747682571411 -0.133117944002151489 -0.0732045024633407593
-0.387185513973236084 -0.0605692677199840546 0.106361113488674164
0.453355967998504639 -0.0729851052165031433 -0.116064563393592834
0.316061317920684814 -0.333419531583786011 0.196128100156784058
0.298069775104522705 0.0379219986498355865 0.0504705384373664856
0.476030826568603516 -0.331244140863418579 0.136728599667549133
0.439854264259338379 -0.267819970846176147 -0.282007575035095215
0.461611062288284302 -0.273323625326156616 0.138317614793777466
0.50415337085723877 -0.346660703420639038 0.0177530292421579361
0.519041657447814941 -0.269815623760223389 -0.0868315920233726501
0.498922497034072876 -0.0882765650749206543 0.162230044603347778
0.542421221733093262 -0.215472027659416199 0.111200079321861267
-0.577809453010559082 0.326671838760375977 0.0802389681339263916
0.246917381882667542 0.111054889857769012 -0.0540594011545181274
0.0335994958877563477 0.0680675134062767029 0.272755354642868042
-0.562777340412139893 0.275010645389556885 0.0237664543092250824
-0.614696025848388672 0.271810799837112427 0.0383342467248439789
0.535780251026153564 -0.239459618926048279 0.103221707046031952
-0.576801717281341553 0.212435171008110046 -0.11692279577255249
-0.425799399614334106 0.0302943065762519836 -0.188683584332466125
0.304696410894393921 -0.126722157001495361 -0.108004011213779449
-0.385799407958984375 -0.0560833960771560669 0.100603468716144562
-0.603999972343444824 0.259334415197372437 0.0172386262565851212
-0.461420118808746338 0.30605742335319519 0.0811253190040588379
0.50499725341796875 -0.264189958572387695 -0.108947746455669403
0.534774601459503174 -0.192567482590675354 0.0290444828569889069
-0.616943597793579102 0.210228696465492249 -0.0563477836549282074
0.452834516763687134 -0.123812951147556305 0.0897625014185905457
0.0335128903388977051 -0.279896736145019531 -0.0357127860188484192
0.402193635702133179 -0.319074124097824097 0.131250560283660889
-0.0940672904253005981 0.0736871212720870972 0.293366879224777222
0.243429318070411682 -0.137067914009094238 0.0114342756569385529
0.161466360092163086 -0.271866768598556519 0.0441142283380031586
-0.591331720352172852 0.368971198797225952 0.0900096148252487183
0.0270203892141580582 -0.0120236091315746307 0.0281407702714204788
0.196022257208824158 0.0337629728019237518 0.178504586219787598
-0.306671559810638428 -0.0918013527989387512 0.305481940507888794
0.493837475776672363 -0.367089062929153442 0.0201292671263217926
0.521736562252044678 -0.311628371477127075 0.0463659055531024933
0.50285041332244873 -0.15368478000164032 0.119368307292461395
0.0808118060231208801 -0.272417217493057251 -0.0593932792544364929
-0.326041877269744873 -0.103612951934337616 0.0883901342749595642
-0.586935877799987793 0.334605991840362549 0.0183855816721916199
-0.0740245208144187927 -0.236130639910697937 0.301739931106567383
0.194429174065589905 -0.340227305889129639 -0.0621420778334140778
-0.399558871984481812 0.271769821643829346 -0.0546531565487384796
-0.522505700588226318 0.0437828972935676575 -0.0579018965363502502
-0.258318990468978882 0.141907632350921631 0.091394960880279541
-0.214024826884269714 -0.136146113276481628 -0.0632559806108474731
0.508745312690734863 -0.104845188558101654 0.144708231091499329
0.214277490973472595 -0.279968500137329102 -0.00903016515076160431
0.238386049866676331 -0.0763126462697982788 0.127231642603874207
-0.140772387385368347 0.296313077211380005 0.147998705506324768
-0.656732857227325439 0.171203553676605225 -0.112727157771587372
0.253606319427490234 -0.00966478884220123291 0.250322639942169189
0.25047728419303894 -0.179085478186607361 0.303018331527709961
-0.263612478971481323 -0.137409627437591553 -0.0676914453506469727
-0.201247051358222961 0.314130783081054688 0.0990931689739227295
0.257981151342391968 -0.278314501047134399 0.323304206132888794
0.178995668888092041 -0.0543417707085609436 -0.050687301903963089
-0.444014042615890503 -0.0670311599969863892 0.128984794020652771
-0.504521369934082031 0.0297294501215219498 0.24705815315246582
-0.497782021760940552 0.0361552610993385315 -0.0118163516744971275
0.23290589451789856 0.0226287338882684708 0.314412295818328857
-0.372040361166000366 -0.0461301878094673157 0.143336668610572815
-0.349547833204269409 0.106221266090869904 0.0660025253891944885
0.307831376791000366 -0.199031397700309753 0.243258118629455566
0.308694243431091309 -0.00570179149508476257 0.219971254467964172
-0.443483978509902954 0.266290634870529175 -0.0373306497931480408
0.517186522483825684 -0.326763153076171875 -0.0810057967901229858
-0.539511620998382568 0.138130739331245422 -0.0973476245999336243
0.465979903936386108 -0.124604977667331696 0.00238932669162750244
-0.386001348495483398 0.255045026540756226 0.0327638797461986542
0.494075119495391846 -0.302109688520431519 0.121463872492313385
0.465543776750564575 -0.1063399538397789 0.0600000433623790741
0.20393778383731842 0.0149451764300465584 -0.0418727286159992218
-0.225041776895523071 0.29550132155418396 0.158816784620285034
-0.125423967838287354 -0.0493126139044761658 0.0110200271010398865
-0.232167825102806091 0.228120073676109314 0.348314195871353149
-0.381440341472625732 -0.0546915158629417419 0.145440280437469482
0.341483652591705322 -0.0739628225564956665 0.0480939634144306183
-0.436641842126846313 -0.0125974342226982117 0.0339798480272293091
0.205623507499694824 0.0163930058479309082 0.0707813277840614319
0.0562681443989276886 -0.0862615630030632019 0.23954281210899353
-0.384533703327178955 -0.0598804429173469543 0.116543501615524292
-0.137101799249649048 -0.265216648578643799 -0.00114948383998125792
-0.244199290871620178 0.0632236897945404053 0.244942441582679749
-0.542818069458007812 0.210571929812431335 0.162628412246704102
-0.591418981552124023 0.286911755800247192 -0.00744847860187292099
0.307260483503341675 0.0174275245517492294 0.0432967841625213623
0.478525429964065552 -0.315015137195587158 -0.305123388767242432
0.503846704959869385 -0.345725297927856445 -0.0634175464510917664
0.471832245588302612 -0.305332332849502563 0.115481413900852203
0.527191281318664551 -0.303081244230270386 -0.108998768031597137
-0.403526484966278076 0.31122291088104248 0.134701758623123169
0.517952203750610352 -0.251492500305175781 -0.307083398103713989
0.507612705230712891 -0.329288184642791748 -0.314498662948608398
0.51895904541015625 -0.331533759832382202 0.0920035317540168762
0.477415740489959717 -0.304484844207763672 -0.302752494812011719
0.527654290199279785 -0.285819709300994873 -0.107605092227458954
-0.560603320598602295 0.266970187425613403 0.365540564060211182
-0.640813946723937988 0.289350956678390503 0.0849865078926086426
0.371511071920394897 -0.401422411203384399 -0.217254906892776489
-0.450434684753417969 -0.00138418236747384071 0.175050288438796997
0.17665611207485199 0.0727143660187721252 0.00703177228569984436
-0.454235970973968506 0.134334057569503784 -0.21377505362033844
0.403338134288787842 -0.336082577705383301 0.12938334047794342
-0.599570572376251221 0.207101240754127502 0.000651982205454260111
0.247769013047218323 -0.114781007170677185 -0.0704241618514060974
-0.483844965696334839 0.182389110326766968 -0.21019454300403595
-0.376701056957244873 -0.0634288787841796875 0.0916801095008850098
0.523052692413330078 -0.32112807035446167 0.0362925305962562561
0.542562544345855713 -0.217538565397262573 0.108725756406784058
0.525880277156829834 -0.273688048124313354 0.0557550713419914246
0.111334912478923798 0.0838241800665855408 0.317636072635650635
-0.351441949605941772 -0.0482384301722049713 0.045004822313785553
0.105246491730213165 0.0719600021839141846 0.295870214700698853
-0.165586963295936584 0.132727012038230896 0.151544570922851562
0.502905547618865967 -0.25666317343711853 -0.102058634161949158
0.429163545370101929 -0.304057151079177856 0.136376887559890747
-0.356249868869781494 -0.101762816309928894 0.159039512276649475
0.498786002397537231 -0.201797932386398315 -0.107494652271270752
-0.579099118709564209 0.347843676805496216 0.151997208595275879
0.105181761085987091 -0.0117867263033986092 0.0215085465461015701
-0.341729789972305298 -0.12370600551366806 0.104586414992809296
-0.12089172750711441 -0.275987297296524048 0.174160033464431763
-0.161411672830581665 0.166992172598838806 0.325396031141281128
0.515154778957366943 -0.358768194913864136 0.0272049456834793091
0.521202206611633301 -0.287743568420410156 -0.0112464176490902901
0.479135960340499878 -0.140118911862373352 0.10814850777387619
-0.18116702139377594 0.0289856810122728348 0.0260607656091451645
-0.342446684837341309 -0.121926844120025635 0.103729657828807831
-0.600804924964904785 0.376573741436004639 0.188236340880393982
-0.119867920875549316 -0.267098426818847656 0.218417420983314514
0.523581922054290771 -0.308996528387069702 -0.0743830949068069458
0.516398310661315918 -0.252307653427124023 -0.309208124876022339
0.455086350440979004 -0.308442801237106323 -0.29416358470916748
0.240894496440887451 -0.096199430525302887 0.159091293811798096
-0.62078404426574707 0.272000730037689209 0.0370211973786354065
-0.430493831634521484 -0.00412736227735877037 0.177304729819297791
-0.250801235437393188 -0.137182056903839111 -0.0710655376315116882
0.317584365606307983 -0.319210618734359741 0.122955121099948883
0.539487004280090332 -0.249863848090171814 0.107094809412956238
0.452979922294616699 -0.139942273497581482 0.0159339811652898788
0.429593682289123535 -0.321209341287612915 0.124155640602111816
0.413449287414550781 -0.331022769212722778 -0.209465816617012024
0.474084854125976562 -0.128695636987686157 0.110038846731185913
-0.549566209316253662 0.378353476524353027 0.172480061650276184
0.190699502825737 -0.340073347091674805 -0.013013145886361599
-0.202022165060043335 -0.135703131556510925 -0.0683720707893371582
-0.185864165425300598 0.311851024627685547 0.118097633123397827
0.1035027876496315 0.10750531405210495 0.174869880080223083
-0.444865673780441284 -0.0545985028147697449 0.0917973220348358154
-0.489931792020797729 0.0297875925898551941 0.016777990385890007
0.231677785515785217 0.0108300000429153442 0.315485656261444092
-0.024727262556552887 0.112925820052623749 0.312778681516647339
0.243552953004837036 -0.0388203263282775879 0.205131769180297852
-0.385347723960876465 0.245058625936508179 0.0343557782471179962
-0.654607415199279785 0.216502070426940918 -0.0394019223749637604
0.483254730701446533 -0.116373717784881592 0.0239679627120494843
0.122378922998905182 0.0793010368943214417 0.138990476727485657
-0.382411956787109375 -0.0728609859943389893 0.0956206843256950378
0.320019513368606567 -0.0725298896431922913 0.0629170387983322144
-0.441191643476486206 -0.0119269862771034241 0.0068184402771294117
-0.502730071544647217 0.233418330550193787 -0.071160338819026947
-0.547794997692108154 0.203182011842727661 -0.0686024203896522522
0.088749125599861145 0.0914781391620635986 0.0804499164223670959
-0.520423233509063721 0.204280927777290344 -0.0472289472818374634
-0.168455705046653748 0.0721219480037689209 0.232717826962471008
-0.0574196241796016693 -0.187100544571876526 0.0270149186253547668
-0.212837263941764832 0.290539145469665527 0.109333701431751251
0.24994562566280365 -0.00560102891176939011 0.0228455699980258942
-0.556342661380767822 0.20410493016242981 0.118269927799701691
-0.457855373620986938 0.216157093644142151 0.0245347023010253906
-0.463156312704086304 0.26620367169380188 -0.00272838096134364605
-0.575985074043273926 0.247344061732292175 -0.0765480846166610718
-0.389859855175018311 0.274861276149749756 -0.0840749442577362061
0.344098836183547974 -0.134829923510551453 0.319312006235122681
-0.499142616987228394 0.206558004021644592 -0.0116489753127098083
-0.346449702978134155 0.29257473349571228 -0.0500464513897895813
0.526148200035095215 -0.361190617084503174 0.0421062186360359192
-0.540521621704101562 0.214864626526832581 0.201003968715667725
-0.569845378398895264 0.294133692979812622 -0.00325128319673240185
0.31693914532661438 0.0235557109117507935 0.0492859259247779846
0.482145875692367554 -0.307158023118972778 -0.303424745798110962
0.479924142360687256 -0.326454073190689087 0.125744491815567017
0.523344576358795166 -0.307134330272674561 -0.0983834788203239441
0.49049040675163269 -0.310923457145690918 -0.307191669940948486
0.516412556171417236 -0.325165748596191406 0.120202034711837769
0.444701403379440308 -0.300364851951599121 -0.290395289659500122
0.523362517356872559 -0.304685026407241821 -0.0970442965626716614
0.134438291192054749 0.116150520741939545 0.337504297494888306
-0.64294898509979248 0.242364868521690369 -0.00958313606679439545
-0.293055564165115356 -0.114159479737281799 -0.105666667222976685
0.539421319961547852 -0.255602449178695679 0.0925893336534500122
0.129298284649848938 0.0973567664623260498 0.317773163318634033
-0.235582664608955383 -0.143823534250259399 -0.0712907686829566956
0.252734661102294922 0.0298479441553354263 -0.0854640379548072815
0.531124114990234375 -0.323270112276077271 0.00717305438593029976
-0.599926352500915527 0.307112812995910645 0.104372859001159668
0.532285392284393311 -0.244777604937553406 0.0869486033916473389
-0.374584347009658813 -0.0611258111894130707 0.0923426300287246704
0.526709139347076416 -0.275447160005569458 -0.122917637228965759
-0.50172656774520874 0.14843142032623291 0.353052020072937012
0.385447114706039429 -0.297816544771194458 0.132222667336463928
0.132829099893569946 -0.332257509231567383 -0.100233510136604309
0.522917509078979492 -0.354999959468841553 -0.0146131990477442741
-0.437027722597122192 0.150214001536369324 -0.0850118622183799744
0.515955924987792969 -0.300239413976669312 0.0650757327675819397
0.393279939889907837 -0.368073165416717529 -0.213442280888557434
0.500767290592193604 -0.171588599681854248 0.130492895841598511
0.533394336700439453 -0.334138929843902588 0.0287283901125192642
-0.58049321174621582 0.348618507385253906 0.0401869490742683411
0.520080268383026123 -0.241063401103019714 -0.308444738388061523
-0.601600825786590576 0.37041047215461731 0.104530468583106995
-0.501227259635925293 0.146802455186843872 0.355257540941238403
0.234243720769882202 -0.278106629848480225 0.31768566370010376
-0.181637316942214966 -0.137325361371040344 -0.0555146783590316772
-0.228733569383621216 -0.138282135128974915 -0.0534439198672771454
-0.204635515809059143 0.298143863677978516 0.126920819282531738
0.262814223766326904 -0.289905846118927002 0.323987603187561035
-0.362795233726501465 -0.0308317951858043671 0.119584158062934875
-0.500711619853973389 0.0191323850303888321 0.0318042412400245667
0.243168085813522339 -8.81729793036356568e-05 0.32272765040397644
0.141547530889511108 -0.290714442729949951 0.311963647603988647
0.308407038450241089 -0.2077474445104599 0.248590618371963501
-0.386660188436508179 0.254585117101669312 0.0344079658389091492
0.531299591064453125 -0.262395650148391724 0.103314973413944244
0.224370375275611877 0.022548263892531395 0.305886328220367432
0.530716121196746826 -0.147516027092933655 -0.307915449142456055
-0.645461201667785645 0.231145948171615601 -0.0476305857300758362
0.541413545608520508 -0.311065793037414551 -0.0441146902740001678
0.507918715476989746 -0.267892211675643921 -0.311241030693054199
0.514392733573913574 -0.316240936517715454 -0.294858872890472412
0.458988815546035767 -0.291037827730178833 -0.296323269605636597
-0.543711721897125244 0.26791536808013916 -0.189463093876838684
-0.622024595737457275 0.288756251335144043 0.06653633713722229
0.36365780234336853 -0.384413421154022217 -0.205867528915405273
-0.0926767066121101379 0.267030388116836548 0.189630642533302307
-0.449048012495040894 0.131047517061233521 -0.208873555064201355
-0.576052486896514893 0.203547388315200806 -0.12721213698387146
-0.630671799182891846 0.191490650177001953 -0.0400535017251968384
-0.470364272594451904 0.138702169060707092 -0.231208041310310364
0.257960289716720581 -0.0172344464808702469 -0.0716672241687774658
0.230811372399330139 0.0537005290389060974 -0.0447271168231964111
0.113234356045722961 0.109554648399353027 0.302034646272659302
-0.584726154804229736 0.218184828758239746 -0.221616804599761963
-0.598812103271484375 0.235015034675598145 -0.0109038650989532471
-0.367540031671524048 -0.0919961854815483093 0.122807517647743225
-0.330482631921768188 -0.125631675124168396 0.137269049882888794
-0.635200679302215576 0.199411660432815552 -0.0384711027145385742
-0.426263719797134399 -0.055169571191072464 0.0991759151220321655
-0.478685885667800903 0.0198899637907743454 -0.0366414375603199005
0.208948805928230286 0.00841264892369508743 0.301254093647003174
-0.634778738021850586 0.247891873121261597 -0.00615081889554858208
-0.128291875123977661 0.269690632820129395 0.132476568222045898
0.27134212851524353 -0.330476731061935425 0.180410027503967285
0.533195555210113525 -0.210200563073158264 -0.0984982773661613464
-0.12669999897480011 -0.112882070243358612 -0.0546854846179485321
0.454282522201538086 -0.339012265205383301 -0.297878831624984741
-0.212967842817306519 0.0360135100781917572 -0.0595688037574291229
-0.553801417350769043 0.175549104809761047 0.0126845808699727058
-0.198861703276634216 0.139418989419937134 0.02130904421210289
-0.0126070268452167511 -0.102725416421890259 -0.0427513904869556427
0.265035837888717651 -0.275089770555496216 0.202782601118087769
0.348932176828384399 -0.321229100227355957 0.000292676908429712057
-0.156212091445922852 0.0695858895778656006 0.0277082640677690506
-0.249614670872688293 0.130578383803367615 -0.034318871796131134
0.199401110410690308 0.00152466248255223036 0.0194912739098072052
0.0764716416597366333 0.0807069167494773865 0.0242909062653779984
-0.283921480178833008 0.288086682558059692 -0.00579738244414329529
0.477053910493850708 -0.289918392896652222 -0.301486790180206299
-0.557491064071655273 0.265560925006866455 -0.0173649564385414124
-0.237786859273910522 0.0974238142371177673 -0.0323335081338882446
0.138020291924476624 -0.281059890985488892 0.150317728519439697
0.296641439199447632 -0.297526419162750244 0.0572532154619693756
-0.286507070064544678 0.257064253091812134 0.00066259951563552022
-0.021104155108332634 -0.0405477099120616913 0.0892305374145507812
0.204783320426940918 0.04262537881731987 0.0661243721842765808
-0.143969312310218811 -0.0854028314352035522 0.0918495580554008484
0.372839570045471191 -0.0734665319323539734 0.0320004522800445557
0.521512269973754883 -0.199143245816230774 -0.0981809720396995544
0.487183809280395508 -0.297915369272232056 -0.305153995752334595
0.480649709701538086 -0.314912199974060059 0.122647769749164581
0.51372915506362915 -0.307249397039413452 -0.102131344377994537
0.496093839406967163 -0.309544205665588379 -0.309534281492233276
0.506321191787719727 -0.327887922525405884 -0.00382749992422759533
0.51191788911819458 -0.324603080749511719 0.118667125701904297
0.46599307656288147 -0.288823038339614868 -0.296335905790328979
0.43814617395401001 -0.26351359486579895 -0.19401298463344574
0.135246559977531433 0.11679820716381073 0.337420791387557983
0.396823346614837646 -0.244437575340270996 0.319125622510910034
-0.602265298366546631 0.354167461395263672 0.0654155910015106201
-0.505891203880310059 0.357030779123306274 0.178243920207023621
0.542786598205566406 -0.282555311918258667 0.0982439965009689331
0.256683856248855591 0.0368112698197364807 -0.0716586410999298096
-0.233599677681922913 0.155779927968978882 -0.00515010720118880272
0.506310999393463135 -0.332055717706680298 -0.00225234217941761017
0.444940447807312012 -0.250100284814834595 -0.22774176299571991
-0.639788210391998291 0.254380643367767334 0.0544152073562145233
0.532775342464447021 -0.262729346752166748 0.0935732871294021606
-0.393780738115310669 -0.0594986900687217712 0.100387074053287506
0.52402794361114502 -0.289708346128463745 -0.0918164700269699097
0.0279393475502729416 -0.274381279945373535 -0.035176694393157959
0.385411977767944336 -0.306151598691940308 0.119144544005393982
-0.582963407039642334 0.366709619760513306 0.131604164838790894
0.240477398037910461 0.00284426682628691196 0.181540146470069885
-0.113301597535610199 0.165313929319381714 0.347759932279586792
0.482341349124908447 -0.368437051773071289 -0.0217924080789089203
0.412376701831817627 -0.321265131235122681 -0.210795953869819641
0.507490396499633789 -0.155547291040420532 0.124413780868053436
0.528946042060852051 -0.334773898124694824 0.0130991814658045769
-0.584892511367797852 0.336298227310180664 0.0340081416070461273
-0.591535031795501709 0.381815195083618164 0.131158903241157532
0.526366353034973145 -0.244419753551483154 -0.310424685478210449
0.474526822566986084 -0.290840715169906616 -0.299236804246902466
-0.598010063171386719 0.353590428829193115 0.169553101062774658
-0.588128566741943359 0.371351659297943115 0.100996486842632294
-0.212528064846992493 -0.129791021347045898 -0.0576543211936950684
0.234572127461433411 -0.293202698230743408 0.315246999263763428
0.238272964954376221 0.0670580193400382996 0.320497512817382812
0.541963875293731689 -0.313905179500579834 -0.0578419603407382965
-0.445418179035186768 -0.0486271344125270844 0.127001255750656128
0.359690964221954346 -0.388492971658706665 -0.208819136023521423
-0.557329058647155762 0.211004272103309631 -0.113766342401504517
0.520915329456329346 -0.279617190361022949 -0.176857143640518188
0.242139250040054321 0.0346974469721317291 0.314966917037963867
0.242998942732810974 0.000383478123694658279 0.0240740980952978134
0.380970120429992676 0.0388551391661167145 0.0123551608994603157
0.526841461658477783 -0.230715453624725342 -0.309922397136688232
0.327264219522476196 0.0961962044239044189 -0.0354545339941978455
-0.374923735857009888 -0.0604896619915962219 -0.132980749011039734
0.513107180595397949 -0.167548075318336487 0.136300027370452881
-0.575268328189849854 0.321893155574798584 0.0493820980191230774
-0.559791982173919678 0.283289402723312378 0.364076882600784302
0.224636539816856384 0.031904272735118866 -0.0577917210757732391
-0.575113117694854736 0.214496955275535583 -0.221246838569641113
-0.044488321989774704 0.156477466225624084 0.0814818218350410461
0.114160872995853424 0.109996795654296875 0.0258257277309894562
0.342934787273406982 -0.24708130955696106 -0.0965656116604804993
-0.28569948673248291 0.300299942493438721 -0.00270725111477077007
0.153429538011550903 -0.00445338664576411247 -0.00320544163696467876
0.0690578818321228027 0.138771936297416687 0.0760136768221855164
-0.270671695470809937 0.280046433210372925 0.00183259544428437948
0.503470003604888916 -0.292673438787460327 -0.159092545509338379
0.137073755264282227 -0.0258897151798009872 0.0134627353399991989
-0.339685320854187012 -0.0322067104279994965 0.0228039249777793884
0.373650908470153809 -0.0918631255626678467 0.0447100251913070679
0.200137406587600708 0.101218253374099731 -0.00137151975650340319
-0.297875255346298218 -0.025233117863535881 0.0359770581126213074
0.131863757967948914 -0.0178844276815652847 -0.0257519260048866272
0.101471520960330963 0.0159797929227352142 0.0915723815560340881
0.175826936960220337 0.119331091642379761 0.0384499169886112213
-0.231007233262062073 -0.0638715252280235291 0.104734845459461212
0.486170023679733276 -0.296778470277786255 -0.303380221128463745
-0.603981614112854004 0.289383947849273682 0.185005143284797668
0.467383027076721191 -0.308793842792510986 0.120410911738872528
0.378550589084625244 -0.0144625045359134674 0.00682533206418156624
0.514480054378509521 -0.295381665229797363 -0.103216670453548431
0.518914937973022461 -0.239811733365058899 -0.307424873113632202
0.47800743579864502 -0.309849560260772705 -0.300140589475631714
0.483483493328094482 -0.274627268314361572 -0.299745321273803711
0.117283433675765991 0.118683457374572754 0.297984719276428223
-0.584972202777862549 0.356227904558181763 0.06564369797706604
0.383950769901275635 -0.33744734525680542 0.125815823674201965
-0.575240194797515869 0.317553937435150146 -0.0267145391553640366
-0.60521090030670166 0.216984227299690247 -0.0870892927050590515
0.267962485551834106 0.0392118245363235474 -0.0858518704771995544
-0.357084840536117554 -0.0223933793604373932 -0.131237983703613281
-0.565050423145294189 0.314180880784988403 -0.00806413218379020691
0.190747737884521484 -0.341005921363830566 -0.0745843872427940369
0.404296457767486572 -0.357763737440109253 -0.223879367113113403
-0.500975966453552246 0.145386174321174622 0.354600995779037476
0.509791433811187744 -0.151506289839744568 0.115387149155139923
0.496935099363327026 -0.264028370380401611 -0.304227560758590698
0.458083599805831909 -0.280998051166534424 -0.289576858282089233
0.441056519746780396 -0.265082359313964844 -0.283520132303237915
-0.588787436485290527 0.357333272695541382 0.0615559928119182587
0.505408346652984619 -0.126822233200073242 0.124820567667484283
-0.206740528345108032 0.312312513589859009 0.10890159010887146
0.268407493829727173 -0.284215837717056274 0.319453328847885132
0.232758715748786926 0.00344793009571731091 0.318249344825744629
0.513357758522033691 -0.175744682550430298 -0.281530141830444336
-0.115539014339447021 0.00972494576126337051 0.00605125119909644127
0.404027819633483887 -0.359792977571487427 -0.224504351615905762
0.417826265096664429 -0.313367068767547607 0.144088178873062134
-0.556317806243896484 0.376357614994049072 0.186611860990524292
-0.176114648580551147 0.308988511562347412 0.118604980409145355
-0.390457451343536377 0.275833010673522949 -0.0850766897201538086
0.365534126758575439 0.0517889000475406647 0.0250638462603092194
0.129267379641532898 0.115584298968315125 0.319216519594192505
-0.287115335464477539 -0.100822359323501587 -0.0920517295598983765
0.258344143629074097 0.100845307111740112 -0.0616041198372840881
-0.361924797296524048 -0.0600469596683979034 -0.144238650798797607
0.134224414825439453 0.113548606634140015 0.338162600994110107
-0.56388324499130249 0.199147790670394897 -0.22922515869140625
-0.277022808790206909 0.287815392017364502 -0.000791896367445588112
0.455007344484329224 -0.246565937995910645 -0.288100004196166992
0.460346609354019165 -0.2755279541015625 -0.290641576051712036
-0.635624110698699951 0.308031737804412842 0.170194685459136963
0.512617290019989014 -0.317548483610153198 -0.0383027717471122742
0.46904522180557251 -0.26592254638671875 -0.297770321369171143
0.478249102830886841 -0.295140951871871948 -0.300066858530044556
0.458262354135513306 -0.246348395943641663 -0.289672523736953735
0.381275177001953125 -0.361134767532348633 -0.213688746094703674
-0.480178385972976685 -0.0127953728660941124 0.185745894908905029
-0.517261087894439697 0.365610390901565552 0.173936754465103149
-0.619291543960571289 0.201878190040588379 -0.0873612016439437866
-0.23779962956905365 0.0186046622693538666 -0.0724948793649673462
-0.38324284553527832 -0.0592743828892707825 0.0236426666378974915
0.475038141012191772 -0.368434309959411621 0.0220902245491743088
-0.650003612041473389 0.236620903015136719 0.032038472592830658
0.412721335887908936 -0.346857160329818726 -0.221468210220336914
0.526207625865936279 -0.337218731641769409 0.0803571715950965881
0.506119370460510254 -0.239118948578834534 -0.307881653308868408
0.249751225113868713 -0.282406717538833618 0.318500548601150513
0.23942933976650238 0.0664881244301795959 0.315043538808822632
0.539674818515777588 -0.301901876926422119 -0.0934048593044281006
-0.448575913906097412 -0.0416288971900939941 0.126433908939361572
-0.0440095290541648865 0.104295536875724792 0.318046778440475464
0.248199731111526489 0.0209421850740909576 0.322592675685882568
-0.285435736179351807 -0.0999551862478256226 -0.0990742072463035583
-0.138099387288093567 -0.0152905313298106194 -0.0486991964280605316
-0.278464376926422119 0.337701290845870972 0.0470841340720653534
-0.255267947912216187 0.289730310440063477 -0.00312440958805382252
-0.219418719410896301 0.3217335045337677 0.0699849352240562439
-0.574000775814056396 0.152082011103630066 -0.0746586918830871582
-0.290553748607635498 0.2925243079662323 0.0161310788244009018
0.525772035121917725 -0.320727556943893433 0.0274723153561353683
0.34637942910194397 -0.0305692814290523529 -0.0340613201260566711
0.522392094135284424 -0.36298668384552002 0.0896798446774482727
-0.0835352614521980286 -0.112037055194377899 0.0786235705018043518
-0.404696911573410034 0.325862914323806763 0.121206559240818024
0.504903912544250488 -0.367152810096740723 -0.00421706400811672211
-0.119054041802883148 0.265945702791213989 0.121171437203884125
0.518870055675506592 -0.343026667833328247 0.0361322872340679169
0.130376636981964111 -0.334890604019165039 0.30140221118927002
0.466824829578399658 -0.31113666296005249 0.0727854073047637939
