ply
format ascii 1.0
element vertex 737
property float x
property float y
property float z
end_header
-0.345829576253890991 0.0129068493843078613 0.150769338011741638
0.526591300964355469 -0.0543449483811855316 -0.309242427349090576
-0.500278830528259277 0.13633456826210022 -0.240783065557479858
0.472856849431991577 -0.268652081489562988 0.113284975290298462
0.376855999231338501 -0.133585810661315918 -0.0478766113519668579
0.23464927077293396 0.0933201536536216736 -0.040378328412771225
0.137291818857192993 0.0133187277242541313 0.284749120473861694
0.520558416843414307 -0.204234600067138672 -0.0882524698972702026
-0.536478102207183838 0.125218525528907776 -0.10565224289894104
-0.579345285892486572 0.293140053749084473 -0.000901055289432406425
0.482565402984619141 -0.324740618467330933 0.100211247801780701
0.49930804967880249 -0.269232064485549927 0.0359808318316936493
0.492927014827728271 -0.329773038625717163 -0.0629410296678543091
-0.48355528712272644 0.12076481431722641 -0.0453949607908725739
-0.591591715812683105 0.301949232816696167 0.175864651799201965
0.483354955911636353 -0.322625815868377686 0.134561017155647278
0.505698919296264648 -0.303203195333480835 -0.103925690054893494
-0.381199032068252563 0.317491114139556885 0.158915609121322632
-0.546409845352172852 0.33483433723449707 0.13445831835269928
0.460372209548950195 -0.259061247110366821 0.115015015006065369
0.533784687519073486 -0.206992566585540771 -0.0878810137510299683
0.513248205184936523 -0.231443300843238831 -0.304848700761795044
-0.554079174995422363 0.260017424821853638 -0.0207256563007831573
0.461266994476318359 -0.304270148277282715 0.109057150781154633
-0.452062845230102539 0.113128937780857086 -0.224831923842430115
0.48618510365486145 -0.313863962888717651 -0.303501099348068237
-0.559441804885864258 0.318052589893341064 0.354874014854431152
0.179261237382888794 -0.103794842958450317 -0.0161500517278909683
0.306181609630584717 0.0184835251420736313 -0.11171434074640274
0.506237208843231201 -0.337547987699508667 0.0249829161912202835
0.404665827751159668 0.0230217445641756058 0.00819476693868637085
0.475101679563522339 -0.287899434566497803 -0.299986183643341064
0.0105364220216870308 0.1545238196849823 0.0575446076691150665
0.523054420948028564 -0.300118029117584229 -0.0978547707200050354
-0.380854249000549316 0.334421843290328979 0.205188259482383728
-0.551016926765441895 0.337892115116119385 0.124893739819526672
0.418447315692901611 -0.252305984497070312 0.0980554670095443726
-0.580177366733551025 0.208708122372627258 -0.214773908257484436
0.278397411108016968 -0.084795534610748291 0.190590411424636841
-0.129765152931213379 0.224932283163070679 0.126681521534919739
-0.382265210151672363 0.104473933577537537 -0.0631205663084983826
0.551405906677246094 -0.219791218638420105 0.114356324076652527
0.383658140897750854 -0.242157384753227234 0.313960373401641846
-0.552729666233062744 0.163569748401641846 0.0800626128911972046
-0.134431347250938416 0.201859638094902039 0.168598964810371399
0.242276966571807861 0.110303983092308044 -0.048990294337272644
0.116562046110630035 0.0401643253862857819 0.328312605619430542
-0.559145152568817139 0.278439432382583618 0.00271929521113634109
0.319826215505599976 -0.132442474365234375 -0.079738616943359375
-0.575026512145996094 0.200735881924629211 -0.225721746683120728
0.2078675776720047 0.118341229856014252 0.0452351048588752747
0.463692963123321533 -0.307921826839447021 0.134836450219154358
-0.585321784019470215 0.320149809122085571 -0.0245859865099191666
0.530376195907592773 -0.25311589241027832 0.0983054637908935547
-0.309791684150695801 0.0829733014106750488 -0.0720876008272171021
-0.449529141187667847 0.00891639292240142822 -0.139927178621292114
-0.301116526126861572 0.29118955135345459 0.146612688899040222
-0.526443839073181152 0.182035833597183228 -0.215030103921890259
-0.391606450080871582 -0.0581754855811595917 0.101055540144443512
-0.545327484607696533 0.263205677270889282 -0.164472252130508423
0.313681483268737793 -0.333784222602844238 0.1978587806224823
-0.05969981849193573 0.0943647176027297974 0.321430861949920654
-0.101625695824623108 0.144190579652786255 0.0937085673213005066
0.499696344137191772 -0.362494796514511108 0.0764458328485488892
0.348853141069412231 -0.282535016536712646 -0.134941995143890381
-0.412289410829544067 0.198566094040870667 0.0366507619619369507
-0.345107138156890869 0.252169251441955566 -0.0132212182506918907
-0.2674274742603302 0.0794074460864067078 -0.0144342146813869476
-0.180719047784805298 0.0190676823258399963 0.0398145392537117004
-0.553302109241485596 0.213073670864105225 -0.0471285432577133179
0.407692611217498779 -0.400531500577926636 -0.215555474162101746
0.517554938793182373 -0.284844070672988892 -0.10016312450170517
0.39515233039855957 -0.264097392559051514 -0.193614974617958069
0.497774094343185425 -0.273941189050674438 -0.30063629150390625
0.434452861547470093 -0.256905108690261841 -0.00175950489938259125
-0.154372334480285645 -0.243695303797721863 0.149105429649353027
-0.630023777484893799 0.194825023412704468 -0.0474279336631298065
-0.354928433895111084 0.000852511206176131964 -0.150917693972587585
-0.500946700572967529 0.146736845374107361 0.346561551094055176
-0.331518381834030151 0.300222069025039673 0.191369548439979553
-0.33455774188041687 -0.0311511475592851639 -0.132062584161758423
0.113151170313358307 0.0958473086357116699 0.029406251385807991
0.470034867525100708 -0.13456118106842041 0.099564969539642334
0.398946285247802734 -0.30456167459487915 0.145305648446083069
-0.457116305828094482 0.16809922456741333 0.117120631039142609
-0.536177456378936768 0.287758529186248779 0.0424341894686222076
-0.27621769905090332 -0.127181902527809143 0.0821892768144607544
-0.482931077480316162 0.249568939208984375 -0.102655477821826935
0.171134069561958313 -0.271617710590362549 0.0367802344262599945
-0.344563126564025879 0.103950284421443939 0.00681858556345105171
-0.365865439176559448 0.283443152904510498 0.0873394981026649475
0.386468619108200073 -0.229621738195419312 -0.121626622974872589
-0.352992862462997437 0.00292881904169917107 0.0355789698660373688
-0.517914652824401855 0.202458858489990234 0.0495030991733074188
-0.384839653968811035 0.183357611298561096 0.0924929603934288025
-0.571658194065093994 0.328583359718322754 -0.0112952245399355888
-0.339013665914535522 -0.0872885957360267639 -0.0536643080413341522
-0.136860504746437073 -0.268589943647384644 0.130630716681480408
0.275013506412506104 -0.165412411093711853 0.0551593862473964691
0.313074946403503418 -0.302216827869415283 -0.128209039568901062
-0.381096184253692627 0.250801652669906616 0.233774855732917786
0.310744017362594604 -0.216707125306129456 0.201390311121940613
0.496285587549209595 -0.254580140113830566 -0.105285204946994781
-0.118885122239589691 0.0730488598346710205 0.173896268010139465
0.512462615966796875 -0.361602067947387695 -0.0305320583283901215
-0.50902634859085083 0.269482433795928955 -0.00457814102992415428
-0.595047414302825928 0.244348600506782532 -0.00233595003373920918
-0.586139678955078125 0.251457720994949341 0.194724813103675842
-0.547663331031799316 0.121703214943408966 -0.133812785148620605
-0.244798064231872559 0.183232814073562622 0.357297509908676147
0.4623698890209198 -0.263867706060409546 -0.290198206901550293
0.456092119216918945 -0.255596250295639038 -0.18673822283744812
0.519373536109924316 -0.302454888820648193 0.0447098314762115479
-0.625534176826477051 0.200668349862098694 0.045325201004743576
-0.255748122930526733 -0.00420865835621953011 -0.0618591010570526123
0.245527744293212891 0.0994076281785964966 -0.0688360929489135742
0.504945456981658936 -0.159559667110443115 0.131044745445251465
0.343190431594848633 -0.0695980340242385864 0.162240669131278992
0.399862349033355713 -0.236701846122741699 0.130531817674636841
-0.359555095434188843 -0.118348225951194763 0.116874009370803833
-0.478907346725463867 0.190074369311332703 0.0643774941563606262
-0.574538528919219971 0.342416107654571533 0.0257047545164823532
-0.358924686908721924 -0.0628827512264251709 0.091248050332069397
-0.342718392610549927 0.0120797865092754364 -0.114057503640651703
0.303040742874145508 -0.295470893383026123 0.162296667695045471
-0.50450289249420166 0.221416354179382324 0.142346397042274475
-0.485093593597412109 0.0288645438849925995 -0.0464752204716205597
0.0332833640277385712 0.0883779525756835938 0.0880718976259231567
-0.231387391686439514 0.347664088010787964 0.149205952882766724
0.0319747142493724823 0.0109210489317774773 0.0423027388751506805
-0.365662097930908203 -0.0362841896712779999 -0.0323655083775520325
-0.048027627170085907 -0.233821272850036621 0.302034348249435425
0.185875222086906433 -0.292476177215576172 0.00391370011493563652
0.234788700938224792 -0.0111963497474789619 0.230452835559844971
-0.526342630386352539 0.141108959913253784 0.0684640035033226013
-0.520202279090881348 0.201854988932609558 -0.066957719624042511
-0.55210500955581665 0.286159038543701172 0.107996672391891479
0.143905043601989746 0.00818534009158611298 0.308016359806060791
0.0679167956113815308 -0.285803318023681641 -0.0812008678913116455
-0.361955255270004272 0.0357089228928089142 -0.160799413919448853
0.307346373796463013 -0.293321073055267334 0.0297482870519161224
-0.339146226644515991 0.213905557990074158 0.159632056951522827
-0.18800710141658783 0.20052647590637207 0.368155092000961304
-0.539975523948669434 0.25529816746711731 -0.0836799517273902893
0.522564947605133057 -0.199374213814735413 -0.0924954190850257874
-0.518916308879852295 0.185785561800003052 0.136960357427597046
-0.543558835983276367 0.270419001579284668 -0.00197078380733728409
0.471064180135726929 -0.325982004404067993 0.0447909422218799591
0.288934290409088135 0.0313544422388076782 0.0539152249693870544
0.43318602442741394 -0.305847734212875366 -0.284879922866821289
-0.51856076717376709 0.0904535651206970215 -0.134652391076087952
-0.600459277629852295 0.285747736692428589 0.184478163719177246
0.467612922191619873 -0.320896446704864502 0.127573758363723755
0.467533797025680542 -0.260378479957580566 -0.293462067842483521
-0.403914153575897217 0.301011264324188232 0.143299728631973267
-0.454219222068786621 0.119887426495552063 -0.22349981963634491
0.481450289487838745 -0.311668872833251953 -0.302266478538513184
0.468136698007583618 -0.330469787120819092 -0.00281180697493255138
0.457181364297866821 -0.305100768804550171 -0.292209237813949585
0.524193346500396729 -0.261737436056137085 -0.10185655951499939
-0.408669650554656982 0.319115340709686279 0.163168683648109436
-0.560680270195007324 0.268007904291152954 0.365754276514053345
-0.576115250587463379 0.210968837141990662 -0.200362205505371094
0.447328388690948486 -0.29639279842376709 -0.222846046090126038
0.310448020696640015 -0.075916975736618042 0.149002045392990112
0.534623861312866211 -0.248023614287376404 0.101352013647556305
-0.562563896179199219 0.120183534920215607 -0.232810690999031067
-0.408173918724060059 0.0771266520023345947 -0.116135790944099426
-0.579603850841522217 0.356794744729995728 0.0831250399351119995
0.0414742268621921539 0.114898726344108582 0.312576711177825928
-0.456581860780715942 0.00932886917144060135 0.182096272706985474
0.409412890672683716 -0.34367823600769043 0.160102918744087219
-0.554671704769134521 0.288924157619476318 -0.0487758256494998932
0.543129324913024902 -0.255682080984115601 0.113791532814502716
0.0240200962871313095 -0.249442353844642639 0.205294057726860046
0.195567026734352112 0.130394205451011658 0.0350171327590942383
0.315420418977737427 -0.370274841785430908 -0.156812131404876709
0.11068262904882431 0.059914853423833847 0.31925317645072937
-0.314810454845428467 0.306921094655990601 0.2845916748046875
-0.254514425992965698 -0.132301092147827148 -0.0728303119540214539
-0.386494904756546021 -0.0597587116062641144 0.106831640005111694
0.453130900859832764 -0.0724765211343765259 -0.116319626569747925
0.315855026245117188 -0.332816421985626221 0.195989549160003662
0.297782748937606812 0.0384970195591449738 0.0502162575721740723
0.475864320993423462 -0.33071628212928772 0.136548340320587158
0.439727336168289185 -0.26728510856628418 -0.282075792551040649
0.461419433355331421 -0.272793412208557129 0.138102054595947266
0.504016101360321045 -0.34615480899810791 0.0176056455820798874
0.51892465353012085 -0.269326388835906982 -0.0869882926344871521
0.498705685138702393 -0.0877801701426506042 0.161925047636032104
0.542283356189727783 -0.214985698461532593 0.110971793532371521
-0.577029526233673096 0.327315539121627808 0.0809271633625030518
0.246673122048377991 0.111654162406921387 -0.0542845800518989563
0.0336553975939750671 0.0687621310353279114 0.272755473852157593
-0.562013506889343262 0.275692641735076904 0.0244210176169872284
-0.61393129825592041 0.272460609674453735 0.0390244275331497192
0.535640537738800049 -0.238967999815940857 0.103006750345230103
-0.576050877571105957 0.213139042258262634 -0.116277925670146942
-0.425086945295333862 0.031102258712053299 -0.188124626874923706
0.304452568292617798 -0.126132488250732422 -0.108189597725868225
-0.385110825300216675 -0.055272616446018219 0.101071849465370178
-0.603238582611083984 0.259997785091400146 0.017916390672326088
-0.46066051721572876 0.306784182786941528 0.0816922485828399658
0.504871487617492676 -0.26369592547416687 -0.109103567898273468
0.534626305103302002 -0.192085951566696167 0.0288108792155981064
-0.616190969944000244 0.210907295346260071 -0.0556758716702461243
0.452589660882949829 -0.123297169804573059 0.0894762948155403137
0.0335689932107925415 -0.279139697551727295 -0.0355660542845726013
0.401976317167282104 -0.31851544976234436 0.131068602204322815
-0.0937840119004249573 0.0744189471006393433 0.293495655059814453
0.24320518970489502 -0.136437878012657166 0.0112671954557299614
0.161340922117233276 -0.271168351173400879 0.0440836772322654724
-0.590544044971466064 0.369580626487731934 0.0907303020358085632
0.027049969881772995 -0.0113151129335165024 0.0281703174114227295
0.195823699235916138 0.0343895256519317627 0.178325995802879333
-0.306065291166305542 -0.0910135805606842041 0.305826008319854736
0.493693053722381592 -0.36657831072807312 0.0199872758239507675
0.521602988243103027 -0.311129719018936157 0.0461974926292896271
0.502656221389770508 -0.153185516595840454 0.119095921516418457
0.080800957977771759 -0.271676719188690186 -0.0592982880771160126
-0.325428873300552368 -0.102796271443367004 0.0888011306524276733
-0.586171805858612061 0.335245370864868164 0.019066251814365387
-0.0738010257482528687 -0.235376894474029541 0.301910132169723511
0.194298967719078064 -0.339549452066421509 -0.0621352754533290863
-0.398874729871749878 0.272532939910888672 -0.0541888773441314697
-0.521740972995758057 0.0445531085133552551 -0.0572780594229698181
-0.25778546929359436 0.142690807580947876 0.0916799083352088928
-0.213576018810272217 -0.135338574647903442 -0.0629246607422828674
0.508540689945220947 -0.104352384805679321 0.144413739442825317
0.214101791381835938 -0.279302150011062622 -0.00910227000713348389
0.23815135657787323 -0.0756922289729118347 0.12704053521156311
-0.140380010008811951 0.296990156173706055 0.148193404078483582
-0.655985116958618164 0.171869620680809021 -0.112028725445270538
0.253384202718734741 -0.00907507538795471191 0.250111430883407593
0.250304102897644043 -0.178473725914955139 0.302860915660858154
-0.263090938329696655 -0.136590287089347839 -0.0673079341650009155
-0.200766116380691528 0.314817070960998535 0.0993495211005210876
0.25783124566078186 -0.277706384658813477 0.32318529486656189
0.178822696208953857 -0.0536867491900920868 -0.0508101172745227814
-0.443268805742263794 -0.0662303566932678223 0.129521027207374573
-0.503723204135894775 0.030489722266793251 0.247627779841423035
-0.497018963098526001 0.0369390398263931274 -0.0112195126712322235
0.232716485857963562 0.0232145190238952637 0.314218521118164062
-0.371359556913375854 -0.0453217588365077972 0.143781930208206177
-0.348898738622665405 0.107029207050800323 0.0663998797535896301
0.307613939046859741 -0.198437705636024475 0.243062064051628113
0.308429092168807983 -0.00513918744400143623 0.219716355204582214
-0.442767143249511719 0.267046481370925903 -0.0368135645985603333
0.517078876495361328 -0.326268613338470459 -0.0811279118061065674
-0.538755893707275391 0.138877794146537781 -0.0967252328991889954
0.465752482414245605 -0.124098397791385651 0.00211813254281878471
-0.385316789150238037 0.255813717842102051 0.0332126840949058533
0.49391096830368042 -0.301593482494354248 0.121268279850482941
0.465303301811218262 -0.105832561850547791 0.0597114786505699158
0.203728348016738892 0.015576525591313839 -0.0420427396893501282
-0.224514618515968323 0.296208471059799194 0.159098759293556213
-0.125124916434288025 -0.0485489591956138611 0.0112190581858158112
-0.231627285480499268 0.228847578167915344 0.348559290170669556
-0.380749374628067017 -0.0538833104074001312 0.145898386836051941
0.341199755668640137 -0.0733999460935592651 0.0478411614894866943
-0.435911595821380615 -0.0117912143468856812 0.0345087908208370209
0.205398738384246826 0.0170176345854997635 0.0705931931734085083
0.0562786124646663666 -0.0855516120791435242 0.239543229341506958
-0.383844554424285889 -0.0590704567730426788 0.117009647190570831
-0.136773064732551575 -0.264413237571716309 -0.000846186478156596422
-0.243667140603065491 0.0640076994895935059 0.245213136076927185
-0.54202038049697876 0.211290121078491211 0.163263276219367981
-0.590659916400909424 0.287571579217910767 -0.00677398312836885452
0.306970536708831787 0.0179992318153381348 0.0430423244833946228
0.478445768356323242 -0.314490318298339844 -0.305143296718597412
0.503727138042449951 -0.345223695039749146 -0.0635384395718574524
0.47164762020111084 -0.304807424545288086 0.115281835198402405
0.527095019817352295 -0.302592813968658447 -0.109121575951576233
-0.402793556451797485 0.311951905488967896 0.135202929377555847
0.517895936965942383 -0.250993102788925171 -0.307135641574859619
0.507565855979919434 -0.328773319721221924 -0.314494311809539795
0.518824756145477295 -0.331028640270233154 0.0918390974402427673
0.477330565452575684 -0.303961217403411865 -0.302783697843551636
0.527554631233215332 -0.285332977771759033 -0.107739880681037903
-0.559796392917633057 0.267623931169509888 0.366140067577362061
-0.640041232109069824 0.289967268705368042 0.0857145413756370544
0.371360838413238525 -0.400851190090179443 -0.217259615659713745
-0.449664473533630371 -0.000589334231335669756 0.175578117370605469
0.176460191607475281 0.0733545571565628052 0.00685955863445997238
-0.453512638807296753 0.135117277503013611 -0.213204562664031982
0.403126060962677002 -0.335523426532745361 0.129211008548736572
-0.59881126880645752 0.207790553569793701 0.00131759361829608679
0.247546777129173279 -0.114156737923622131 -0.0705846101045608521
-0.483107656240463257 0.183158248662948608 -0.209609612822532654
-0.376023530960083008 -0.0626163780689239502 0.0921403169631958008
0.522923886775970459 -0.320630103349685669 0.0361324064433574677
0.542425155639648438 -0.21705232560634613 0.108498945832252502
0.525740444660186768 -0.273193329572677612 0.0555631555616855621
0.111282035708427429 0.0844771042466163635 0.317551106214523315
-0.350799202919006348 -0.0474235117435455322 0.0454348549246788025
0.105194211006164551 0.0726255401968955994 0.295790046453475952
-0.165192440152168274 0.133482277393341064 0.151731476187705994
0.502774596214294434 -0.256168633699417114 -0.102222487330436707
0.428958386182785034 -0.303511083126068115 0.13618171215057373
-0.355585962533950806 -0.100950047373771667 0.159479409456253052
0.498638153076171875 -0.201305404305458069 -0.107696019113063812
-0.578297197818756104 0.348471522331237793 0.152699172496795654
0.105085186660289764 -0.0111066233366727829 0.021442292258143425
-0.341095477342605591 -0.122887231409549713 0.105022363364696503
-0.120595961809158325 -0.275193989276885986 0.174408689141273499
-0.160991907119750977 0.167726397514343262 0.325572401285171509
0.5150299072265625 -0.358265429735183716 0.0270668808370828629
0.521072030067443848 -0.287250876426696777 -0.011418578214943409
0.47891610860824585 -0.13961164653301239 0.107866659760475159
-0.180767297744750977 0.0297554191201925278 0.0262873880565166473
-0.341811507940292358 -0.121108241379261017 0.104165889322757721
-0.59999316930770874 0.377169609069824219 0.188966125249862671
-0.119570635259151459 -0.266313791275024414 0.218654781579971313
0.523474633693695068 -0.30850568413734436 -0.0745175033807754517
0.516341686248779297 -0.251807212829589844 -0.309258967638015747
0.45498242974281311 -0.307909578084945679 -0.294197618961334229
0.240666463971138 -0.0955771058797836304 0.158905446529388428
-0.620020270347595215 0.272646725177764893 0.0377146415412425995
-0.429744482040405273 -0.00332924583926796913 0.177807539701461792
-0.250298023223876953 -0.13636547327041626 -0.0706939399242401123
0.317357152700424194 -0.31860804557800293 0.122810937464237213
0.539353132247924805 -0.249372527003288269 0.106886997818946838
0.452751129865646362 -0.139427706599235535 0.0156708452850580215
0.429391384124755859 -0.320663422346115112 0.123971104621887207
0.413297027349472046 -0.330477535724639893 -0.209529593586921692
0.47385561466217041 -0.128187716007232666 0.109749972820281982
-0.54874950647354126 0.378980726003646851 0.173176318407058716
0.190562382340431213 -0.339392721652984619 -0.0130236558616161346
-0.201591432094573975 -0.134898707270622253 -0.0680513754487037659
-0.185402423143386841 0.312533587217330933 0.118339590728282928
0.103415645658969879 0.108180209994316101 0.174776345491409302
-0.444124996662139893 -0.0537964440882205963 0.0923368409276008606
-0.489167600870132446 0.0305743776261806488 0.0173659715801477432
0.2314901202917099 0.0114173423498868942 0.315294951200485229
-0.0245605725795030594 0.113627731800079346 0.312836021184921265
0.243327423930168152 -0.0382142327725887299 0.204931095242500305
-0.384664565324783325 0.245831415057182312 0.0348019935190677643
-0.653857171535491943 0.217156440019607544 -0.0387085899710655212
0.483033299446105957 -0.115874804556369781 0.0236889198422431946
0.122264370322227478 0.0799634829163551331 0.138879343867301941
-0.381726533174514771 -0.0720480829477310181 0.0960897058248519897
0.319737046957015991 -0.0719561278820037842 0.0626722276210784912
-0.440456777811050415 -0.0111180804669857025 0.00735804624855518341
-0.501989603042602539 0.234162792563438416 -0.0705830678343772888
-0.547043979167938232 0.203908935189247131 -0.0679838582873344421
0.0886576026678085327 0.0921564474701881409 0.0803635269403457642
-0.519675612449645996 0.205024704337120056 -0.0466359183192253113
-0.168048560619354248 0.072884000837802887 0.232912912964820862
-0.0572303459048271179 -0.186325386166572571 0.0271889101713895798
-0.21234169602394104 0.291243135929107666 0.10959295928478241
0.249689385294914246 -0.00499591464176774025 0.0226340722292661667
-0.555558860301971436 0.204817265272140503 0.118918061256408691
-0.457120746374130249 0.216929569840431213 0.025063658133149147
-0.462417632341384888 0.266960591077804565 -0.00218510138802230358
-0.575234174728393555 0.248034968972206116 -0.0759020000696182251
-0.389176607131958008 0.275635957717895508 -0.0836220681667327881
0.343883991241455078 -0.134282529354095459 0.319078981876373291
-0.498394519090652466 0.207318231463432312 -0.01107805036008358
-0.345814824104309082 0.293324977159500122 -0.0496449321508407593
0.526032507419586182 -0.360690891742706299 0.0419711768627166748
-0.539715051651000977 0.215581610798835754 0.201633542776107788
-0.569082498550415039 0.294801086187362671 -0.00257812859490513802
0.316646724939346313 0.0241220481693744659 0.0490249097347259521
0.48206600546836853 -0.306636035442352295 -0.303451985120773315
0.479757010936737061 -0.325929462909698486 0.125562280416488647
0.52324289083480835 -0.306644141674041748 -0.0985096916556358337
0.49042096734046936 -0.310404181480407715 -0.307210743427276611
0.516276359558105469 -0.324657082557678223 0.12002987414598465
0.444587171077728271 -0.299828171730041504 -0.290436893701553345
0.523260056972503662 -0.30419507622718811 -0.0971727818250656128
0.134363278746604919 0.116779625415802002 0.337394475936889648
-0.64219510555267334 0.24301321804523468 -0.00889000575989484787
-0.292490452527999878 -0.113337121903896332 -0.105258271098136902
0.539288222789764404 -0.255112200975418091 0.0923861861228942871
0.129222869873046875 0.0979974865913391113 0.317668139934539795
-0.235101461410522461 -0.1430092453956604 -0.07093086838722229
0.252487331628799438 0.030452510342001915 -0.0856690257787704468
0.531007707118988037 -0.322777748107910156 0.0070230378769338131
-0.599141955375671387 0.307750493288040161 0.105077184736728668
0.532143354415893555 -0.244285449385643005 0.0867373198270797729
-0.373909145593643188 -0.0603134594857692719 0.0927996635437011719
0.526609480381011963 -0.274960458278656006 -0.123052075505256653
-0.500938534736633301 0.149168595671653748 0.353568762540817261
0.385214447975158691 -0.297251641750335693 0.132031619548797607
0.132768794894218445 -0.331541299819946289 -0.100144386291503906
0.52280580997467041 -0.354503422975540161 -0.0147399511188268661
-0.436315000057220459 0.151012018322944641 -0.0845044851303100586
0.5158119797706604 -0.299737721681594849 0.0648946389555931091
0.393121063709259033 -0.367516189813613892 -0.213479340076446533
0.500578939914703369 -0.171085208654403687 0.130227655172348022
0.533278942108154297 -0.333644956350326538 0.028581688180565834
-0.57972419261932373 0.349253386259078979 0.04087027907371521
0.52002406120300293 -0.24056631326675415 -0.30850297212600708
-0.600815296173095703 0.371014803647994995 0.10525038093328476
-0.500439703464508057 0.147539719939231873 0.355772644281387329
0.234109684824943542 -0.277482032775878906 0.317586690187454224
-0.181238964200019836 -0.136526033282279968 -0.0552166178822517395
-0.228262946009635925 -0.137470617890357971 -0.0530998408794403076
-0.204146713018417358 0.298841297626495361 0.127177581191062927
0.262663662433624268 -0.289300769567489624 0.323869824409484863
-0.362126648426055908 -0.0300221946090459824 0.120017461478710175
-0.499942690134048462 0.0199121609330177307 0.0324038080871105194
0.242973819375038147 0.000491286744363605976 0.322530984878540039
0.141498193144798279 -0.290034860372543335 0.311956912279129028
0.308193594217300415 -0.20715409517288208 0.248398125171661377
-0.385974854230880737 0.255353629589080811 0.034857824444770813
0.531160891056060791 -0.261900246143341064 0.103111743927001953
0.224185481667518616 0.0231414772570133209 0.305698007345199585
0.530638933181762695 -0.147037804126739502 -0.308037042617797852
-0.644711315631866455 0.231800541281700134 -0.0469417683780193329
0.541314482688903809 -0.310580581426620483 -0.044252544641494751
0.507858395576477051 -0.267385572195053101 -0.31128266453742981
0.514341354370117188 -0.315733075141906738 -0.294874101877212524
0.458882510662078857 -0.290508359670639038 -0.296371817588806152
-0.542965352535247803 0.268610596656799316 -0.188826113939285278
-0.62125396728515625 0.289391189813613892 0.0672414600849151611
0.363488078117370605 -0.383842021226882935 -0.2058916836977005
-0.0923622846603393555 0.26771092414855957 0.189766556024551392
-0.448327541351318359 0.131834298372268677 -0.208310231566429138
-0.575301289558410645 0.204253777861595154 -0.126566529273986816
-0.629917621612548828 0.192165732383728027 -0.0393719859421253204
-0.469631880521774292 0.139473795890808105 -0.230612665414810181
0.25771033763885498 -0.0166293829679489136 -0.071866258978843689
0.230577766895294189 0.0543144159018993378 -0.0449278764426708221
0.113175362348556519 0.110210508108139038 0.301942616701126099
-0.58397221565246582 0.218867257237434387 -0.220942378044128418
-0.598055064678192139 0.235694065690040588 -0.0102379815652966499
-0.366869121789932251 -0.0911826863884925842 0.123261600732803345
-0.329858601093292236 -0.124815292656421661 0.137688592076301575
-0.634447395801544189 0.200081557035446167 -0.037787117063999176
-0.425537675619125366 -0.054364226758480072 0.0996925756335258484
-0.4779319167137146 0.0206855274736881256 -0.0360593646764755249
0.208773508667945862 0.00901827588677406311 0.301076918840408325
-0.634023666381835938 0.248542293906211853 -0.0054606487974524498
-0.127932503819465637 0.270377606153488159 0.13264763355255127
0.271146029233932495 -0.329846352338790894 0.180300518870353699
0.533081114292144775 -0.209722086787223816 -0.0986837521195411682
-0.126394778490066528 -0.112104102969169617 -0.0544468872249126434
0.454186350107192993 -0.338474631309509277 -0.297887265682220459
-0.212519839406013489 0.0367935262620449066 -0.0593001917004585266
-0.553040206432342529 0.176279127597808838 0.013314724899828434
-0.198427736759185791 0.140183016657829285 0.0215275250375270844
-0.0124992756173014641 -0.101983137428760529 -0.0426329933106899261
0.264828652143478394 -0.274457156658172607 0.202647849917411804
0.348710179328918457 -0.32065233588218689 0.000150336141814477742
-0.155853688716888428 0.0703435167670249939 0.0279011446982622147
-0.249107986688613892 0.131362259387969971 -0.0340434461832046509
0.199179276823997498 0.00215629651211202145 0.0193101074546575546
0.0764181837439537048 0.0813888460397720337 0.0242354031652212143
-0.283335328102111816 0.288844883441925049 -0.00551107898354530334
0.476961851119995117 -0.289396822452545166 -0.301533490419387817
-0.556735217571258545 0.26625332236289978 -0.0167239867150783539
-0.237297579646110535 0.0982081294059753418 -0.0320636145770549774
0.137929230928421021 -0.280348330736160278 0.150308534502983093
0.296410590410232544 -0.296915620565414429 0.0571156740188598633
-0.285936057567596436 0.257819831371307373 0.000977447605691850185
-0.0209935009479522705 -0.0398174598813056946 0.0893068760633468628
0.204562634229660034 0.0432490184903144836 0.0659351125359535217
-0.143638446927070618 -0.0846244990825653076 0.0920561701059341431
0.372553884983062744 -0.072920188307762146 0.0317350402474403381
0.521382808685302734 -0.198660418391227722 -0.0983773469924926758
0.487106531858444214 -0.297396570444107056 -0.305186480283737183
0.480478674173355103 -0.314389169216156006 0.122457914054393768
0.51361924409866333 -0.306755661964416504 -0.102259479463100433
0.496030241250991821 -0.309027314186096191 -0.309551209211349487
0.506185293197631836 -0.327385395765304565 -0.00398036930710077286
0.511777222156524658 -0.324092745780944824 0.118493057787418365
0.465888679027557373 -0.288297384977340698 -0.296389609575271606
0.4379902184009552 -0.262986600399017334 -0.194133415818214417
0.13517056405544281 0.117426775395870209 0.337310075759887695
0.396641165018081665 -0.243897601962089539 0.318906277418136597
-0.601491868495941162 0.354784339666366577 0.066119760274887085
-0.505082607269287109 0.35769951343536377 0.178880617022514343
0.542663872241973877 -0.282065063714981079 0.098056599497795105
0.256432682275772095 0.0374129414558410645 -0.0718704313039779663
-0.233113855123519897 0.156553864479064941 -0.00489814812317490578
0.506175816059112549 -0.331552863121032715 -0.00240292446687817574
0.444796711206436157 -0.249574273824691772 -0.227851688861846924
-0.639023184776306152 0.255021631717681885 0.055120076984167099
0.53263777494430542 -0.262235581874847412 0.0933717340230941772
-0.393084347248077393 -0.0586883798241615295 0.10086580365896225
0.523921728134155273 -0.289219886064529419 -0.0919569879770278931
0.028003079816699028 -0.273622512817382812 -0.03502669557929039
0.385175794363021851 -0.305587798357009888 0.118956886231899261
-0.582168459892272949 0.367326229810714722 0.132312506437301636
0.240241497755050659 0.0034477731678634882 0.181329295039176941
-0.112964123487472534 0.166026875376701355 0.347893595695495605
0.482194304466247559 -0.367924392223358154 -0.0219253655523061752
0.412221848964691162 -0.320720165967941284 -0.210865497589111328
0.507301509380340576 -0.155049458146095276 0.124143309891223907
0.528829336166381836 -0.334279268980026245 0.0129544930532574654
-0.584125399589538574 0.336937069892883301 0.0346902571618556976
-0.590743839740753174 0.382420152425765991 0.131872624158859253
0.526317596435546875 -0.243924975395202637 -0.310477077960968018
0.474430710077285767 -0.29031836986541748 -0.299286335706710815
-0.597205281257629395 0.354202300310134888 0.170270800590515137
-0.587334573268890381 0.371959030628204346 0.101723931729793549
-0.212081864476203918 -0.128985077142715454 -0.0573294423520565033
0.234440460801124573 -0.292577594518661499 0.315154314041137695
0.238079071044921875 0.0676358044147491455 0.320292383432388306
0.541869640350341797 -0.313420325517654419 -0.0579727031290531158
-0.444671452045440674 -0.0478285849094390869 0.127535834908485413
0.359527647495269775 -0.387917786836624146 -0.208834469318389893
-0.556579351425170898 0.21172158420085907 -0.113137312233448029
0.520825028419494629 -0.279127180576324463 -0.176965266466140747
0.241942107677459717 0.0352765247225761414 0.314763814210891724
0.242748275399208069 0.000991959357634186745 0.0238663945347070694
0.380672872066497803 0.039391886442899704 0.0120682083070278168
0.526789605617523193 -0.230223029851913452 -0.309985041618347168
0.326976090669631958 0.0967564061284065247 -0.0357270017266273499
-0.374259829521179199 -0.0596682429313659668 -0.132474809885025024
0.512929320335388184 -0.167050212621688843 0.136036336421966553
-0.574497699737548828 0.322543829679489136 0.0500579997897148132
-0.55897897481918335 0.283935248851776123 0.364685088396072388
0.224410384893417358 0.0325236842036247253 -0.0579798966646194458
-0.57435917854309082 0.215187087655067444 -0.220579445362091064
-0.0443208031356334686 0.157186418771743774 0.0815477743744850159
0.114054314792156219 0.110659956932067871 0.0257203411310911179
0.342718511819839478 -0.246507197618484497 -0.0967134237289428711
-0.285120695829391479 0.301037400960922241 -0.00239008897915482521
0.153272390365600586 -0.0037958256434649229 -0.00332633242942392826
0.0690247416496276855 0.139447495341300964 0.0759548470377922058
-0.270112067461013794 0.280791342258453369 0.00212450744584202766
0.50336158275604248 -0.292175441980361938 -0.159206181764602661
0.136940419673919678 -0.0252211745828390121 0.0133655285462737083
-0.339056551456451416 -0.0313916578888893127 0.0232174769043922424
0.373367905616760254 -0.0913153812289237976 0.044446062296628952
0.199889272451400757 0.101849935948848724 -0.00159484986215829849
-0.297299206256866455 -0.0244250241667032242 0.0363371521234512329
0.131740733981132507 -0.0172134954482316971 -0.0258371569216251373
0.101367175579071045 0.0166557114571332932 0.0914876684546470642
0.175641730427742004 0.119963169097900391 0.0382754281163215637
-0.230527937412261963 -0.0630745589733123779 0.105024352669715881
0.486090332269668579 -0.296259671449661255 -0.303415626287460327
-0.603172898292541504 0.290023893117904663 0.185715094208717346
0.467199057340621948 -0.308265954256057739 0.120215050876140594
0.378235280513763428 -0.0139265675097703934 0.00655056070536375046
0.514368534088134766 -0.294889330863952637 -0.103352338075637817
0.518857002258300781 -0.239314347505569458 -0.307485014200210571
0.477923274040222168 -0.309325844049453735 -0.300168752670288086
0.483394503593444824 -0.274110317230224609 -0.29980054497718811
0.117220252752304077 0.119334936141967773 0.297888189554214478
-0.584195852279663086 0.356853216886520386 0.0663404315710067749
0.383730143308639526 -0.336879253387451172 0.125649183988571167
-0.574484467506408691 0.318211823701858521 -0.0260527897626161575
-0.604459762573242188 0.217668458819389343 -0.0864252969622612
0.267703741788864136 0.0398073829710483551 -0.0860705077648162842
-0.356439083814620972 -0.0215743407607078552 -0.130769163370132446
-0.564291715621948242 0.314845293760299683 -0.00740646012127399445
0.19062216579914093 -0.340325325727462769 -0.0745684206485748291
0.404148638248443604 -0.357210457324981689 -0.22391587495803833
-0.500188350677490234 0.146123871207237244 0.355116158723831177
0.509602069854736328 -0.151010781526565552 0.115115568041801453
0.496860533952713013 -0.263517946004867554 -0.304280132055282593
0.457971096038818359 -0.280470073223114014 -0.289637595415115356
0.44093051552772522 -0.264548182487487793 -0.283589333295822144
-0.588013052940368652 0.357956618070602417 0.0622530505061149597
0.505206286907196045 -0.126327052712440491 0.124535754323005676
-0.206250160932540894 0.313002049922943115 0.109164223074913025
0.268250316381454468 -0.283613055944442749 0.319327473640441895
0.232571408152580261 0.00403463514521718025 0.318059593439102173
0.513265371322631836 -0.175255328416824341 -0.281654238700866699
-0.115256160497665405 0.0104721756651997566 0.00622985605150461197
0.403880447149276733 -0.359239339828491211 -0.224539175629615784
0.417618483304977417 -0.312814712524414062 0.143899545073509216
-0.555471420288085938 0.376972973346710205 0.187349185347557068
-0.175668329000473022 0.309669315814971924 0.118836134672164917
-0.389772981405258179 0.276608169078826904 -0.0846229717135429382
0.365235507488250732 0.0523320212960243225 0.0247780140489339828
0.129194572567939758 0.116222001612186432 0.319110333919525146
-0.286539852619171143 -0.0999945029616355896 -0.0917275324463844299
0.258089214563369751 0.101440295577049255 -0.0618360638618469238
-0.361275315284729004 -0.0592259317636489868 -0.143743157386779785
0.134149461984634399 0.114178016781806946 0.33805316686630249
-0.563128232955932617 0.199848398566246033 -0.228561669588088989
-0.276446163654327393 0.288569062948226929 -0.000509054283611476421
0.454889506101608276 -0.246039435267448425 -0.288179367780685425
0.460235416889190674 -0.275001406669616699 -0.290704935789108276
-0.63483041524887085 0.308643072843551636 0.170922383666038513
0.512492775917053223 -0.3170509934425354 -0.0384483113884925842
0.46894344687461853 -0.265399932861328125 -0.297832876443862915
0.478158831596374512 -0.294619470834732056 -0.300110071897506714
0.458147376775741577 -0.245823279023170471 -0.289751201868057251
0.381110787391662598 -0.360571861267089844 -0.21372617781162262
-0.479365915060043335 -0.0120021766051650047 0.186312854290008545
-0.516454160213470459 0.366267740726470947 0.174585819244384766
-0.618540644645690918 0.20255829393863678 -0.0866878405213356018
-0.237313941121101379 0.0193946957588195801 -0.0721940994262695312
-0.382565855979919434 -0.0584562569856643677 0.0241160113364458084
0.474875777959823608 -0.367915928363800049 0.0219422020018100739
-0.649244129657745361 0.237265616655349731 0.0327403843402862549
0.412575691938400269 -0.346308887004852295 -0.221514210104942322
0.526081681251525879 -0.336717307567596436 0.0802008137106895447
0.506049752235412598 -0.238615438342094421 -0.307946175336837769
0.249606594443321228 -0.281792193651199341 0.318390071392059326
0.239232942461967468 0.0670667290687561035 0.314836770296096802
0.539587557315826416 -0.301418691873550415 -0.0935312435030937195
-0.447826206684112549 -0.0408317483961582184 0.126971155405044556
-0.0438091494143009186 0.105001918971538544 0.318123728036880493
0.248000249266624451 0.0215166229754686356 0.322388142347335815
-0.28486400842666626 -0.0991284772753715515 -0.098743930459022522
-0.137776881456375122 -0.0145295718684792519 -0.0484833456575870514
-0.277888059616088867 0.338404029607772827 0.0474268868565559387
-0.254733443260192871 0.290456891059875488 -0.00283360946923494339
-0.218917727470397949 0.322422772645950317 0.0702622681856155396
-0.573242366313934326 0.1528044193983078 -0.0740121454000473022
-0.289968162775039673 0.293265223503112793 0.0164556223899126053
0.525646865367889404 -0.320231497287750244 0.0273144654929637909
0.34609752893447876 -0.0300112254917621613 -0.0343108475208282471
0.522269248962402344 -0.362481445074081421 0.0895357802510261536
-0.0833139419555664062 -0.111271195113658905 0.0787783116102218628
-0.403967082500457764 0.326584279537200928 0.121711291372776031
0.504774332046508789 -0.366648197174072266 -0.00434859888628125191
-0.118713967502117157 0.266630679368972778 0.121331088244915009
0.518743216991424561 -0.342525511980056763 0.0359845273196697235
0.130346477031707764 -0.334204137325286865 0.301427125930786133
0.466639935970306396 -0.310612708330154419 0.0725969895720481873
0.482882320880889893 -0.37357291579246521 0.0524658970534801483
0.42109447717666626 -0.0255729071795940399 0.0650103092193603516
0.494166314601898193 -0.363108336925506592 -0.0153980953618884087
-0.232965931296348572 0.287700504064559937 0.0845482051372528076
0.531241059303283691 -0.331332296133041382 -0.00708481995388865471
-0.271952420473098755 0.315942674875259399 0.114398524165153503
0.30823516845703125 0.00308808544650673866 0.04647793248295784
0.467424958944320679 -0.263008177280426025 -0.295904397964477539
0.473842978477478027 -0.303887128829956055 0.11436733603477478
0.51118999719619751 -0.313219457864761353 -0.104247778654098511
0.509198784828186035 -0.244963303208351135 -0.308264315128326416
0.447948276996612549 -0.292101055383682251 -0.292590558528900146
0.466391116380691528 -0.282867640256881714 -0.297113418579101562
0.138381719589233398 0.113295711576938629 0.336991250514984131
-0.652073025703430176 0.28621828556060791 0.0985689461231231689
-0.63828575611114502 0.245348349213600159 -0.037694927304983139
0.13636760413646698 0.0697773993015289307 0.338104188442230225
-0.577085673809051514 0.304337561130523682 -0.0550579167902469635
0.262480974197387695 0.0309877712279558182 -0.0732772871851921082
0.541980504989624023 -0.216284185647964478 0.111696287989616394
-0.360069513320922852 -0.035214792937040329 -0.133947610855102539
-0.5747261643409729 0.328015059232711792 -0.0290601421147584915
-0.361757159233093262 -0.0703864544630050659 -0.0336057431995868683
-0.130550280213356018 -0.267082840204238892 0.119362376630306244
0.49513775110244751 -0.365403145551681519 -0.000236580148339271545
0.373800039291381836 -0.358968406915664673 -0.209891393780708313
-0.378344178199768066 -0.106363840401172638 0.101697497069835663
-0.0670275017619132996 -0.263576388359069824 0.296711266040802002
0.519881367683410645 -0.242916986346244812 -0.309283643960952759
0.509471893310546875 -0.330135703086853027 0.0154079319909214973
-0.593315601348876953 0.369495630264282227 0.121131099760532379
-0.655344486236572266 0.176195621490478516 -0.102528855204582214
-0.223021253943443298 -0.143621116876602173 -0.0534077547490596771
-0.191246822476387024 0.317180722951889038 0.10111604630947113
0.256709933280944824 -0.283084720373153687 0.319821625947952271
0.239208042621612549 0.0327064469456672668 0.319300532341003418
-0.120128832757472992 -0.04555506631731987 0.00761615671217441559
-0.641518175601959229 0.309158474206924438 0.102414622902870178
0.364684194326400757 -0.373512387275695801 -0.206805899739265442
0.537775278091430664 -0.217303037643432617 0.161977499723434448
-0.552702188491821289 0.382982134819030762 0.158518344163894653
-0.122497528791427612 0.259850114583969116 0.115462735295295715
0.119428917765617371 0.103008255362510681 0.0896838381886482239
-0.375444024801254272 0.266453295946121216 -0.089169621467590332
0.516902327537536621 -0.348630160093307495 0.09889984130859375
-0.293525546789169312 -0.106614381074905396 -0.108970142900943756
0.27500489354133606 0.103489771485328674 -0.0574815869331359863
-0.57509303092956543 0.220094785094261169 -0.212172225117683411
-0.115527436137199402 0.269126206636428833 0.180150434374809265
0.236064180731773376 -0.287561535835266113 0.31451416015625
0.310179263353347778 -0.186882168054580688 0.24116283655166626
0.541772902011871338 -0.325418174266815186 -0.0207800492644309998
0.0790229961276054382 -0.337287306785583496 0.282396823167800903
-0.00643960153684020042 -0.171331942081451416 0.00452019879594445229
-0.282258450984954834 0.262323170900344849 0.00741620361804962158
0.513133108615875244 -0.236687377095222473 -0.309280455112457275
-0.646880805492401123 0.278784632682800293 0.0800830647349357605
-0.646276235580444336 0.183709830045700073 -0.0903766676783561707
0.514108538627624512 -0.32209441065788269 0.0244184788316488266
-0.406893104314804077 -0.0630895644426345825 0.113913513720035553
0.516829788684844971 -0.355287313461303711 -0.0204867944121360779
-0.566515028476715088 0.374853372573852539 0.153027594089508057
0.235961198806762695 0.0435220152139663696 0.313851535320281982
-0.664766073226928711 0.227661058306694031 0.0236216038465499878
-0.448034346103668213 -0.0379335731267929077 0.127480760216712952
0.503001868724822998 -0.301857888698577881 -0.178732722997665405
-0.589066803455352783 0.36156049370765686 0.0866299048066139221
-0.194087520241737366 0.315455466508865356 0.105234101414680481
0.246984034776687622 0.0244205426424741745 0.323982894420623779
0.530920565128326416 -0.32338404655456543 -0.0579429268836975098
-0.182833969593048096 0.307555645704269409 0.128844231367111206
0.247232452034950256 0.0074933953583240509 0.324111372232437134
0.0586874783039093018 0.140187457203865051 0.345984071493148804
-0.505613207817077637 0.149923428893089294 0.357320398092269897
0.270770817995071411 -0.310841262340545654 0.326359361410140991
-0.253742516040802002 0.0241356343030929565 -0.0704019889235496521
0.241115763783454895 -0.294878900051116943 0.322613954544067383
0.249013438820838928 0.0443051382899284363 0.314575612545013428
0.468377143144607544 -0.101498939096927643 0.034731786698102951
-0.124756239354610443 0.195672094821929932 0.115717515349388123
0.240009114146232605 -0.326204806566238403 0.318064272403717041
0.500251352787017822 -0.366174131631851196 0.0747737735509872437
0.523439764976501465 -0.324299037456512451 0.0263379812240600586
0.444670706987380981 -0.252851784229278564 0.332450121641159058
0.321474313735961914 -0.130979180335998535 -0.106525018811225891
0.0633984580636024475 -0.0102457990869879723 0.321902751922607422
0.511303901672363281 -0.3604755699634552 0.0476392954587936401
0.135664135217666626 -0.100169233977794647 0.0407208651304244995
0.0495249666273593903 0.0120943095535039902 0.0299498531967401505
0.0207862332463264465 0.048786994069814682 0.0428266040980815887
0.0881602689623832703 -0.0655653476715087891 0.289822369813919067
-0.162074178457260132 -0.265177398920059204 0.148254156112670898
0.26494908332824707 -0.0196659732609987259 0.0616931766271591187
-0.028872959315776825 -0.028520144522190094 0.295788854360580444
0.502200424671173096 -0.239931464195251465 -0.301865875720977783
0.475960373878479004 -0.314558744430541992 -0.301802337169647217
-0.630810976028442383 0.306794494390487671 0.167905747890472412
0.475486814975738525 -0.320405542850494385 0.121132604777812958
0.509100615978240967 -0.300445079803466797 -0.10541137307882309
0.528252065181732178 -0.274511843919754028 -0.317037731409072876
0.493577063083648682 -0.332028627395629883 -0.310550808906555176
0.503529548645019531 -0.319727510213851929 0.0981310978531837463
0.474206775426864624 -0.305391877889633179 -0.297957718372344971
-0.559214532375335693 0.268589019775390625 0.365004420280456543
0.125057786703109741 0.117355391383171082 0.314413666725158691
-0.633476078510284424 0.282759547233581543 0.054806884378194809
-0.58725208044052124 0.363313108682632446 0.102972082793712616
0.371524304151535034 -0.373666137456893921 -0.212583079934120178
0.438487768173217773 -0.347583234310150146 0.154457226395606995
0.0581722371280193329 0.121817484498023987 0.321357071399688721
-0.574454009532928467 0.369320809841156006 0.21608734130859375
0.264739304780960083 0.0250953547656536102 -0.0584811493754386902
0.368828058242797852 -0.336392909288406372 0.160745337605476379
0.510543882846832275 -0.301164954900741577 -0.111858993768692017
0.133658960461616516 -0.320162028074264526 -0.0975656583905220032
0.516607940196990967 -0.348411798477172852 -0.0201438982039690018
0.389319300651550293 -0.346393615007400513 -0.213942244648933411
-0.576922833919525146 0.319606363773345947 0.0413126200437545776
0.536070525646209717 -0.277483195066452026 -0.32044026255607605
0.467916697263717651 -0.310527920722961426 -0.299092531204223633
