ply
format ascii 1.0
element vertex 738
property float x
property float y
property float z
end_header
0.152444228529930115 -0.343454897403717041 0.318017423152923584
0.447739183902740479 -0.335993915796279907 -0.2925834059715271
0.515743017196655273 -0.303321033716201782 -0.10752587765455246
0.515199124813079834 -0.280634403228759766 -0.312400788068771362
0.484852075576782227 -0.328053683042526245 -0.309375941753387451
0.464343070983886719 -0.346259742975234985 -0.302256971597671509
0.549540698528289795 -0.21061098575592041 -0.315534770488739014
0.5240592360496521 -0.300422787666320801 -0.322061061859130859
0.517928600311279297 -0.301232457160949707 -0.317956149578094482
0.24700397253036499 0.056675303727388382 0.316729277372360229
0.241484001278877258 0.0871404707431793213 0.313062131404876709
-0.291758298873901367 -0.101093873381614685 -0.101798750460147858
-0.45367845892906189 -0.0525284595787525177 0.117125570774078369
0.404865533113479614 -0.272591084241867065 0.322859466075897217
-0.502505242824554443 0.00324405101127922535 0.189157694578170776
0.401160180568695068 -0.287569999694824219 0.3251686692237854
0.399309307336807251 -0.273886412382125854 0.323652207851409912
0.342343062162399292 -0.259287714958190918 0.0904872119426727295
-0.0186772067099809647 -0.244785025715827942 0.128807768225669861
-0.464591562747955322 0.0354428738355636597 0.189589932560920715
-0.19437234103679657 0.221112608909606934 0.172168955206871033
0.366924762725830078 -0.329598903656005859 -0.0231205467134714127
0.323493868112564087 -0.390434861183166504 -0.15852336585521698
0.535396933555603027 -0.323970586061477661 -0.0578023567795753479
-0.441850066184997559 -0.00527397170662879944 0.152745440602302551
-0.018998442217707634 -0.0599119439721107483 0.141913861036300659
-0.000118217918497975916 -0.236511826515197754 0.10654536634683609
0.526183903217315674 -0.202148780226707458 -0.0795717164874076843
0.449794203042984009 -0.308678179979324341 -0.292455852031707764
0.526786506175994873 -0.275796592235565186 -0.315253466367721558
0.499871104955673218 -0.325239419937133789 -0.312263995409011841
0.475193589925765991 -0.30539548397064209 -0.296966284513473511
-0.12742382287979126 0.246181309223175049 0.13911120593547821
-0.649131298065185547 0.281615972518920898 0.0942014977335929871
-0.198944717645645142 0.286184310913085938 0.335980385541915894
0.498006463050842285 -0.0870822519063949585 0.137118488550186157
0.200867444276809692 -0.359502971172332764 -0.0905328989028930664
0.505400776863098145 -0.368006110191345215 -0.0222968216985464096
0.52724909782409668 -0.243005231022834778 0.17336118221282959
-0.586089551448822021 0.37890392541885376 0.170613452792167664
0.445015281438827515 -0.315270483493804932 -0.287334620952606201
0.498581647872924805 -0.111441373825073242 0.11263439804315567
-0.65591132640838623 0.175072148442268372 -0.103772111237049103
-0.201975598931312561 0.308300793170928955 0.0892599448561668396
0.201477125287055969 -0.0139487003907561302 0.295548945665359497
0.160179182887077332 -0.0625068396329879761 -0.043729439377784729
-0.579658865928649902 0.301822751760482788 0.368673413991928101
0.275169849395751953 0.098003000020980835 -0.0286965109407901764
-0.435343772172927856 0.154910385608673096 -0.085940040647983551
0.534416139125823975 -0.333372890949249268 0.0131579060107469559
-0.568874359130859375 0.196893453598022461 -0.229066208004951477
-0.497747868299484253 0.0445228517055511475 -0.0867986977100372314
0.0315656736493110657 -0.104362986981868744 0.0332428775727748871
0.534034967422485352 -0.264837682247161865 -0.315896660089492798
0.00988504476845264435 0.197262123227119446 0.0278305131942033768
0.302271902561187744 0.0385218299925327301 -0.0840386673808097839
-0.332198292016983032 -0.0164651870727539062 -0.107588082551956177
0.236639499664306641 0.0140957329422235489 0.322121381759643555
0.125242277979850769 0.0126260537654161453 0.29919886589050293
0.527504444122314453 -0.355487346649169922 0.0667360872030258179
0.467088669538497925 -0.310165971517562866 -0.232699364423751831
-0.652112007141113281 0.284957945346832275 0.104306615889072418
0.546572744846343994 -0.220286205410957336 0.163930207490921021
0.528017580509185791 -0.323698073625564575 -0.0156235825270414352
-0.383031398057937622 -0.0568793788552284241 0.0762983933091163635
0.45691034197807312 -0.311160445213317871 -0.292152822017669678
0.504945099353790283 -0.340163171291351318 -0.31750720739364624
0.478811919689178467 -0.314644753932952881 -0.299097061157226562
0.520334541797637939 -0.301637709140777588 -0.316921085119247437
-0.00212623202241957188 -0.14034716784954071 -0.0245880428701639175
0.397644281387329102 -0.273444384336471558 0.323826700448989868
0.401312559843063354 -0.27187153697013855 0.324133545160293579
0.506110846996307373 -0.332289129495620728 0.106264717876911163
-0.467587769031524658 0.0419811271131038666 0.17070518434047699
0.410139381885528564 -0.346168011426925659 0.156974390149116516
-0.360806763172149658 -0.0357469171285629272 -0.147992298007011414
-0.128086134791374207 -0.268100053071975708 0.112511210143566132
0.512614250183105469 -0.369345039129257202 -0.0142425540834665298
-0.213601917028427124 0.312097996473312378 0.0977834165096282959
0.250766992568969727 -0.28740239143371582 0.323179304599761963
0.209137663245201111 0.00909188948571681976 -0.0457125231623649597
0.0701650381088256836 -0.151852473616600037 -0.0169618520885705948
-0.16962529718875885 0.30434754490852356 0.11899401992559433
0.471160680055618286 -0.364644318819046021 0.00747969234362244606
-0.29087790846824646 -0.0998842418193817139 -0.103055238723754883
0.0366499871015548706 -0.150021716952323914 -0.0214487258344888687
0.232382386922836304 0.0559011660516262054 0.309543907642364502
0.253572821617126465 -0.288963407278060913 0.32096293568611145
-0.471696585416793823 0.000679684279020875692 0.168719813227653503
0.241197004914283752 0.0623573102056980133 0.313448846340179443
0.508996248245239258 -0.352326512336730957 0.0643884390592575073
0.227605611085891724 -0.315113842487335205 0.314841985702514648
-0.375339508056640625 -0.0936143770813941956 0.0862691178917884827
-0.0625137612223625183 -0.241990536451339722 0.302670001983642578
-0.222575590014457703 -0.128078952431678772 -0.0529600642621517181
-0.409839987754821777 -0.0659024938941001892 0.0986006781458854675
-0.444960415363311768 -0.0451705940067768097 0.132805854082107544
0.239163398742675781 -0.294348239898681641 0.314728081226348877
0.154116064310073853 -0.324660688638687134 0.320335417985916138
0.425434589385986328 -0.256357491016387939 0.328991740942001343
0.438299119472503662 -0.343219190835952759 -0.292240798473358154
0.5063629150390625 -0.334865301847457886 -0.317650437355041504
0.445144951343536377 -0.352566689252853394 -0.286299645900726318
0.238463699817657471 0.0654196739196777344 0.312726825475692749
0.403386205434799194 -0.287798821926116943 0.326293438673019409
-0.494725286960601807 0.00627157790586352348 0.188444152474403381
0.485862553119659424 -0.0635189786553382874 0.1322508305311203
0.0127658015117049217 -0.171063989400863647 0.0100930901244282722
0.531597614288330078 -0.307903826236724854 -0.061761077493429184
0.314982771873474121 -0.302536696195602417 -0.1264009028673172
0.445981115102767944 -0.291609615087509155 -0.285184472799301147
-0.336733520030975342 0.224224716424942017 0.125830903649330139
-0.400755882263183594 -0.0286164693534374237 -0.00179461413063108921
0.403297126293182373 -0.272014468908309937 0.324517518281936646
-0.13304901123046875 0.195383235812187195 0.167941272258758545
0.3993491530418396 -0.271951109170913696 0.3243294358253479
-0.446428000926971436 -0.0253868363797664642 0.0215096641331911087
-0.137737646698951721 0.244441092014312744 0.191880211234092712
-0.612657308578491211 0.293660193681716919 0.183768570423126221
0.124843612313270569 0.115741372108459473 0.316997885704040527
-0.120675474405288696 0.250185966491699219 0.16202978789806366
-0.583156406879425049 0.347774773836135864 0.0581661388278007507
0.427037268877029419 -0.348341286182403564 0.15346352756023407
-0.566575884819030762 0.294690042734146118 -0.0689329877495765686
0.252153247594833374 0.026447296142578125 -0.0791199207305908203
0.247944429516792297 0.100110813975334167 -0.0478927865624427795
-0.357282787561416626 -0.0560935996472835541 -0.141731619834899902
0.199011087417602539 0.119936458766460419 0.0361802615225315094
0.54568403959274292 -0.131775155663490295 0.112500153481960297
-0.581467926502227783 0.321389287710189819 -0.0228028092533349991
0.206478983163833618 0.0244132708758115768 0.177232250571250916
-0.595179259777069092 0.374781817197799683 0.172029048204421997
0.444995462894439697 -0.319428294897079468 0.127817749977111816
0.255375772714614868 -0.278928428888320923 0.316812366247177124
0.2358560711145401 0.023531254380941391 0.316968530416488647
-0.362719208002090454 -0.0501242093741893768 -0.0236437693238258362
-0.182361006736755371 0.117787741124629974 0.042521156370639801
0.255089491605758667 -0.288367420434951782 0.319624990224838257
0.242287665605545044 0.0329058989882469177 0.322237700223922729
0.400077670812606812 0.0231248568743467331 0.11568470299243927
-0.340314298868179321 -0.0664419457316398621 -0.147172614932060242
0.0761103257536888123 -0.333167880773544312 0.299158394336700439
-0.386556774377822876 -0.0611307695508003235 0.0939261987805366516
-0.44799429178237915 -0.0416452102363109589 0.127815797924995422
0.439572244882583618 -0.279482930898666382 0.334060490131378174
0.0348053164780139923 -0.123076103627681732 -0.0253515560179948807
0.414554238319396973 -0.280934453010559082 0.327397614717483521
0.433250993490219116 -0.296231389045715332 0.333556503057479858
0.368156731128692627 -0.278832763433456421 -0.129832595586776733
-0.477200537919998169 0.00109271833207458258 0.188398510217666626
-0.29129105806350708 -0.0965934544801712036 -0.104386709630489349
0.241715356707572937 -0.313135862350463867 0.309971928596496582
0.473386168479919434 -0.354368895292282104 0.00748769519850611687
-0.296125888824462891 -0.096841275691986084 -0.106843717396259308
0.24506928026676178 -0.288718223571777344 0.320370972156524658
0.0626449361443519592 -0.329873740673065186 0.297237426042556763
0.158344179391860962 -0.267898112535476685 -0.105212174355983734
0.250489532947540283 0.0631688758730888367 0.315880119800567627
-0.482303887605667114 -0.00823068153113126755 0.178017169237136841
0.236635163426399231 0.066335141658782959 0.315226882696151733
0.239053055644035339 -0.331942647695541382 0.321691066026687622
-0.382026046514511108 -0.0922851264476776123 0.0368376672267913818
-0.215838626027107239 -0.140311092138290405 -0.0541952326893806458
-0.382459908723831177 -0.0639377832412719727 0.083644472062587738
0.150325000286102295 -0.331772118806838989 0.332118719816207886
0.4460887610912323 -0.280014872550964355 0.333985775709152222
0.407670676708221436 -0.280645489692687988 0.32550850510597229
-0.501815259456634521 0.0062578180804848671 0.188756868243217468
-0.321637719869613647 0.0968886762857437134 -0.070100247859954834
0.532685041427612305 -0.207681700587272644 -0.0521532595157623291
0.451169341802597046 -0.294048607349395752 -0.290072321891784668
0.487610489130020142 -0.325406461954116821 -0.310505300760269165
0.44661867618560791 -0.309892117977142334 -0.290446162223815918
-0.577511250972747803 0.268826067447662354 0.365869730710983276
-0.46121332049369812 0.105448514223098755 -0.230896160006523132
0.375129789113998413 -0.318827331066131592 0.199470952153205872
-0.589546501636505127 0.36653369665145874 0.131255239248275757
0.392809689044952393 -0.353586137294769287 -0.217104747891426086
0.441319108009338379 -0.310433864593505859 -0.288656890392303467
-0.200357556343078613 0.305028945207595825 0.0951214656233787537
-0.155187845230102539 0.267540991306304932 0.151828303933143616
0.529984712600708008 -0.338614881038665771 0.0722324326634407043
0.464023470878601074 -0.26629987359046936 -0.217249393463134766
-0.633285105228424072 0.275345772504806519 0.107072852551937103
0.438642591238021851 -0.30872577428817749 -0.286827564239501953
0.515640854835510254 -0.277378469705581665 -0.316451400518417358
0.516760587692260742 -0.340520918369293213 -0.320390105247497559
0.454574644565582275 -0.307208448648452759 -0.292878329753875732
0.491103321313858032 -0.32209053635597229 0.0947998911142349243
0.0209636352956295013 -0.276005566120147705 -0.0183609239757061005
-0.653843700885772705 0.171607598662376404 -0.10805106908082962
-0.22439807653427124 0.318115919828414917 0.121495038270950317
0.465561419725418091 -0.364250123500823975 0.0063162841834127903
0.481280416250228882 -0.336973816156387329 0.0506874695420265198
0.51166611909866333 -0.33957943320274353 -0.319048136472702026
0.440407097339630127 -0.356718480587005615 -0.2972564697265625
-0.269717961549758911 0.321568727493286133 0.0420184805989265442
0.424374639987945557 -0.313445001840591431 -0.281526327133178711
0.415753871202468872 -0.295390397310256958 0.328839480876922607
-0.32583928108215332 -0.075742281973361969 0.123589150607585907
-0.366637706756591797 -0.0670715123414993286 0.154778853058815002
-0.337986856698989868 0.214391365647315979 0.132967203855514526
0.0104447109624743462 0.119094856083393097 0.105422921478748322
0.542195141315460205 -0.30937570333480835 -0.0457956232130527496
0.0139942755922675133 -0.261998832225799561 0.0397170111536979675
-0.00318723637610673904 -0.236787408590316772 0.0944569855928421021
0.000573169963899999857 -0.219824522733688354 0.0817262753844261169
0.4651450514793396 -0.361108303070068359 0.030710950493812561
-0.269114524126052856 -0.138348117470741272 0.17760215699672699
-0.344833612442016602 -0.0662414431571960449 0.141377538442611694
0.123833842575550079 -0.276880025863647461 0.129226163029670715
-0.133527740836143494 0.0784679204225540161 0.0904953405261039734
0.463706016540527344 -0.0546290725469589233 0.0180639307945966721
-0.0137679344043135643 -0.217141792178153992 0.0805607438087463379
-0.554517745971679688 0.391221553087234497 0.147770971059799194
0.496808230876922607 -0.366983741521835327 0.00564299337565898895
-0.610485196113586426 0.293657273054122925 0.186572477221488953
0.530165314674377441 -0.275446832180023193 -0.317290067672729492
0.370638430118560791 -0.26479029655456543 0.181910291314125061
0.420595496892929077 -0.344656944274902344 0.151230126619338989
0.25229179859161377 0.0389426127076148987 -0.0662522017955780029
0.54958498477935791 -0.150165557861328125 0.12468014657497406
-0.570299744606018066 0.283679753541946411 -0.00630831718444824219
0.50107496976852417 -0.362837433815002441 -0.000887962058186531067
0.208538651466369629 0.115393280982971191 -0.0100487051531672478
-0.288940578699111938 -0.0859747827053070068 -0.0662417709827423096
0.15956135094165802 -0.0834670588374137878 -0.0358182229101657867
-0.339704751968383789 -0.10580415278673172 0.141412734985351562
0.511184155941009521 -0.281604677438735962 -0.312804669141769409
-0.339036315679550171 -0.0799911245703697205 0.0387568250298500061
-0.369083523750305176 0.280289113521575928 -0.0624375492334365845
0.510019302368164062 -0.341181099414825439 0.0655163004994392395
0.302573084831237793 -0.206122070550918579 0.248246192932128906
0.542934775352478027 -0.312262356281280518 -0.0603456869721412659
0.141853675246238708 0.0692011639475822449 0.336656123399734497
-0.59464651346206665 0.267150849103927612 0.0122681418433785439
0.22229437530040741 -0.00735077448189258575 0.295899182558059692
0.231136947870254517 0.0340607315301895142 0.313101142644882202
0.533650219440460205 -0.319864451885223389 -0.0123909711837768555
-0.389090061187744141 -0.0643420591950416565 0.105888150632381439
-0.447337061166763306 -0.040497608482837677 0.126667901873588562
0.496113687753677368 -0.091588243842124939 0.154908224940299988
0.251156449317932129 0.0628460869193077087 0.31699824333190918
-0.291060209274291992 -0.0930923298001289368 0.30781903862953186
-0.366315573453903198 -0.115108378231525421 0.104181066155433655
-0.563203692436218262 0.126931756734848022 -0.0783219784498214722
-0.501276612281799316 0.0231019444763660431 0.186804682016372681
0.518237650394439697 -0.297626912593841553 -0.313648402690887451
0.472724616527557373 -0.328514397144317627 -0.29950869083404541
-0.574043631553649902 0.26849028468132019 0.36279606819152832
-0.570949912071228027 0.354517668485641479 0.167111098766326904
-0.191437944769859314 0.304283559322357178 0.101484954357147217
-0.661856770515441895 0.239435836672782898 0.0417570061981678009
-0.504660964012145996 0.144020423293113708 0.353454381227493286
0.50725245475769043 -0.347446024417877197 -0.317947268486022949
-0.200267136096954346 0.304612666368484497 0.102140471339225769
0.47528347373008728 -0.357895940542221069 0.0050744917243719101
0.509905636310577393 -0.330998778343200684 0.0667953118681907654
-0.610497593879699707 0.367222011089324951 0.0878611728549003601
-0.562274396419525146 0.287909150123596191 -0.0558318905532360077
0.220224529504776001 0.0100044729188084602 0.309425950050354004
0.240778326988220215 0.00484152371063828468 0.321898132562637329
-0.359334409236907959 -0.0572385676205158234 -0.137728661298751831
0.399480849504470825 -0.253022164106369019 0.322264283895492554
0.399783194065093994 -0.263394206762313843 0.325012773275375366
0.224326953291893005 -0.324402421712875366 0.320913016796112061
0.411260485649108887 -0.268135368824005127 0.325435101985931396
-0.508911192417144775 0.0490683577954769135 0.195396006107330322
-0.631008446216583252 0.156164586544036865 -0.052521049976348877
-0.501631438732147217 0.146584689617156982 0.345427483320236206
0.521048069000244141 -0.351010322570800781 -0.322694331407546997
0.495450794696807861 -0.348626285791397095 0.000593676522839814425
-0.197599098086357117 0.0157921928912401199 -0.0497504882514476776
-0.557519793510437012 0.341394007205963135 -0.0056267869658768177
0.488670706748962402 -0.360754787921905518 0.0414080433547496796
0.449318885803222656 -0.074545733630657196 0.00238105328753590584
-0.556045949459075928 0.384831428527832031 0.157891139388084412
0.374805927276611328 -0.0815044417977333069 -0.119509682059288025
-0.389420062303543091 0.319149374961853027 0.168911352753639221
-0.38437923789024353 0.327712535858154297 0.197602227330207825
-0.363882482051849365 0.237561732530593872 -0.0833281725645065308
-0.407030999660491943 0.199075564742088318 0.0410446599125862122
-0.6442374587059021 0.286482721567153931 0.0937108471989631653
0.408766835927963257 -0.347529470920562744 0.136750891804695129
0.222615554928779602 0.0825539678335189819 -0.0331755280494689941
0.498691201210021973 -0.161594301462173462 0.124210700392723083
0.500445306301116943 -0.0931992232799530029 0.135144561529159546
0.21564154326915741 0.00156197731848806143 0.29975554347038269
-0.352911293506622314 -0.0685341209173202515 -0.00894206762313842773
-0.385124891996383667 0.265546947717666626 -0.0715265721082687378
0.50658714771270752 -0.347401618957519531 0.0552682168781757355
-0.356754779815673828 -0.0567012764513492584 -0.145318955183029175
0.132485538721084595 0.0722590908408164978 0.32237890362739563
-0.0992968827486038208 -0.265904009342193604 0.00624940358102321625
0.242687135934829712 0.0229777749627828598 0.322208136320114136
-0.480166882276535034 -0.0121575295925140381 0.185397997498512268
0.242719486355781555 0.0479590632021427155 0.317393273115158081
-0.277886241674423218 0.332237184047698975 0.0407960973680019379
0.370019525289535522 -0.0312175620347261429 -0.0395575910806655884
0.52026444673538208 -0.348322123289108276 -0.0359774753451347351
0.293539166450500488 -0.0123079381883144379 0.0373701043426990509
-0.643924415111541748 0.284401059150695801 0.0925588533282279968
0.0360303819179534912 0.136316999793052673 0.0853499844670295715
-0.397215962409973145 -0.0580506138503551483 0.125982433557510376
-0.441191881895065308 -0.0386516526341438293 0.131411001086235046
0.523931920528411865 -0.317915230989456177 -0.0651112794876098633
0.422609269618988037 -0.280325323343276978 0.331499099731445312
0.509750068187713623 -0.345297455787658691 0.0574363134801387787
0.404035955667495728 -0.259199261665344238 0.323910564184188843
-0.480071753263473511 0.0175982378423213959 0.176790356636047363
0.235762432217597961 0.0681370869278907776 0.314788550138473511
-0.479231804609298706 -0.00880649499595165253 0.167435035109519958
0.239385545253753662 0.0671469643712043762 0.315192639827728271
0.388330578804016113 0.0255898237228393555 0.106368251144886017
0.219852849841117859 -0.316402971744537354 0.310571163892745972
0.383152574300765991 0.0424911938607692719 0.0694123581051826477
0.462809503078460693 0.0103294942528009415 0.175435885787010193
0.399662762880325317 -0.258991092443466187 0.327482283115386963
-0.499387949705123901 0.0206808745861053467 0.181007727980613708
-0.57323688268661499 0.265764504671096802 0.360019028186798096
-0.664322257041931152 0.229500770568847656 0.0219065006822347641
-0.148962423205375671 0.274886667728424072 0.079208768904209137
0.522087514400482178 -0.335433363914489746 -0.322304338216781616
-0.220087125897407532 0.315165579319000244 0.0968540385365486145
0.499980747699737549 -0.346888244152069092 0.0673257783055305481
-0.189431697130203247 0.302263140678405762 0.114881791174411774
0.313858509063720703 -0.130530908703804016 0.300990015268325806
0.225361257791519165 -0.035632748156785965 0.305395990610122681
0.057694602757692337 -0.33114778995513916 0.291482061147689819
0.435395479202270508 -0.280361443758010864 0.333014905452728271
0.40913623571395874 -0.286156952381134033 0.331172317266464233
0.38585817813873291 -0.266188442707061768 0.319052010774612427
0.397552490234375 -0.385029703378677368 -0.225408092141151428
-0.161940902471542358 0.277903378009796143 0.128739118576049805
0.38079497218132019 0.0435142591595649719 0.0773526430130004883
0.390980809926986694 -0.256147474050521851 0.319064497947692871
-0.500106692314147949 0.0239625182002782822 0.185844302177429199
0.499653518199920654 -0.32630842924118042 -0.312926173210144043
0.380739986896514893 -0.376317709684371948 -0.216019228100776672
0.521154463291168213 -0.349656760692596436 -0.324710309505462646
0.520714342594146729 -0.348795562982559204 -0.321648776531219482
0.513338148593902588 -0.320040464401245117 -0.318264961242675781
0.255205214023590088 -0.222734510898590088 0.0577251873910427094
0.186226055026054382 -0.142677173018455505 -0.105383716523647308
0.507868289947509766 -0.32058987021446228 0.0294947661459445953
-0.469259113073348999 -0.012411811389029026 0.181094944477081299
0.496246457099914551 -0.349345415830612183 -0.309601753950119019
0.521493971347808838 -0.327917128801345825 -0.321774840354919434
0.476062983274459839 -0.320623070001602173 -0.302871167659759521
-0.340903103351593018 0.229342713952064514 -0.0442250333726406097
0.20193229615688324 0.132381439208984375 0.112456634640693665
-0.17230910062789917 0.0217610746622085571 0.025712139904499054
0.265816390514373779 -0.166187092661857605 0.006288100965321064
0.544743597507476807 -0.328686803579330444 -0.0476049631834030151
-0.456107079982757568 -0.0535945668816566467 0.162210151553153992
0.469762355089187622 -0.356435447931289673 -0.306937992572784424
0.478498876094818115 -0.270181179046630859 -0.30133432149887085
0.467376530170440674 -0.362243175506591797 -0.308028995990753174
-0.319898009300231934 0.266131997108459473 0.0115804560482501984
0.0334229059517383575 0.0981407240033149719 0.128670528531074524
-0.284350305795669556 -0.100537531077861786 -0.0872631371021270752
-0.61654508113861084 0.216561570763587952 -0.104737617075443268
0.244593247771263123 0.104070670902729034 -0.0294739175587892532
0.466331392526626587 -0.2354869544506073 -0.228289976716041565
-0.293604999780654907 -0.0889937356114387512 -0.0958182588219642639
0.249332666397094727 -0.276276201009750366 0.322713017463684082
0.222239986062049866 0.0664531365036964417 -0.0276445318013429642
-0.250613808631896973 -0.130655854940414429 -0.0554128699004650116
-0.211310252547264099 0.301501184701919556 0.148771435022354126
0.339983701705932617 -0.140973493456840515 0.318546921014785767
0.529740095138549805 -0.356938958168029785 0.0699025541543960571
-0.599621176719665527 0.356184989213943481 0.0604457929730415344
-0.346065342426300049 -0.0562270879745483398 -0.14355333149433136
-0.432506740093231201 0.157069787383079529 -0.0845458880066871643
0.526631295680999756 -0.332066506147384644 0.020620148628950119
0.528199374675750732 -0.288324624300003052 -0.0699004009366035461
-0.49862334132194519 0.142207756638526917 -0.25379788875579834
0.146727681159973145 0.156322658061981201 0.0590207092463970184
0.253452003002166748 -0.00807051919400691986 0.327878475189208984
0.350121766328811646 -0.14755721390247345 0.320785820484161377
0.442360490560531616 -0.322843760251998901 -0.22913108766078949
-0.223833620548248291 -0.14045889675617218 -0.0537223890423774719
0.522570133209228516 -0.350574344396591187 0.0971699953079223633
-0.645823359489440918 0.253053903579711914 0.0239388700574636459
0.393346309661865234 -0.280457437038421631 0.322501003742218018
-0.47443854808807373 -0.0103510748594999313 0.164881616830825806
0.22461526095867157 -0.325404375791549683 0.319169968366622925
-0.36340668797492981 -0.121666409075260162 0.130411058664321899
-0.238285496830940247 -0.141088992357254028 -0.0538564100861549377
-0.11368214339017868 -0.00957801751792430878 -0.0165359191596508026
0.389574170112609863 -0.278728365898132324 0.320831298828125
-0.506753385066986084 0.0107883531600236893 0.201962649822235107
0.462680697441101074 -0.297220945358276367 -0.294059127569198608
0.351464539766311646 -0.148515060544013977 0.321642309427261353
0.457945585250854492 -0.304018199443817139 -0.228589192032814026
0.0247562099248170853 -0.144125506281852722 -0.0200091563165187836
0.369140028953552246 -0.328111529350280762 0.31895408034324646
0.391799449920654297 -0.281880438327789307 0.317093908786773682
0.128803804516792297 -0.319505870342254639 -0.0969373956322669983
-0.134224638342857361 0.277980834245681763 0.117613770067691803
-0.333041906356811523 0.0940342247486114502 -0.102271735668182373
0.374179273843765259 -0.376180440187454224 -0.214574307203292847
0.519932270050048828 -0.346045047044754028 -0.322325676679611206
0.523497104644775391 -0.358310043811798096 -0.326188892126083374
-0.0680553168058395386 -0.255187094211578369 0.0989898368716239929
0.325930565595626831 -0.131218641996383667 0.314964562654495239
0.42444908618927002 -0.260123342275619507 0.328518867492675781
-0.479685574769973755 0.0314214974641799927 0.196721479296684265
0.526672542095184326 -0.299911290407180786 -0.321775138378143311
0.538101315498352051 -0.292764723300933838 -0.324188083410263062
0.377972990274429321 -0.374418318271636963 -0.213282853364944458
0.371481508016586304 -0.357358753681182861 -0.213286742568016052
0.524118781089782715 -0.351909071207046509 -0.324569016695022583
0.525425195693969727 -0.363685756921768188 -0.322660744190216064
0.515594542026519775 -0.327457129955291748 -0.319639980792999268
0.479561954736709595 -0.352596104145050049 -0.311779886484146118
0.478528708219528198 -0.365864694118499756 -0.31249845027923584
-0.361552417278289795 0.309935182332992554 0.239798218011856079
-0.320573747158050537 0.103636302053928375 0.0223342422395944595
-0.447373867034912109 0.203805014491081238 -0.0402578860521316528
-0.377467095851898193 0.278859555721282959 -0.00719502987340092659
-0.0222902316600084305 -0.261091887950897217 0.143959954380989075
-0.591726243495941162 0.361053258180618286 0.0642414987087249756
0.367683112621307373 -0.373746216297149658 -0.212078899145126343
-0.123824700713157654 -0.011031588539481163 0.00814924202859401703
0.396738708019256592 -0.353636473417282104 -0.21788729727268219
0.507445573806762695 -0.159853652119636536 0.125597655773162842
0.195664897561073303 0.124405711889266968 0.00674486393108963966
-0.0266599711030721664 0.166444793343544006 0.383153647184371948
-0.333884894847869873 -0.121503591537475586 0.100421540439128876
-0.324990004301071167 0.302445560693740845 -0.0366008207201957703
0.534169673919677734 -0.347100406885147095 0.0381965115666389465
0.525422751903533936 -0.332131654024124146 0.034874260425567627
-0.595554828643798828 0.381701678037643433 0.113410502672195435
-0.0108456742018461227 -0.144554510712623596 -0.0266489870846271515
-0.235021501779556274 0.171610072255134583 -0.00149076932575553656
-0.485329270362854004 -0.0110383452847599983 0.177298590540885925
-0.277807474136352539 0.335648804903030396 0.0423447266221046448
0.513528823852539062 -0.349360436201095581 0.097433626651763916
-0.448441445827484131 -0.0361824408173561096 0.117510885000228882
0.434523344039916992 -0.253572285175323486 0.332122981548309326
0.415021717548370361 -0.278679937124252319 0.32758215069770813
-0.468723535537719727 0.0340330936014652252 0.19366060197353363
0.502359271049499512 -0.339850276708602905 0.0083341328427195549
-0.481290936470031738 -0.00320484465919435024 0.17762911319732666
-0.37729230523109436 -0.107096388936042786 0.0930112004280090332
-0.500855803489685059 0.021815156564116478 0.18440563976764679
0.36080440878868103 -0.287178486585617065 -0.141404643654823303
0.00182274961844086647 -0.231689438223838806 0.0902453362941741943
-0.140008270740509033 0.264688163995742798 0.0885973572731018066
-0.129320621490478516 0.254013091325759888 0.071600690484046936
0.312783032655715942 -0.293542623519897461 -0.130786091089248657
0.428360670804977417 -0.255811333656311035 0.330620259046554565
-0.615196764469146729 0.306241691112518311 0.392293363809585571
0.410887449979782104 -0.358223587274551392 -0.22595660388469696
0.505193769931793213 -0.346767723560333252 -0.319420188665390015
0.507888078689575195 -0.352804392576217651 -0.322130292654037476
0.523657441139221191 -0.298771411180496216 -0.318195372819900513
0.509847164154052734 -0.347115308046340942 -0.319746136665344238
0.270239859819412231 -0.169675305485725403 -0.0791587308049201965
0.134025558829307556 0.119992956519126892 0.329387784004211426
0.252060085535049438 -0.285300463438034058 0.328452229499816895
0.32468530535697937 -0.120513178408145905 0.311002433300018311
0.302657127380371094 -0.204693451523780823 0.251513063907623291
0.250335901975631714 -0.00408424623310565948 0.325432837009429932
0.507383644580841064 -0.343395888805389404 0.0879748836159706116
0.241989701986312866 0.0895660221576690674 0.31035304069519043
0.462991893291473389 -0.284328818321228027 -0.23070092499256134
-0.261958777904510498 0.313536733388900757 0.045986078679561615
0.344319552183151245 -0.14026978611946106 0.329808950424194336
0.374026209115982056 -0.364106297492980957 -0.208279743790626526
0.337869942188262939 -0.129539161920547485 0.321053385734558105
0.52657783031463623 -0.347460061311721802 -0.323570132255554199
0.524345338344573975 -0.352315723896026611 -0.326125353574752808
0.480167478322982788 -0.372575640678405762 -0.312589913606643677
-0.359839111566543579 -0.0654125586152076721 0.0830200240015983582
-0.407298564910888672 0.0881932154297828674 -0.113016091287136078
0.0144079644232988358 0.097788490355014801 0.217397987842559814
-0.378372490406036377 -0.0935970321297645569 -0.0281989965587854385
0.265722543001174927 0.0681147053837776184 -0.091381557285785675
-0.107991494238376617 -0.0155006526038050652 0.0462339632213115692
-0.35793730616569519 -0.0924302786588668823 0.0130614256486296654
-0.290120989084243774 0.304349571466445923 0.166707694530487061
-0.355372726917266846 -0.0739759430289268494 0.0407681651413440704
-0.598387658596038818 0.294175028800964355 0.186622083187103271
0.249659940600395203 0.0964712873101234436 -0.0338708944618701935
0.37930750846862793 -0.355160951614379883 -0.208949029445648193
0.469889909029006958 -0.324989408254623413 0.138394266366958618
0.464598149061203003 -0.272089540958404541 -0.0925250574946403503
-0.4394875168800354 -0.043501485139131546 0.0843427553772926331
-0.336153656244277954 -0.125176146626472473 0.127717882394790649
0.52840125560760498 -0.342175513505935669 0.051431853324174881
0.392917215824127197 0.0468273162841796875 0.134060516953468323
-0.185666412115097046 0.313668817281723022 0.107996784150600433
-0.441441625356674194 -0.0433970503509044647 0.11790861189365387
0.537425518035888672 -0.32645028829574585 -0.0552258789539337158
-0.352800875902175903 0.305924832820892334 0.114300161600112915
0.49423488974571228 -0.346361249685287476 0.0445174425840377808
-0.575359702110290527 0.304764091968536377 0.379433274269104004
0.431104600429534912 -0.281268924474716187 0.33407101035118103
-0.477471411228179932 0.00356640806421637535 0.16422213613986969
0.525042891502380371 -0.350132495164871216 -0.00215457798913121223
-0.0670787245035171509 -0.263208508491516113 0.298584103584289551
-0.511774241924285889 0.00413354393094778061 0.188144847750663757
0.39004787802696228 -0.360585033893585205 -0.215243607759475708
-0.118227832019329071 0.253990858793258667 0.063833974301815033
-0.500285804271697998 0.00454395776614546776 0.193334758281707764
0.426589757204055786 -0.274771422147750854 0.331004351377487183
-0.333386451005935669 0.103677615523338318 -0.118351593613624573
-0.105584636330604553 0.253858447074890137 0.0938464626669883728
0.510766744613647461 -0.342008858919143677 -0.31922227144241333
-0.612658381462097168 0.302204817533493042 0.396316766738891602
-0.508846700191497803 0.0361283309757709503 0.188668966293334961
-0.290930449962615967 -0.0895825326442718506 -0.0784813687205314636
0.509622275829315186 -0.345287919044494629 -0.320648550987243652
0.0721125826239585876 0.138975277543067932 0.0728254914283752441
0.24583868682384491 0.106882564723491669 0.321802347898483276
0.473264068365097046 -0.287092089653015137 -0.230230972170829773
0.305433571338653564 -0.31499636173248291 0.332043230533599854
0.511835694313049316 -0.350355952978134155 -0.321675658226013184
-0.315221607685089111 -0.0874206870794296265 -0.0341459140181541443
0.514446675777435303 -0.356060922145843506 -0.322643786668777466
-0.625070869922637939 0.179966732859611511 -0.0860908627510070801
-0.353418737649917603 -0.0563267990946769714 -0.143855467438697815
-0.331027477979660034 0.2690715491771698 -0.054944794625043869
-0.177040114998817444 0.138510599732398987 0.00520686432719230652
0.545471787452697754 -0.217756569385528564 0.159608528017997742
0.0308713819831609726 0.102189302444458008 0.0656538903713226318
0.509893894195556641 -0.331223785877227783 -0.319018661975860596
0.585891604423522949 -0.325523436069488525 -0.319618403911590576
0.249929234385490417 -0.288614571094512939 0.318672090768814087
0.255804508924484253 -0.00338988052681088448 0.328374534845352173
0.301736444234848022 -0.282874733209609985 0.331569194793701172
-0.344048053026199341 -0.0912339389324188232 0.0180914755910634995
-0.374245703220367432 -0.0904316231608390808 -0.0181572958827018738
-0.0651261955499649048 -0.273823410272598267 0.159536302089691162
-0.63032299280166626 0.275288581848144531 0.0759973376989364624
0.366770535707473755 -0.365930140018463135 -0.211855232715606689
-0.124161578714847565 -0.0295581351965665817 -0.00641828356310725212
-0.598414719104766846 0.341953814029693604 0.0905849486589431763
0.444059580564498901 -0.249773100018501282 -0.285859078168869019
0.382813364267349243 -0.348410278558731079 -0.211713790893554688
0.312581360340118408 -0.373031914234161377 -0.155753672122955322
-0.179298937320709229 0.31231042742729187 0.100189916789531708
0.535190939903259277 -0.319633692502975464 -0.0320331305265426636
-0.655022084712982178 0.238014623522758484 0.0141155337914824486
-0.452900618314743042 -0.0543214716017246246 0.163358286023139954
0.50004202127456665 -0.348911941051483154 0.0717379152774810791
0.440637677907943726 -0.261218100786209106 0.334688901901245117
0.50732046365737915 -0.344136148691177368 0.0302858706563711166
0.264742732048034668 0.121252335608005524 0.0275228302925825119
0.400019258260726929 0.032231796532869339 0.140227928757667542
-0.106197461485862732 0.252257555723190308 0.0728785321116447449
0.316832482814788818 -0.381057560443878174 -0.156630933284759521
-0.566482007503509521 0.29515308141708374 -0.051363680511713028
0.39050525426864624 -0.36310085654258728 -0.220625147223472595
0.359212994575500488 0.0331324152648448944 0.0490112900733947754
0.194802850484848022 -0.365796327590942383 -0.0955253392457962036
0.391381740570068359 -0.356027603149414062 -0.216748848557472229
0.519760370254516602 -0.335524976253509521 -0.322167634963989258
0.522962570190429688 -0.333710253238677979 -0.323608428239822388
0.244528189301490784 0.0238171368837356567 0.324296474456787109
0.212676316499710083 -0.338893383741378784 0.318829983472824097
0.237335532903671265 0.105736196041107178 0.315372884273529053
0.52171933650970459 -0.337434321641921997 -0.325258344411849976
0.318331241607666016 -0.380168318748474121 -0.150784507393836975
0.584219932556152344 -0.318404853343963623 -0.333834022283554077
-0.380858540534973145 -0.0938699916005134583 -0.0176651496440172195
0.458391338586807251 -0.32582131028175354 0.125409156084060669
0.389092326164245605 0.0532491281628608704 0.13205091655254364
-0.173531040549278259 0.306915909051895142 0.106073014438152313
-0.462045192718505859 -0.0305130500346422195 0.134593978524208069
0.439775943756103516 -0.261802077293395996 0.335466623306274414
0.400435596704483032 0.0244267787784337997 0.128361374139785767
0.427459895610809326 -0.263946264982223511 0.33239448070526123
-0.50963127613067627 0.00385662657208740711 0.190935537219047546
-0.13084903359413147 0.25322490930557251 0.0817741081118583679
-0.283742040395736694 0.335362881422042847 0.0344153232872486115
0.455453723669052124 -0.259827733039855957 0.336995929479598999
-0.330613106489181519 0.0973472669720649719 -0.117550559341907501
-0.508348286151885986 0.0356419384479522705 0.188626259565353394
0.258309155702590942 0.00718953972682356834 0.327868610620498657
0.446030795574188232 -0.256344050168991089 0.33417975902557373
0.236476868391036987 0.108742900192737579 0.309144824743270874
0.302648216485977173 -0.329484820365905762 0.334679961204528809
-0.320304125547409058 0.26648557186126709 -0.0468296557664871216
-0.133204728364944458 -0.268993347883224487 -0.00474141910672187805
-0.376953750848770142 -0.0759258121252059937 0.0239964332431554794
-0.37557828426361084 -0.0640278011560440063 -0.159924507141113281
-0.494694352149963379 -0.0231823548674583435 0.173885390162467957
-0.527667701244354248 -0.00729430839419364929 0.18672296404838562
0.382237792015075684 -0.366894245147705078 -0.218814820051193237
0.389329254627227783 -0.330447405576705933 0.186904236674308777
-0.577794492244720459 0.291435033082962036 -0.0408481843769550323
0.241880923509597778 0.0880558043718338013 -0.0390912294387817383
0.374711424112319946 -0.351763248443603516 -0.209397673606872559
0.187483221292495728 0.107542231678962708 0.00216806097887456417
-0.341568678617477417 0.272576123476028442 -0.0517700985074043274
0.53252798318862915 -0.354051351547241211 0.0538078956305980682
-0.113537326455116272 0.184971272945404053 0.354711323976516724
-0.215582802891731262 0.312999308109283447 0.112203627824783325
0.470528542995452881 -0.305351734161376953 -0.235312744975090027
0.536501288414001465 -0.321230441331863403 -0.0258146785199642181
-0.266123771667480469 0.309584885835647583 0.0454986095428466797
0.279086530208587646 0.00804374739527702332 -0.026900092139840126
0.384626269340515137 -0.362476736307144165 -0.216530665755271912
0.0281951520591974258 -0.0959041118621826172 0.019051428884267807
-0.416693270206451416 -0.0581004582345485687 0.133212894201278687
0.385329276323318481 -0.287892639636993408 -0.109201408922672272
0.382323414087295532 -0.363536030054092407 -0.21911504864692688
0.200012460350990295 -0.366700887680053711 -0.0957529619336128235
0.387783229351043701 -0.354428857564926147 -0.216166958212852478
0.511776626110076904 -0.337191402912139893 -0.319447636604309082
0.513085424900054932 -0.336954206228256226 -0.321629881858825684
0.233379974961280823 0.0339262634515762329 0.319141119718551636
0.242143243551254272 0.0887041687965393066 0.31022152304649353
0.362796306610107422 -0.283193588256835938 0.316504687070846558
0.530524730682373047 -0.346793860197067261 -0.329679012298583984
0.200870245695114136 -0.190789029002189636 -0.0714485868811607361
-0.192702591419219971 0.133161261677742004 0.00906162243336439133
0.321304142475128174 -0.37473711371421814 -0.158193439245223999
0.204744920134544373 -0.325894832611083984 0.316052466630935669
0.322993665933609009 -0.277830749750137329 0.317566037178039551
-0.499202638864517212 0.0157937649637460709 0.183786630630493164
0.347618520259857178 -0.273330897092819214 -0.131821334362030029
0.245087429881095886 0.0210967455059289932 0.322048932313919067
0.195708543062210083 -0.167728200554847717 -0.06741362065076828
0.0378874465823173523 0.131239533424377441 0.105752833187580109
-0.454851746559143066 -0.0512240827083587646 0.154939636588096619
-0.140136837959289551 0.268918007612228394 0.0800913348793983459
0.540045082569122314 -0.226497724652290344 0.173258259892463684
0.236584633588790894 0.104113213717937469 0.309738188982009888
-0.452378839254379272 -0.0279412232339382172 0.124154314398765564
-0.509199678897857666 0.000926623528357595205 0.173403233289718628
0.236512422561645508 0.0833311006426811218 0.310987472534179688
-0.487788140773773193 -0.0233996082097291946 0.177787750959396362
-0.520140230655670166 -0.00224542990326881409 0.18687024712562561
-0.0834068655967712402 0.0733911693096160889 0.0422489158809185028
0.368103682994842529 -0.0232309568673372269 -0.0816861763596534729
-0.231730952858924866 0.046673990786075592 -0.0684149563312530518
0.495138585567474365 -0.341489076614379883 -0.449416279792785645
-0.627877295017242432 0.291582345962524414 0.175547420978546143
-0.111265175044536591 0.153108254075050354 0.0494950450956821442
0.522846519947052002 -0.345149457454681396 -0.0205132085829973221
-0.583121776580810547 0.374036967754364014 0.185100510716438293
-0.185730203986167908 0.312778204679489136 0.131882280111312866
0.0274503696709871292 -0.125561133027076721 -0.0344268046319484711
0.320373892784118652 0.0746078714728355408 -0.106980331242084503
-0.0372565276920795441 0.156408265233039856 0.385573923587799072
0.476573467254638672 -0.308395475149154663 -0.22679583728313446
0.496242523193359375 -0.291400432586669922 -0.167363226413726807
0.449747651815414429 -0.255446016788482666 0.33331066370010376
0.506904125213623047 -0.359475016593933105 0.0422928966581821442
0.425504386425018311 -0.285884767770767212 0.330054551362991333
0.504021584987640381 -0.347835898399353027 0.0202046502381563187
0.400454193353652954 -0.344978779554367065 -0.215425789356231689
-0.489976197481155396 0.0467394664883613586 -0.0939762741327285767
-0.127924740314483643 0.260632187128067017 0.0789359137415885925
0.326582580804824829 -0.372998088598251343 -0.154656782746315002
0.319819450378417969 -0.293539285659790039 -0.131929367780685425
0.433738529682159424 -0.296267688274383545 0.333517074584960938
0.409798979759216309 -0.356485903263092041 -0.22549140453338623
0.223822236061096191 -0.336761146783828735 0.318138420581817627
0.240484908223152161 0.0879174470901489258 0.309499651193618774
0.368927031755447388 -0.322260826826095581 0.320497006177902222
0.521334052085876465 -0.358772546052932739 -0.32544630765914917
-0.259986340999603271 -0.146108686923980713 -0.0597052872180938721
0.527261078357696533 -0.340310394763946533 0.0355483368039131165
-0.243486791849136353 0.073930792510509491 0.00755947362631559372
0.198034688830375671 -0.336413562297821045 0.316274464130401611
0.467203199863433838 -0.274938255548477173 0.339324116706848145
-0.502806544303894043 0.00368396705016493797 0.18768388032913208
0.452783524990081787 -0.279776632785797119 0.333129733800888062
-0.455968499183654785 -0.0536424443125724792 0.162438690662384033
-0.5027618408203125 0.00297982664778828621 0.188673734664916992
-0.640532135963439941 0.297484904527664185 0.419338047504425049
0.541022896766662598 -0.216260522603988647 0.154000312089920044
-0.499001860618591309 0.00187466270290315151 0.188059970736503601
0.160508483648300171 -0.2733021080493927 -0.0721010267734527588
-0.338123947381973267 0.283799558877944946 0.126739293336868286
0.200001850724220276 -0.232141077518463135 -0.00391077017411589622
-0.348874539136886597 -0.0813177749514579773 -0.0461082197725772858
-0.349402308464050293 0.290986359119415283 0.202436357736587524
-0.364349722862243652 -0.0986596047878265381 -0.0309440977871417999
0.371545881032943726 -0.375798702239990234 -0.215317651629447937
-0.57643890380859375 0.307976275682449341 -0.0511823184788227081
-0.139198556542396545 -0.0330705270171165466 -0.0186694860458374023
0.386164873838424683 -0.343035727739334106 -0.213982477784156799
-0.584815621376037598 0.37261962890625 0.185076490044593811
-0.180932611227035522 -0.115946590900421143 -0.0527868233621120453
-0.445553481578826904 -0.0467095151543617249 0.0957311689853668213
-0.343097716569900513 -0.118395537137985229 0.102464102208614349
-0.188614413142204285 0.302480727434158325 0.0971127748489379883
0.409009754657745361 -0.356243312358856201 -0.224088490009307861
-0.27942928671836853 0.336575865745544434 0.0429679751396179199
0.474883824586868286 -0.311332136392593384 -0.230196326971054077
0.514799892902374268 -0.354940891265869141 0.0552417077124118805
0.500778794288635254 -0.362425446510314941 0.0770989134907722473
-0.197550669312477112 -0.242530494928359985 -0.0305658280849456787
-0.479103296995162964 -0.00234963302500545979 0.166745215654373169
0.534520566463470459 -0.351092547178268433 0.0664295926690101624
0.389875680208206177 -0.350579977035522461 -0.213340431451797485
0.457983016967773438 -0.302109748125076294 -0.222718983888626099
0.35110706090927124 -0.277209967374801636 -0.102398499846458435
-0.0865906029939651489 -0.142145231366157532 -0.0337262563407421112
0.0180842019617557526 -0.136884555220603943 -0.0235456768423318863
0.205980598926544189 -0.345580786466598511 -0.0869290083646774292
0.457986742258071899 0.0433818846940994263 0.178572192788124084
0.448779702186584473 0.0661577582359313965 0.193497344851493835
0.349613785743713379 -0.344916969537734985 0.321301847696304321
0.206751108169555664 -0.357607990503311157 -0.09268217533826828
-0.385607987642288208 -0.095031440258026123 0.0598713681101799011
0.437176614999771118 -0.281790107488632202 0.334759891033172607
-0.49726065993309021 0.0155536700040102005 0.16958269476890564
0.374570399522781372 -0.303954213857650757 -0.145544782280921936
0.442375063896179199 -0.27800285816192627 0.334128260612487793
-0.447125881910324097 -0.0405344069004058838 0.124862968921661377
-0.502098917961120605 0.0141180688515305519 0.180588960647583008
-0.387594342231750488 -0.0787292346358299255 -0.170007213950157166
-0.485032469034194946 -0.0215582214295864105 0.176429927349090576
-0.23276209831237793 0.0241106580942869186 -0.058986123651266098
-0.095630355179309845 0.210416793823242188 0.372328907251358032
0.433461874723434448 -0.257495373487472534 0.331397503614425659
0.381000638008117676 -0.134968221187591553 0.332013428211212158
0.453816682100296021 -0.269595235586166382 0.338580489158630371
-0.355215281248092651 -0.0652774199843406677 -0.00534406863152980804
-0.38398250937461853 0.0149930799379944801 -0.204444140195846558
-0.130320042371749878 -0.0803988203406333923 0.0829334557056427002
-0.582344949245452881 0.327289611101150513 0.0138060674071311951
-0.0124777639284729958 -0.231188207864761353 0.0823490172624588013
-0.453784257173538208 0.125761345028877258 -0.0540262535214424133
0.205426037311553955 -0.219097569584846497 0.0604211650788784027
-0.100212886929512024 -0.135848879814147949 0.119304023683071136
-0.583873152732849121 0.305257797241210938 -0.0476179234683513641
-0.337130457162857056 0.0171077940613031387 0.0194630585610866547
-0.449145019054412842 0.133873745799064636 -0.0534836612641811371
0.174367040395736694 -0.273018896579742432 -0.00319990538991987705
-0.565219700336456299 0.334389090538024902 -0.000938355107791721821
