ply
format ascii 1.0
element vertex 738
property float x
property float y
property float z
end_header
0.0274355653673410416 -0.274362325668334961 -0.0352565087378025055
0.385008811950683594 -0.306055694818496704 0.119024671614170074
-0.583190321922302246 0.366983532905578613 0.131468296051025391
0.240142479538917542 0.00309641845524311066 0.181356668472290039
-0.113617531955242157 0.165667608380317688 0.347584426403045654
0.481942027807235718 -0.368416577577590942 -0.0218829475343227386
0.411948561668395996 -0.321332246065139771 -0.210885822772979736
0.507164180278778076 -0.155404269695281982 0.124274939298629761
0.528570413589477539 -0.334729462862014771 0.0130042769014835358
-0.585142970085144043 0.33652573823928833 0.0338723510503768921
-0.591761946678161621 0.382089972496032715 0.131019577383995056
0.525983333587646484 -0.24450606107711792 -0.310509681701660156
0.474117875099182129 -0.290947258472442627 -0.299321353435516357
-0.598238170146942139 0.353870272636413574 0.169418692588806152
-0.588352978229522705 0.371616840362548828 0.100859262049198151
-0.212996408343315125 -0.129766449332237244 -0.0577123537659645081
0.234130442142486572 -0.29302138090133667 0.315115451812744141
0.237969011068344116 0.0673695206642150879 0.320294022560119629
0.541588187217712402 -0.313886791467666626 -0.0579344034194946289
-0.44577828049659729 -0.0484796799719333649 0.126938343048095703
0.359236329793930054 -0.388576030731201172 -0.208899199962615967
-0.557638883590698242 0.211126118898391724 -0.113864362239837646
0.520529747009277344 -0.279650688171386719 -0.176949784159660339
0.241823375225067139 0.0349958613514900208 0.314770132303237915
0.24264642596244812 0.000572674209251999855 0.023904409259557724
0.380663424730300903 0.0390434786677360535 0.0121783092617988586
0.526461362838745117 -0.230797618627548218 -0.310009360313415527
0.326956391334533691 0.096388012170791626 -0.0356362573802471161
-0.375348359346389771 -0.0604913868010044098 -0.133021831512451172
0.512779295444488525 -0.167405769228935242 0.136163681745529175
-0.575515925884246826 0.322125434875488281 0.0492506511509418488
-0.560024559497833252 0.283610939979553223 0.363938421010971069
0.224280416965484619 0.0320676565170288086 -0.0579560436308383942
-0.575437963008880615 0.214559093117713928 -0.221323519945144653
-0.0448189340531826019 0.156751662492752075 0.0813229009509086609
0.113824896514415741 0.110237188637256622 0.0256502777338027954
0.342510223388671875 -0.247070074081420898 -0.0966796353459358215
-0.285986512899398804 0.30054241418838501 -0.00283564231358468533
0.153052777051925659 -0.00427538063377141953 -0.00336333061568439007
0.0687325373291969299 0.139043301343917847 0.0758367776870727539
-0.270962923765182495 0.280288279056549072 0.00170414650347083807
0.503077864646911621 -0.292702645063400269 -0.159186035394668579
0.136687770485877991 -0.0257145017385482788 0.0133096827194094658
-0.340076208114624023 -0.0320945717394351959 0.0227342098951339722
0.373299360275268555 -0.0917169526219367981 0.0445546694099903107
0.199811562895774841 0.101450495421886444 -0.00155897869262844324
-0.298268675804138184 -0.0251050498336553574 0.0358994454145431519
0.13147348165512085 -0.0177260302007198334 -0.025901254266500473
0.10110800713300705 0.0162162370979785919 0.0914074257016181946
0.175507411360740662 0.119577057659626007 0.0382638499140739441
-0.231417760252952576 -0.0637178719043731689 0.10465162992477417
0.485764354467391968 -0.296882808208465576 -0.303461939096450806
-0.604217767715454102 0.28965461254119873 0.184879690408706665
0.467006087303161621 -0.308700799942016602 0.120297275483608246
0.378223061561584473 -0.0142948897555470467 0.00665742717683315277
0.514095485210418701 -0.295382767915725708 -0.103312171995639801
0.518530726432800293 -0.239896282553672791 -0.307511448860168457
0.477597534656524658 -0.309954792261123657 -0.300220906734466553
0.483080804347991943 -0.274726361036300659 -0.299831151962280273
0.116973809897899628 0.119019553065299988 0.297784984111785889
-0.585211277008056641 0.356474310159683228 0.0655062645673751831
0.383539825677871704 -0.337356388568878174 0.125701561570167542
-0.575507640838623047 0.317749530076980591 -0.0268439128994941711
-0.60551530122756958 0.217117637395858765 -0.0871966704726219177
0.267614066600799561 0.0393616743385791779 -0.0860164463520050049
-0.357500225305557251 -0.0223707724362611771 -0.131288886070251465
-0.565311551094055176 0.314386337995529175 -0.00819378159940242767
0.190265387296676636 -0.34101453423500061 -0.0746747702360153198
0.403859496116638184 -0.357845097780227661 -0.223962143063545227
-0.501257240772247314 0.145681291818618774 0.35447356104850769
0.509466707706451416 -0.15136505663394928 0.115248337388038635
0.496539205312728882 -0.264121830463409424 -0.304312855005264282
0.457672238349914551 -0.281097143888473511 -0.289664357900619507
0.440644174814224243 -0.265170931816101074 -0.283610612154006958
-0.58902817964553833 0.357577413320541382 0.0614176318049430847
0.505090415477752686 -0.126667693257331848 0.1246752068400383
-0.2070121169090271 0.312622278928756714 0.10875236988067627
0.267974704504013062 -0.284035176038742065 0.319318234920501709
0.232429027557373047 0.00373681471683084965 0.318059414625167847
0.51298755407333374 -0.175797462463378906 -0.281629472970962524
-0.115949451923370361 0.00988915469497442245 0.00593879958614706993
0.403590410947799683 -0.35987505316734314 -0.224586755037307739
0.417432069778442383 -0.313264280557632446 0.143970206379890442
-0.556525826454162598 0.376662224531173706 0.186484932899475098
-0.176388382911682129 0.309305965900421143 0.11845022439956665
-0.390761315822601318 0.276009052991867065 -0.0851822793483734131
0.365229576826095581 0.0519884265959262848 0.024882826954126358
0.128960445523262024 0.115921288728713989 0.319015294313430786
-0.287585139274597168 -0.100824251770973206 -0.0921058803796768188
0.25801926851272583 0.10103219747543335 -0.0617818087339401245
-0.362353026866912842 -0.0600551441311836243 -0.144278824329376221
0.133919000625610352 0.113887615501880646 0.33796045184135437
-0.564212679862976074 0.199200913310050964 -0.22929660975933075
-0.277306497097015381 0.288060605525970459 -0.000920581922400742769
0.454602837562561035 -0.246650248765945435 -0.288192093372344971
0.459936916828155518 -0.275625705718994141 -0.290729612112045288
-0.635865688323974609 0.308292686939239502 0.170062720775604248
0.512234926223754883 -0.317523449659347534 -0.03839903324842453
0.468640148639678955 -0.266018301248550415 -0.297858178615570068
0.477840900421142578 -0.295246720314025879 -0.300150126218795776
0.457858800888061523 -0.246433213353157043 -0.289764344692230225
0.380831062793731689 -0.361214041709899902 -0.213772967457771301
-0.480513989925384521 -0.0126058133319020271 0.185674622654914856
-0.517481744289398193 0.365912437438964844 0.17380659282207489
-0.619600772857666016 0.202006161212921143 -0.0874678045511245728
-0.23821219801902771 0.0187010504305362701 -0.0725784525275230408
-0.383635252714157104 -0.0591805204749107361 0.0235840007662773132
0.474641650915145874 -0.368394643068313599 0.0219961628317832947
-0.650280892848968506 0.236810073256492615 0.0319137237966060638
0.412288814783096313 -0.346934527158737183 -0.221552729606628418
0.525837719440460205 -0.337148189544677734 0.0802584066987037659
0.505731344223022461 -0.23920498788356781 -0.307969272136688232
0.24931567907333374 -0.282223522663116455 0.318366020917892456
0.239125087857246399 0.0667983889579772949 0.314840197563171387
0.539297580718994141 -0.301897883415222168 -0.0934965088963508606
-0.448932915925979614 -0.0414783991873264313 0.126369252800941467
-0.0443499311804771423 0.104628957808017731 0.317872077226638794
0.247880175709724426 0.0212362166494131088 0.322398006916046143
-0.285905182361602783 -0.0999601855874061584 -0.0991273671388626099
-0.138530507683753967 -0.0151798371225595474 -0.0487952977418899536
-0.278736740350723267 0.337977617979049683 0.0469468794763088226
-0.255564391613006592 0.289971798658370972 -0.00325510906986892223
-0.219695746898651123 0.322025328874588013 0.0698394104838371277
-0.574318528175354004 0.152204945683479309 -0.0747551620006561279
-0.290837228298187256 0.292773663997650146 0.0160024892538785934
0.525400340557098389 -0.320674091577529907 0.0273736678063869476
0.346031844615936279 -0.0304292906075716019 -0.034220375120639801
0.522016525268554688 -0.362918287515640259 0.089584648609161377
-0.083980269730091095 -0.111893981695175171 0.0785243883728981018
-0.404936254024505615 0.326154351234436035 0.12108118087053299
0.504513084888458252 -0.367123395204544067 -0.00430724350735545158
-0.119342051446437836 0.2662619948387146 0.12101002037525177
0.518492400646209717 -0.342974752187728882 0.036036316305398941
0.129901811480522156 -0.33471950888633728 0.301288187503814697
0.466443955898284912 -0.311062783002853394 0.0726752132177352905
0.482642382383346558 -0.374040305614471436 0.0525148883461952209
0.421063542366027832 -0.0259135346859693527 0.0651383176445960999
0.493910640478134155 -0.363591492176055908 -0.0153549844399094582
-0.233761996030807495 0.287274658679962158 0.084127083420753479
0.53097611665725708 -0.331787794828414917 -0.00703823519870638847
-0.272796273231506348 0.315534770488739014 0.113921187818050385
0.308191239833831787 0.00271064881235361099 0.0465559475123882294
0.467123955488204956 -0.263625055551528931 -0.29592779278755188
0.473653703927993774 -0.3043193519115448 0.114454038441181183
0.510910868644714355 -0.313720643520355225 -0.104216977953910828
0.508875548839569092 -0.245553791522979736 -0.308292001485824585
0.447645694017410278 -0.29273611307144165 -0.292628943920135498
0.466085761785507202 -0.283496946096420288 -0.297143071889877319
0.138157546520233154 0.113006539642810822 0.336902648210525513
-0.65309673547744751 0.285857886075973511 0.097668774425983429
-0.639327049255371094 0.244857743382453918 -0.0385038331151008606
0.136126458644866943 0.0694693624973297119 0.33801618218421936
-0.578115642070770264 0.303849548101425171 -0.0558390207588672638
0.262386023998260498 0.0305420905351638794 -0.0732271149754524231
0.541784167289733887 -0.216656118631362915 0.111803203821182251
-0.361137896776199341 -0.0360219553112983704 -0.134474709630012512
-0.575748860836029053 0.327558606863021851 -0.0298541635274887085
-0.362820982933044434 -0.0711531490087509155 -0.0341204442083835602
-0.13135392963886261 -0.267797291278839111 0.119040817022323608
0.494888335466384888 -0.365880191326141357 -0.000188077741768211126
0.373522758483886719 -0.359612166881561279 -0.209937795996665955
-0.379423201084136963 -0.107071436941623688 0.101174049079418182
-0.0677365586161613464 -0.264161497354507446 0.296439707279205322
0.519552111625671387 -0.243500769138336182 -0.309313327074050903
0.50922781229019165 -0.330592483282089233 0.0154648628085851669
-0.594334959983825684 0.369154781103134155 0.120277315378189087
-0.656412184238433838 0.175644099712371826 -0.103333793580532074
-0.223954543471336365 -0.144415348768234253 -0.0538033470511436462
-0.191987991333007812 0.31680905818939209 0.100716374814510345
0.256424456834793091 -0.283512204885482788 0.31980288028717041
0.239084482192993164 0.0324252992868423462 0.319304138422012329
-0.120851270854473114 -0.0461856089532375336 0.00732190860435366631
-0.642542600631713867 0.308786481618881226 0.101550735533237457
0.364405214786529541 -0.374162852764129639 -0.206858962774276733
0.537575006484985352 -0.217666268348693848 0.162083745002746582
-0.55372774600982666 0.382648974657058716 0.15769350528717041
-0.123131304979324341 0.259471505880355835 0.115142270922660828
0.119224868714809418 0.102613352239131927 0.0896192044019699097
-0.376422017812728882 0.265847921371459961 -0.0897092297673225403
0.516660451889038086 -0.349062919616699219 0.0989566817879676819
-0.294549226760864258 -0.107445545494556427 -0.109420768916606903
0.274952441453933716 0.103092558681964874 -0.0574158839881420135
-0.57616889476776123 0.219473257660865784 -0.212916344404220581
-0.116159819066524506 0.268781006336212158 0.179823413491249084
0.23575843870639801 -0.288003325462341309 0.314478099346160889
0.3100089430809021 -0.187286138534545898 0.241213351488113403
0.541499733924865723 -0.325872600078582764 -0.0207367539405822754
0.0785116255283355713 -0.337838590145111084 0.282214134931564331
-0.00701951514929533005 -0.172013714909553528 0.00430062273517251015
-0.283122807741165161 0.261806219816207886 0.00698058772832155228
0.512810647487640381 -0.237272530794143677 -0.309304773807525635
-0.647907793521881104 0.278389334678649902 0.0792207643389701843
-0.647340238094329834 0.183163821697235107 -0.0911778584122657776
0.513867676258087158 -0.322543680667877197 0.0244792439043521881
-0.407977908849716187 -0.0637613162398338318 0.113358460366725922
0.516558349132537842 -0.355760902166366577 -0.0204505249857902527
-0.567541718482971191 0.374518275260925293 0.152191951870918274
0.235840067267417908 0.043241593986749649 0.313853293657302856
-0.665805160999298096 0.22720000147819519 0.0227916240692138672
-0.449140429496765137 -0.0385782122611999512 0.126878321170806885
0.502708554267883301 -0.302399277687072754 -0.178724765777587891
-0.590083956718444824 0.361200004816055298 0.0857798904180526733
-0.194832742214202881 0.315082669258117676 0.104832455515861511
0.246863842010498047 0.0241415984928607941 0.323991626501083374
0.530641496181488037 -0.323858290910720825 -0.0579068772494792938
-0.183565497398376465 0.307190388441085815 0.128451704978942871
0.247105151414871216 0.00720701087266206741 0.324120640754699707
0.0583391077816486359 0.139878943562507629 0.345817029476165771
-0.506681263446807861 0.149485483765602112 0.356672167778015137
0.270481258630752563 -0.311267435550689697 0.326342463493347168
-0.254660576581954956 0.0234378296881914139 -0.0707994997501373291
0.24080929160118103 -0.295316487550735474 0.322578698396682739
0.248905524611473083 0.0440316572785377502 0.314586848020553589
0.468286573886871338 -0.101871088147163391 0.0348698385059833527
-0.125392884016036987 0.195240110158920288 0.115420103073120117
0.23968680202960968 -0.326653391122817993 0.318019628524780273
0.500012576580047607 -0.366625070571899414 0.0748272761702537537
0.523192524909973145 -0.324744164943695068 0.0263956785202026367
0.444450706243515015 -0.25320473313331604 0.332536906003952026
0.321319162845611572 -0.131504207849502563 -0.106466524302959442
0.0630133002996444702 -0.010631767101585865 0.321750849485397339
0.511051476001739502 -0.360929101705551147 0.0476867146790027618
0.135377436876296997 -0.100701853632926941 0.0406583994626998901
0.0491465330123901367 0.0115938810631632805 0.0298074614256620407
0.0203726794570684433 0.0483023561537265778 0.0426590107381343842
0.0877978503704071045 -0.0659857094287872314 0.289697915315628052
-0.162929505109786987 -0.265888124704360962 0.147911742329597473
0.264866739511489868 -0.0200677253305912018 0.0617459714412689209
-0.0294246822595596313 -0.0289645865559577942 0.29555925726890564
0.501886427402496338 -0.240520685911178589 -0.301885813474655151
0.475632458925247192 -0.31519046425819397 -0.301858961582183838
-0.631846368312835693 0.306440025568008423 0.167049631476402283
0.475282192230224609 -0.320840686559677124 0.121208719909191132
0.508827805519104004 -0.300943732261657715 -0.105373352766036987
0.527900636196136475 -0.275107622146606445 -0.317091971635818481
0.493229120969772339 -0.332659244537353516 -0.310625404119491577
0.503310799598693848 -0.320157378911972046 0.0982035696506500244
0.47388613224029541 -0.306021422147750854 -0.298004955053329468
-0.560260236263275146 0.268252253532409668 0.364266574382781982
0.124818675220012665 0.117050893604755402 0.31431540846824646
-0.63450312614440918 0.282341122627258301 0.0539690516889095306
-0.588271141052246094 0.362962096929550171 0.102117240428924561
0.371242821216583252 -0.374316126108169556 -0.212636962532997131
0.438276410102844238 -0.348032295703887939 0.154519051313400269
0.0578218251466751099 0.121489755809307098 0.321194380521774292
-0.57549673318862915 0.369012147188186646 0.215240731835365295
0.264647036790847778 0.0246556922793388367 -0.0584298223257064819
0.368629813194274902 -0.336864739656448364 0.160791262984275818
0.51026761531829834 -0.301666408777236938 -0.111824654042720795
0.13322681188583374 -0.320900678634643555 -0.0977286919951438904
0.516339957714080811 -0.348883628845214844 -0.0201045777648687363
0.389040887355804443 -0.347027748823165894 -0.21398162841796875
-0.577941477298736572 0.319182276725769043 0.0405059643089771271
0.535711348056793213 -0.278077393770217896 -0.320500373840332031
0.467595666646957397 -0.311161786317825317 -0.299144357442855835
0.506978452205657959 -0.3472098708152771 0.0181224774569272995
-0.556824564933776855 0.309843391180038452 0.10198550671339035
0.193583056330680847 -0.339620113372802734 -0.0590778999030590057
0.0696429610252380371 -0.282536596059799194 -0.0778679996728897095
0.252304971218109131 -0.250349700450897217 0.320276170969009399
0.239879339933395386 0.0310665816068649292 0.317082673311233521
-0.121714144945144653 -0.047985859215259552 0.00817567575722932816
0.178569212555885315 -0.100274421274662018 -0.0146196968853473663
0.532235026359558105 -0.332396596670150757 -0.0129784578457474709
0.370113939046859741 -0.349759072065353394 -0.208764031529426575
0.534820377826690674 -0.245842441916465759 0.17748589813709259
0.560812711715698242 -0.316038846969604492 -0.330859988927841187
0.554396986961364746 -0.211709886789321899 0.134153574705123901
-0.544192194938659668 0.380949705839157104 0.164239645004272461
0.122730173170566559 0.117290742695331573 0.133287504315376282
-0.583153784275054932 0.352073103189468384 0.0975163131952285767
-0.482565879821777344 0.185844376683235168 -0.0917066261172294617
0.515437543392181396 -0.339270621538162231 0.0390311591327190399
0.253304153680801392 -0.279285967350006104 0.322086572647094727
0.278274446725845337 -0.356248706579208374 -0.125943899154663086
0.507631540298461914 -0.286903321743011475 -0.313564658164978027
-0.433125406503677368 -0.0574351176619529724 0.116566844284534454
0.201932892203330994 0.0906140804290771484 0.223554357886314392
0.244262740015983582 0.104585669934749603 -0.0569952875375747681
-0.196359768509864807 0.201629951596260071 0.349280327558517456
0.250449508428573608 0.0250303503125905991 0.323517680168151855
0.23979581892490387 0.0191153157502412796 0.321204483509063721
-0.0318299978971481323 0.162840008735656738 0.382707089185714722
-0.48350149393081665 -0.0158217307180166245 0.180023506283760071
0.483640670776367188 -0.369208782911300659 0.0462704487144947052
-0.64442741870880127 0.287211030721664429 0.0859355330467224121
0.275819778442382812 -0.165997877717018127 -0.0702837705612182617
-0.41278541088104248 -0.0571214407682418823 0.0787950903177261353
-0.643998980522155762 0.175627037882804871 -0.0822584033012390137
-0.226794525980949402 -0.134300544857978821 -0.0522600635886192322
0.254813045263290405 -0.265690147876739502 0.321254134178161621
-0.346291005611419678 0.0170224402099847794 -0.117000222206115723
-0.28806731104850769 -0.0919399634003639221 -0.106568261981010437
-0.58607107400894165 0.209680244326591492 -0.218228757381439209
0.267469167709350586 -0.297161787748336792 0.315328925848007202
-0.0261682067066431046 -0.187609851360321045 -0.0434255450963973999
-0.618989408016204834 0.27696460485458374 0.0311552900820970535
-0.609753906726837158 0.298320621252059937 0.0922304019331932068
-0.398514240980148315 -0.0631106942892074585 0.118784859776496887
-0.452679276466369629 -0.0384098179638385773 0.119359850883483887
0.431026220321655273 -0.271849215030670166 0.329403221607208252
-0.0528782717883586884 0.140812709927558899 0.0918123051524162292
-0.503946840763092041 0.151109829545021057 0.355289340019226074
0.240651980042457581 -0.319473236799240112 0.322919458150863647
0.497016221284866333 -0.371021926403045654 0.0575870536267757416
0.399232238531112671 -0.256969213485717773 0.32267916202545166
-0.159065559506416321 -0.263862431049346924 0.181544438004493713
-0.500153899192810059 0.0138454483821988106 0.157934337854385376
0.417500138282775879 -0.297495335340499878 0.328939557075500488
0.535152733325958252 -0.340390712022781372 -0.0182127822190523148
0.344149559736251831 -0.267701983451843262 -0.127649009227752686
-0.49743691086769104 0.0718518570065498352 0.203836634755134583
0.443565428256988525 -0.272290676832199097 0.333632200956344604
0.521913468837738037 -0.335583209991455078 0.0330341458320617676
0.453160941600799561 -0.3203011155128479 -0.292888015508651733
0.474168449640274048 -0.311850368976593018 0.11695244163274765
0.517010271549224854 -0.278783082962036133 -0.312674015760421753
0.502436459064483643 -0.326339155435562134 -0.314191222190856934
0.518022000789642334 -0.327280163764953613 0.102161265909671783
0.479110062122344971 -0.311823755502700806 -0.30202794075012207
0.114402085542678833 0.118647158145904541 0.289174586534500122
-0.122481979429721832 0.268714100122451782 0.158837780356407166
-0.6157379150390625 0.265440285205841064 0.051861245185136795
-0.480396509170532227 0.00285779056139290333 0.181206226348876953
0.426612198352813721 -0.355230271816253662 0.158795714378356934
-0.293245136737823486 -0.111029841005802155 -0.105844274163246155
0.130365088582038879 0.0655390769243240356 0.321380674839019775
0.253703802824020386 0.0385732054710388184 -0.0775456205010414124
0.235475525259971619 0.0938057899475097656 -0.052823144942522049
0.417543321847915649 -0.261892259120941162 -0.202144891023635864
0.521546363830566406 -0.354882031679153442 -0.0192331727594137192
-0.609788656234741211 0.381183713674545288 0.18098863959312439
0.517360210418701172 -0.279684990644454956 -0.314597755670547485
0.4990062415599823 -0.350222021341323853 0.0243151858448982239
-0.588754236698150635 0.36934170126914978 0.112801574170589447
0.505996644496917725 -0.104770161211490631 0.147580936551094055
-0.198696926236152649 0.311616271734237671 0.112948216497898102
0.263918906450271606 -0.286743640899658203 0.319918453693389893
0.236919179558753967 0.0621910355985164642 0.310749918222427368
-0.145191460847854614 -0.0437356755137443542 0.00423049088567495346
-0.658730626106262207 0.214568749070167542 -0.0464232750236988068
-0.289506405591964722 -0.0763530060648918152 -0.0686673969030380249
0.227203473448753357 0.0420615188777446747 -0.0479073822498321533
0.551513612270355225 -0.144551485776901245 0.132320359349250793
0.519676327705383301 -0.295540481805801392 0.0751457363367080688
0.517417311668395996 -0.284361898899078369 -0.180983811616897583
-0.359019041061401367 -0.0174219235777854919 -0.0280206222087144852
0.091307513415813446 0.0881846100091934204 0.0859660133719444275
0.466531872749328613 -0.362151235342025757 -0.0104366140440106392
-0.433879375457763672 0.157522886991500854 -0.0665962323546409607
0.523685634136199951 -0.335839927196502686 0.0691351518034934998
0.262778192758560181 -0.286112934350967407 0.318641632795333862
0.00889404397457838058 -0.0912384763360023499 -0.0260117761790752411
0.0321188084781169891 -0.13063928484916687 0.0219788551330566406
-0.631653189659118652 0.264945507049560547 0.0288135651499032974
0.242131635546684265 0.0743711516261100769 0.319020122289657593
0.240186810493469238 0.0295911654829978943 0.319095313549041748
-0.175457626581192017 0.300898045301437378 0.116340428590774536
0.304580479860305786 -0.151385784149169922 0.308003664016723633
0.261809617280960083 -0.290916353464126587 0.32112419605255127
-0.477202355861663818 -0.00842001195996999741 0.166081473231315613
0.242770299315452576 0.0818113833665847778 0.312381446361541748
0.520106077194213867 -0.351496607065200806 0.082165054976940155
-0.0354714728891849518 -0.237912818789482117 0.124132588505744934
-0.639242649078369141 0.289995282888412476 0.0985667780041694641
-0.235120490193367004 -0.133279398083686829 -0.0580510981380939484
-0.380268275737762451 -0.109155386686325073 0.105438254773616791
-0.237336531281471252 -0.14831678569316864 -0.057905048131942749
-0.65893930196762085 0.214269235730171204 -0.0341294296085834503
0.528738677501678467 -0.352828085422515869 0.078105732798576355
-0.622094452381134033 0.270220369100570679 0.0522534400224685669
-0.405139744281768799 -0.0646586492657661438 0.111954666674137115
-0.447337239980697632 -0.0417989492416381836 0.121867567300796509
0.267884701490402222 -0.285802572965621948 0.323603719472885132
0.127322003245353699 -0.326872378587722778 0.312618523836135864
0.152005851268768311 -0.343359053134918213 0.317899793386459351
0.447485893964767456 -0.336068123579025269 -0.292868703603744507
0.515569210052490234 -0.303240984678268433 -0.107745282351970673
0.514982819557189941 -0.280656754970550537 -0.312692821025848389
0.484610617160797119 -0.328112691640853882 -0.309669852256774902
0.46409115195274353 -0.346333682537078857 -0.302548855543136597
0.549357473850250244 -0.210573703050613403 -0.315819680690765381
0.523833811283111572 -0.300452440977096558 -0.322358548641204834
0.517703056335449219 -0.301264464855194092 -0.31825217604637146
0.246851131319999695 0.0570814944803714752 0.316613703966140747
0.241339012980461121 0.0875677913427352905 0.312948852777481079
-0.292702019214630127 -0.101024366915225983 -0.101959049701690674
-0.454601645469665527 -0.0522899404168128967 0.116956539452075958
0.404696762561798096 -0.272398263216018677 0.322719365358352661
-0.503422260284423828 0.00354472920298576355 0.18897518515586853
0.400983452796936035 -0.287386029958724976 0.32502824068069458
0.399137258529663086 -0.273695677518844604 0.323512792587280273
0.342146366834640503 -0.259172976016998291 0.090337410569190979
-0.0193472877144813538 -0.244701415300369263 0.128710031509399414
-0.465499043464660645 0.0357730872929096222 0.189421921968460083
-0.195093303918838501 0.221581593155860901 0.17207983136177063
0.366691708564758301 -0.329557806253433228 -0.0233019068837165833
0.323169112205505371 -0.390507429838180542 -0.158744961023330688
0.535232782363891602 -0.32386443018913269 -0.0580088943243026733
-0.442762523889541626 -0.00498319324105978012 0.15258355438709259
-0.0196115579456090927 -0.0596729516983032227 0.141823410987854004
-0.000764872587751597166 -0.236431926488876343 0.106446430087089539
0.52606511116027832 -0.201993614435195923 -0.079778522253036499
0.449553251266479492 -0.308742910623550415 -0.292739927768707275
0.526573538780212402 -0.275810152292251587 -0.315546244382858276
0.499633848667144775 -0.325289130210876465 -0.312559396028518677
0.474966168403625488 -0.30545005202293396 -0.297256886959075928
-0.128054454922676086 0.246655791997909546 0.139025509357452393
-0.649943232536315918 0.28202548623085022 0.0939375385642051697
-0.199658840894699097 0.286733269691467285 0.335895061492919922
0.497993916273117065 -0.0867777466773986816 0.136954233050346375
0.200436756014823914 -0.359567254781723022 -0.0907090902328491211
0.505221784114837646 -0.367917388677597046 -0.0224940497428178787
0.527144551277160645 -0.242789193987846375 0.173192441463470459
-0.586915254592895508 0.37939828634262085 0.170383855700492859
0.44477042555809021 -0.315336555242538452 -0.287616372108459473
0.498558312654495239 -0.111161611974239349 0.112466618418693542
-0.656791210174560547 0.175327584147453308 -0.104030773043632507
-0.202677264809608459 0.308802336454391479 0.0891654118895530701
0.201224744319915771 -0.0136074358597397804 0.295446097850799561
0.159810692071914673 -0.0623455457389354706 -0.0438617914915084839
-0.580488145351409912 0.302324086427688599 0.368458330631256104
0.275060743093490601 0.0983403772115707397 -0.0288421604782342911
-0.436257332563400269 0.155213683843612671 -0.0861231386661529541
0.534268379211425781 -0.333241760730743408 0.0129666943103075027
-0.569792687892913818 0.197116658091545105 -0.229309424757957458
-0.49868735671043396 0.0447289310395717621 -0.0870111212134361267
0.030994785949587822 -0.104213602840900421 0.0331381112337112427
0.533827364444732666 -0.264841347932815552 -0.31618848443031311
0.00942329782992601395 0.197670385241508484 0.0277325324714183807
0.302143216133117676 0.0387893430888652802 -0.0842030644416809082
-0.333124935626983643 -0.0163112934678792953 -0.107758022844791412
0.236452013254165649 0.0144689111039042473 0.322007119655609131
0.124881424009799957 0.012984197586774826 0.299102514982223511
0.527354001998901367 -0.355350881814956665 0.066552184522151947
0.466867983341217041 -0.31018480658531189 -0.232961729168891907
-0.652921676635742188 0.285372316837310791 0.10404137521982193
0.546481728553771973 -0.22005067765712738 0.163758516311645508
0.527865469455718994 -0.32357749342918396 -0.0158199425786733627
-0.383945822715759277 -0.0566569678485393524 0.0761485546827316284
0.456672221422195435 -0.311222463846206665 -0.292438298463821411
0.504701614379882812 -0.340216994285583496 -0.317805707454681396
0.478578716516494751 -0.314698994159698486 -0.299387365579605103
0.520109772682189941 -0.301667630672454834 -0.317216932773590088
-0.00277501856908202171 -0.140268519520759583 -0.0247059892863035202
0.397471576929092407 -0.273253858089447021 0.323687553405761719
0.401142328977584839 -0.271678954362869263 0.323993951082229614
0.50597083568572998 -0.332142382860183716 0.106088228523731232
-0.468491852283477783 0.0423096641898155212 0.170534074306488037
0.409951061010360718 -0.346051275730133057 0.15681786835193634
-0.361752748489379883 -0.0356393307447433472 -0.148181542754173279
-0.128886640071868896 -0.268038153648376465 0.112405747175216675
0.512438595294952393 -0.369249612092971802 -0.0144383125007152557
-0.214314699172973633 0.312604010105133057 0.0976876541972160339
0.250469952821731567 -0.287259429693222046 0.323056966066360474
0.208880320191383362 0.00932913552969694138 -0.0458511076867580414
0.0696230754256248474 -0.151772215962409973 -0.0170825552195310593
-0.170291602611541748 0.304854989051818848 0.118905097246170044
0.470993906259536743 -0.364559918642044067 0.00729133980348706245
-0.291821390390396118 -0.0998144000768661499 -0.103215530514717102
0.0360557883977890015 -0.149946212768554688 -0.0215685032308101654
0.232208564877510071 0.0563032738864421844 0.309431523084640503
0.253278166055679321 -0.288821280002593994 0.320840388536453247
-0.472617238759994507 0.000979998963885009289 0.168549314141273499
0.24103894829750061 0.0627663061022758484 0.313334733247756958
0.508843719959259033 -0.352198570966720581 0.0642058774828910828
0.22727048397064209 -0.31499183177947998 0.314721226692199707
-0.37626338005065918 -0.0934048295021057129 0.0861285626888275146
-0.0632088184356689453 -0.24186629056930542 0.302564024925231934
-0.223455354571342468 -0.128007546067237854 -0.053101763129234314
-0.410760819911956787 -0.0656790956854820251 0.0984451025724411011
-0.445880919694900513 -0.044920068234205246 0.132641270756721497
0.23884950578212738 -0.294213593006134033 0.314607352018356323
0.153686866164207458 -0.324555575847625732 0.320218533277511597
0.425281882286071777 -0.256147861480712891 0.328849703073501587
0.438038855791091919 -0.343300729990005493 -0.292525321245193481
0.506121635437011719 -0.334916561841964722 -0.317948579788208008
0.4448871910572052 -0.352644652128219604 -0.286584377288818359
0.238303393125534058 0.0658305063843727112 0.312613338232040405
0.40321040153503418 -0.287614047527313232 0.326152682304382324
-0.495645374059677124 0.00657791411504149437 0.18826565146446228
0.485861063003540039 -0.06320180743932724 0.13208712637424469
0.0121314432471990585 -0.170994117856025696 0.00998284388333559036
0.531438589096069336 -0.307794809341430664 -0.0619680546224117279
0.314689815044403076 -0.302561044692993164 -0.126603513956069946
0.445748090744018555 -0.291666388511657715 -0.285464704036712646
-0.337563425302505493 0.224685445427894592 0.125705793499946594
-0.40168413519859314 -0.0284101832658052444 -0.00195954833179712296
0.403127759695053101 -0.271821290254592896 0.324377626180648804
-0.133706182241439819 0.195832014083862305 0.167857050895690918
0.399177908897399902 -0.271759063005447388 0.324190109968185425
-0.447357118129730225 -0.025169743224978447 0.0213325228542089462
-0.138387024402618408 0.244928345084190369 0.19179871678352356
-0.613489925861358643 0.294107049703598022 0.183530315756797791
0.1245318204164505 0.116183072328567505 0.316903591156005859
-0.121298268437385559 0.250669151544570923 0.161947071552276611
-0.583985209465026855 0.34821745753288269 0.0579406358301639557
0.426856517791748047 -0.348220527172088623 0.153303623199462891
-0.567450106143951416 0.295046627521514893 -0.0691523328423500061
0.2519569993019104 0.0266931857913732529 -0.079273715615272522
0.247789427638053894 0.100435152649879456 -0.0480365343391895294
-0.358230382204055786 -0.0560030490159988403 -0.141920030117034912
0.198818683624267578 0.120302028954029083 0.0360600091516971588
0.545653343200683594 -0.131489366292953491 0.112327069044113159
-0.582319855690002441 0.32178226113319397 -0.0230278186500072479
0.206255659461021423 0.0247503872960805893 0.177124351263046265
-0.596001565456390381 0.375271975994110107 0.171796038746833801
0.444840013980865479 -0.31929546594619751 0.127652645111083984
0.255086392164230347 -0.278781682252883911 0.316690564155578613
0.235671579837799072 0.0239105168730020523 0.316854804754257202
-0.363645553588867188 -0.0499512143433094025 -0.0238032042980194092
-0.183110311627388 0.118137918412685394 0.0424135029315948486
0.254796683788299561 -0.288225054740905762 0.319502443075180054
0.242116913199424744 0.0332946442067623138 0.322122424840927124
0.400082886219024658 0.0234788563102483749 0.115529865026473999
-0.34125789999961853 -0.0663664340972900391 -0.147359982132911682
0.0755683034658432007 -0.333082884550094604 0.299045860767364502
-0.387471586465835571 -0.0609032958745956421 0.0937777161598205566
-0.448914259672164917 -0.0413935407996177673 0.127649635076522827
0.439415812492370605 -0.279281735420227051 0.333915591239929199
0.0342175066471099854 -0.122978173196315765 -0.0254700351506471634
0.414386481046676636 -0.280742406845092773 0.327255725860595703
0.433084726333618164 -0.29604107141494751 0.333411425352096558
0.367915689945220947 -0.278826534748077393 -0.130043148994445801
-0.478172421455383301 0.00143009505700320005 0.188239306211471558
-0.292232692241668701 -0.0965211838483810425 -0.104547679424285889
0.241396710276603699 -0.313010990619659424 0.309850156307220459
0.473216921091079712 -0.354279160499572754 0.00729914475232362747
-0.297062784433364868 -0.0967708975076675415 -0.107008770108222961
0.244764938950538635 -0.288577884435653687 0.320249378681182861
0.062085278332233429 -0.329789191484451294 0.29712522029876709
0.157876431941986084 -0.267942219972610474 -0.105379693210124969
0.250344783067703247 0.0635802000761032104 0.315764099359512329
-0.483231842517852783 -0.00793329067528247833 0.177844494581222534
0.236472845077514648 0.066747128963470459 0.315113693475723267
0.238725587725639343 -0.331824123859405518 0.321567386388778687
-0.382955551147460938 -0.0921156629920005798 0.0366832241415977478
-0.216716602444648743 -0.140252694487571716 -0.0543374493718147278
-0.383375227451324463 -0.0637172609567642212 0.0834960117936134338
0.149890989065170288 -0.331668347120285034 0.331999719142913818
0.445934653282165527 -0.279812365770339966 0.333840042352676392
0.407499909400939941 -0.280455708503723145 0.325367599725723267
-0.502731621265411377 0.00656076846644282341 0.188574537634849548
-0.322526097297668457 0.0971687957644462585 -0.0702533721923828125
0.532574117183685303 -0.207513853907585144 -0.052353985607624054
0.450937360525131226 -0.294107437133789062 -0.290355950593948364
0.487370461225509644 -0.325463473796844482 -0.310799539089202881
0.446376055479049683 -0.309957563877105713 -0.290729016065597534
-0.578345537185668945 0.269309401512145996 0.365657448768615723
-0.46216118335723877 0.105630576610565186 -0.231121748685836792
0.37493211030960083 -0.318698257207870483 0.199326947331428528
-0.590365588665008545 0.367009639739990234 0.131026595830917358
0.392540127038955688 -0.353651255369186401 -0.217356681823730469
0.441074013710021973 -0.310500979423522949 -0.288938194513320923
-0.201057687401771545 0.305531501770019531 0.0950277745723724365
-0.155848801136016846 0.268033146858215332 0.151742547750473022
0.529843449592590332 -0.33846890926361084 0.0720494017004966736
0.463822722434997559 -0.266291707754135132 -0.217501550912857056
-0.634109377861022949 0.275755614042282104 0.10682409256696701
0.438397318124771118 -0.308792620897293091 -0.287107676267623901
0.515424132347106934 -0.277401089668273926 -0.316744148731231689
0.516518771648406982 -0.340568363666534424 -0.320690065622329712
0.454337030649185181 -0.307270944118499756 -0.293163597583770752
0.490967065095901489 -0.321949750185012817 0.0946237668395042419
0.0203040279448032379 -0.276017814874649048 -0.0184885002672672272
-0.654726564884185791 0.171859666705131531 -0.108308300375938416
-0.225120618939399719 0.318632781505584717 0.12139921635389328
0.46538969874382019 -0.364168465137481689 0.00612818636000156403
0.481125533580780029 -0.336857229471206665 0.0505059026181697845
0.511423885822296143 -0.339629322290420532 -0.319347351789474487
0.440141856670379639 -0.35680621862411499 -0.297544389963150024
-0.270488262176513672 0.322058200836181641 0.0419094860553741455
0.42412179708480835 -0.313517957925796509 -0.281802922487258911
0.415580481290817261 -0.295205563306808472 0.328696638345718384
-0.326732546091079712 -0.0755188465118408203 0.123458795249462128
-0.367546617984771729 -0.0668285712599754333 0.154642194509506226
-0.338819503784179688 0.21484789252281189 0.132841899991035461
0.00995713472366333008 0.119475819170475006 0.105330333113670349
0.542042851448059082 -0.309254378080368042 -0.0459989793598651886
0.0133459381759166718 -0.261967360973358154 0.0396040491759777069
-0.00384015846066176891 -0.236713454127311707 0.0943566486239433289
-7.28889572201296687e-05 -0.21974635124206543 0.0816260799765586853
0.464970707893371582 -0.361015766859054565 0.0305273570120334625
-0.269987553358078003 -0.138166636228561401 0.17748674750328064
-0.34573286771774292 -0.0660027414560317993 0.141244590282440186
0.123361371457576752 -0.276802778244018555 0.129118695855140686
-0.134233325719833374 0.0788068026304244995 0.0903971642255783081
0.463688373565673828 -0.0543450601398944855 0.0178863890469074249
-0.014432813972234726 -0.21706312894821167 0.0804606229066848755
-0.555338263511657715 0.391724348068237305 0.147559747099876404
0.496640563011169434 -0.366888105869293213 0.00545217283070087433
-0.611318707466125488 0.294105291366577148 0.186335086822509766
0.529952406883239746 -0.275459021329879761 -0.317583620548248291
0.370464354753494263 -0.264640182256698608 0.181768402457237244
0.420413494110107422 -0.344537466764450073 0.151071146130561829
0.252105116844177246 0.039206136018037796 -0.0664029717445373535
0.549540221691131592 -0.149889707565307617 0.124507226049900055
-0.571149945259094238 0.284053713083267212 -0.00653188955038785934
0.500906229019165039 -0.362740546464920044 -0.00108032184652984142
0.208349317312240601 0.115740112960338593 -0.0101773887872695923
-0.289857059717178345 -0.0858667641878128052 -0.0663952678442001343
0.159184113144874573 -0.0833216011524200439 -0.0359489284455776215
-0.340609729290008545 -0.105601295828819275 0.141280144453048706
0.510966479778289795 -0.281630545854568481 -0.313096821308135986
-0.339946925640106201 -0.0798111110925674438 0.0386129803955554962
-0.369956612586975098 0.280701309442520142 -0.0625832080841064453
0.509872317314147949 -0.341047883033752441 0.0653340667486190796
0.302356123924255371 -0.205937549471855164 0.248123258352279663
0.542776703834533691 -0.312148451805114746 -0.0605527088046073914
0.141550913453102112 0.0696145221590995789 0.336555719375610352
-0.595495700836181641 0.267524749040603638 0.0120364371687173843
0.222074657678604126 -0.0070032728835940361 0.295790135860443115
0.230950713157653809 0.0344467684626579285 0.312988579273223877
0.533502101898193359 -0.319737941026687622 -0.0125867761671543121
-0.390005499124526978 -0.0641124323010444641 0.105740256607532501
-0.448256701231002808 -0.0402452759444713593 0.126501858234405518
0.496096253395080566 -0.0912844687700271606 0.154746577143669128
0.251012474298477173 0.0632575452327728271 0.316882014274597168
-0.291924476623535156 -0.0928464829921722412 0.307699739933013916
-0.367235481739044189 -0.114922642707824707 0.104039162397384644
-0.564111530780792236 0.1271849125623703 -0.0785545557737350464
-0.502186596393585205 0.0234154406934976578 0.186621397733688354
0.518015265464782715 -0.297655016183853149 -0.313942819833755493
0.472482651472091675 -0.328576028347015381 -0.299798786640167236
-0.574879169464111328 0.26897391676902771 0.362585216760635376
-0.571783900260925293 0.35500335693359375 0.166889384388923645
-0.192128211259841919 0.304788470268249512 0.101393155753612518
-0.66269230842590332 0.239792302250862122 0.0415013507008552551
-0.505524873733520508 0.144449487328529358 0.353274524211883545
0.507006704807281494 -0.347500860691070557 -0.318246632814407349
-0.200967058539390564 0.305117279291152954 0.102047279477119446
0.475115269422531128 -0.357807755470275879 0.00488529540598392487
0.509763658046722412 -0.330861091613769531 0.0666134878993034363
-0.611311435699462891 0.367679238319396973 0.0876224637031555176
-0.563145935535430908 0.288271099328994751 -0.0560494400560855865
0.220011055469512939 0.0103695224970579147 0.309316098690032959
0.240592077374458313 0.00520760286599397659 0.321783125400543213
-0.360282570123672485 -0.0571464002132415771 -0.137916415929794312
0.399316996335983276 -0.25281938910484314 0.322125881910324097
0.399615466594696045 -0.263196825981140137 0.324873805046081543
0.223985433578491211 -0.32428392767906189 0.320791363716125488
0.411096483469009399 -0.267937451601028442 0.325294315814971924
-0.509812057018280029 0.049399644136428833 0.195208773016929626
-0.631888091564178467 0.156436994671821594 -0.0527720637619495392
-0.502497076988220215 0.147014573216438293 0.345249027013778687
0.520802497863769531 -0.35105934739112854 -0.3229961097240448
0.495285987854003906 -0.348526209592819214 0.00040203970274887979
-0.198422297835350037 0.0160077456384897232 -0.0498795993626117706
-0.55836951732635498 0.341813594102859497 -0.00584182888269424438
0.488505572080612183 -0.360647350549697876 0.0412239097058773041
0.449278414249420166 -0.0742903724312782288 0.00220295647159218788
-0.556871891021728516 0.385333806276321411 0.157677873969078064
0.374670892953872681 -0.0813412964344024658 -0.119701214134693146
-0.390264391899108887 0.319674402475357056 0.168773278594017029
-0.385223031044006348 0.328250735998153687 0.197467058897018433
-0.36476433277130127 0.237935706973075867 -0.0834811031818389893
-0.407899022102355957 0.199478715658187866 0.0408903732895851135
-0.645053386688232422 0.286893844604492188 0.0934526249766349792
0.408578664064407349 -0.34741935133934021 0.13659176230430603
0.222420573234558105 0.0828654021024703979 -0.033312574028968811
0.498631715774536133 -0.161350369453430176 0.12404303252696991
0.500429809093475342 -0.0928989201784133911 0.134979754686355591
0.215416908264160156 0.00191758235450834036 0.299648106098175049
-0.353835731744766235 -0.068369738757610321 -0.00909609533846378326
-0.386010468006134033 0.265943586826324463 -0.0716793686151504517
0.50643467903137207 -0.347275793552398682 0.0550847761332988739
-0.357702702283859253 -0.0566138438880443573 -0.145508378744125366
0.132167086005210876 0.0726705789566040039 0.322280913591384888
-0.10010017454624176 -0.265903711318969727 0.00613025110214948654
0.24251219630241394 0.0233587305992841721 0.322092741727828979
-0.481100291013717651 -0.0118579799309372902 0.185227900743484497
0.242556393146514893 0.0483582541346549988 0.317278355360031128
-0.278660744428634644 0.332732498645782471 0.0406861864030361176
0.369932979345321655 -0.0309711266309022903 -0.0397291667759418488
0.520092666149139404 -0.348223984241485596 -0.03617844358086586
0.29340699315071106 -0.0120349079370498657 0.0372289232909679413
-0.644741058349609375 0.28481060266494751 0.0923009589314460754
0.0355902090668678284 0.136702790856361389 0.085254184901714325
-0.398131042718887329 -0.0578097328543663025 0.125833585858345032
-0.442110449075698853 -0.0383957140147686005 0.131247594952583313
0.523765683174133301 -0.317816257476806641 -0.0653192251920700073
0.422445386648178101 -0.280129671096801758 0.331356257200241089
0.509599566459655762 -0.345168560743331909 0.0572529435157775879
0.403872013092041016 -0.258998513221740723 0.323771238327026367
-0.480987757444381714 0.0179116129875183105 0.176616474986076355
0.235599815845489502 0.0685502290725708008 0.314675599336624146
-0.480153203010559082 -0.00851607136428356171 0.167261272668838501
0.23922748863697052 0.067559853196144104 0.315078914165496826
0.388330757617950439 0.0259406715631484985 0.106214247643947601
0.219507560133934021 -0.316284418106079102 0.310451716184616089
0.383149683475494385 0.0428429767489433289 0.0692556872963905334
0.462846904993057251 0.010703003965318203 0.175277173519134521
0.399496704339981079 -0.258790403604507446 0.327343583106994629
-0.500298976898193359 0.0209916327148675919 0.180825009942054749
-0.574072897434234619 0.266246408224105835 0.359808444976806641
-0.665162384510040283 0.229842737317085266 0.0216489490121603012
-0.149612829089164734 0.275361299514770508 0.0791169404983520508
0.521848201751708984 -0.335476577281951904 -0.322604715824127197
-0.220805913209915161 0.315672844648361206 0.0967572033405303955
0.49982982873916626 -0.346761524677276611 0.0671445205807685852
-0.19012056291103363 0.30276980996131897 0.114790752530097961
0.31368747353553772 -0.130272865295410156 0.300866514444351196
0.225132718682289124 -0.0353070683777332306 0.30528491735458374
0.0571265891194343567 -0.331065356731414795 0.291370511054992676
0.435236930847167969 -0.280162066221237183 0.332870423793792725
0.408963888883590698 -0.285968303680419922 0.331030905246734619
0.385682076215744019 -0.265998423099517822 0.318914830684661865
0.397270381450653076 -0.385107249021530151 -0.225665420293807983
-0.162605106830596924 0.278396517038345337 0.128650858998298645
0.380792498588562012 0.0438685305416584015 0.0771973356604576111
0.39081120491027832 -0.255949884653091431 0.318927109241485596
-0.501016616821289062 0.0242766346782445908 0.185661450028419495
0.499415546655654907 -0.326358944177627563 -0.313221842050552368
0.380457639694213867 -0.376396864652633667 -0.216271549463272095
0.520908594131469727 -0.349706321954727173 -0.325012624263763428
0.520469844341278076 -0.348843544721603394 -0.321949988603591919
0.513104081153869629 -0.32008245587348938 -0.318562418222427368
0.254923701286315918 -0.222635596990585327 0.0575892552733421326
0.185844108462333679 -0.142624571919441223 -0.105541720986366272
0.507724404335021973 -0.320461362600326538 0.0293078310787677765
-0.47018924355506897 -0.0121140116825699806 0.180928125977516174
0.496000826358795166 -0.349404096603393555 -0.309898465871810913
0.521257519721984863 -0.327958047389984131 -0.322074413299560547
0.475824296474456787 -0.320682227611541748 -0.303162217140197754
-0.341762781143188477 0.22973187267780304 -0.0443672239780426025
0.201761618256568909 0.132780924439430237 0.112345919013023376
-0.173088937997817993 0.0220229234546422958 0.0256000831723213196
0.265560418367385864 -0.166071668267250061 0.00614380510523915291
0.544582545757293701 -0.328572988510131836 -0.0478093065321445465
-0.457032322883605957 -0.0533427558839321136 0.162044450640678406
0.469508439302444458 -0.356512486934661865 -0.307233512401580811
0.478283733129501343 -0.270220458507537842 -0.301622182130813599
0.467119872570037842 -0.362324327230453491 -0.308325499296188354
-0.320724964141845703 0.266573786735534668 0.0114542702212929726
0.032960500568151474 0.0985127687454223633 0.128577962517738342
-0.28530043363571167 -0.10045778751373291 -0.0874138250946998596
-0.617427647113800049 0.216846764087677002 -0.104979552328586578
0.244441881775856018 0.104405462741851807 -0.0296134874224662781
