ply
format ascii 1.0
element vertex 738
property float x
property float y
property float z
end_header
-0.366689145565032959 -0.0923856571316719055 0.122738763689994812
-0.329701781272888184 -0.12599983811378479 0.137194961309432983
-0.634157717227935791 0.1990765780210495 -0.0384150855243206024
-0.425336778163909912 -0.0555647946894168854 0.0991312339901924133
-0.477671414613723755 0.0195239651948213577 -0.0366667099297046661
0.208873659372329712 0.00808874797075986862 0.300793081521987915
-0.633730769157409668 0.247552543878555298 -0.00610184855759143829
-0.127640619874000549 0.269385606050491333 0.132110893726348877
0.27122160792350769 -0.330765008926391602 0.180076479911804199
0.533243894577026367 -0.210515588521957397 -0.098869718611240387
-0.126143366098403931 -0.113191157579421997 -0.0549145154654979706
0.454405993223190308 -0.339247673749923706 -0.298070669174194336
-0.212224528193473816 0.0356882438063621521 -0.0598005205392837524
-0.552755653858184814 0.175210461020469666 0.0126748699694871902
-0.198121443390846252 0.139098852872848511 0.0210087448358535767
-0.0122404852882027626 -0.103013873100280762 -0.0430694520473480225
0.264895647764205933 -0.275390207767486572 0.202417194843292236
0.348868399858474731 -0.321505904197692871 -6.09342387178912759e-05
-0.155569985508918762 0.0692590847611427307 0.0274036712944507599
-0.248788595199584961 0.130257561802864075 -0.0345659852027893066
0.199411660432815552 0.00124682358000427485 0.0189987476915121078
0.0766946971416473389 0.0804255306720733643 0.0238374229520559311
-0.28296014666557312 0.287768334150314331 -0.00607883185148239136
0.477176576852798462 -0.290164679288864136 -0.30171048641204834
-0.556417346000671387 0.265235215425491333 -0.01737174391746521
-0.236990079283714294 0.0970984101295471191 -0.0325806066393852234
0.138045072555541992 -0.281339734792709351 0.150003522634506226
0.296555489301681519 -0.297808617353439331 0.0568808875977993011
-0.285587340593338013 0.256746500730514526 0.00041431700810790062
-0.0207625441253185272 -0.0408732816576957703 0.0888762399554252625
0.20478472113609314 0.042334236204624176 0.0656250119209289551
-0.143430471420288086 -0.0857461988925933838 0.0915962383151054382
0.372720956802368164 -0.073773801326751709 0.0315097086131572723
0.52154850959777832 -0.199453875422477722 -0.0985622033476829529
0.487319469451904297 -0.298164486885070801 -0.305367499589920044
0.480575442314147949 -0.315259635448455811 0.122272133827209473
0.513783574104309082 -0.307552337646484375 -0.10244499146938324
0.496241778135299683 -0.3097953200340271 -0.309735119342803955
0.506323754787445068 -0.328212052583694458 -0.00416847923770546913
0.511872291564941406 -0.324955612421035767 0.11830504983663559
0.466104984283447266 -0.289066195487976074 -0.296565115451812744
0.438192963600158691 -0.263770252466201782 -0.194318115711212158
0.135311082005500793 0.116486504673957825 0.33694988489151001
0.396646410226821899 -0.244801521301269531 0.318716496229171753
-0.601195037364959717 0.353820353746414185 0.0654477700591087341
-0.504806041717529297 0.356684207916259766 0.178202837705612183
0.54276585578918457 -0.282924413681030273 0.0978609174489974976
0.256678134202957153 0.0365721695125102997 -0.0721386447548866272
-0.232793867588043213 0.155460968613624573 -0.00542418006807565689
0.506313800811767578 -0.332379907369613647 -0.00259098131209611893
0.445005536079406738 -0.250351488590240479 -0.228035405278205872
-0.638748347759246826 0.254027605056762695 0.0544633269309997559
0.532743990421295166 -0.263096034526824951 0.0931762084364891052
-0.392884254455566406 -0.0598927773535251617 0.100319944322109222
0.524080872535705566 -0.29001772403717041 -0.0921434685587882996
0.0282136611640453339 -0.274647951126098633 -0.0354210548102855682
0.385285258293151855 -0.306476116180419922 0.118757732212543488
-0.581888020038604736 0.366353929042816162 0.131623953580856323
0.240401372313499451 0.00251818937249481678 0.181047976016998291
-0.112810857594013214 0.165025413036346436 0.347407430410385132
0.4823417067527771 -0.36874544620513916 -0.0221073813736438751
0.412432193756103516 -0.321507006883621216 -0.211053192615509033
0.507409632205963135 -0.155926719307899475 0.123945288360118866
0.528959572315216064 -0.335109442472457886 0.0127628948539495468
-0.583816587924957275 0.335960268974304199 0.0340263918042182922
-0.590462803840637207 0.38145911693572998 0.131184294819831848
0.526523470878601074 -0.244686663150787354 -0.310662001371383667
0.474645614624023438 -0.291086494922637939 -0.299461841583251953
-0.596941649913787842 0.353228360414505005 0.169578686356544495
-0.587043642997741699 0.370995789766311646 0.101030014455318451
-0.211847618222236633 -0.130117133259773254 -0.0578065849840641022
0.234427019953727722 -0.293491154909133911 0.31493648886680603
0.23818930983543396 0.0667301639914512634 0.320005148649215698
0.542017281055450439 -0.31422773003578186 -0.0581635534763336182
-0.444480806589126587 -0.049022134393453598 0.126970067620277405
0.359746754169464111 -0.388714253902435303 -0.209028914570808411
-0.55625462532043457 0.210693955421447754 -0.113747522234916687
0.521006524562835693 -0.279908984899520874 -0.177147924900054932
0.242042213678359985 0.0343661569058895111 0.3144855797290802
0.242963925004005432 0.000102282865555025637 0.0235805157572031021
0.38085445761680603 0.038563113659620285 0.0118417907506227493
0.526996195316314697 -0.230983495712280273 -0.310169100761413574
0.327195554971694946 0.0959426239132881165 -0.0359656624495983124
-0.373993903398513794 -0.060845058411359787 -0.133009165525436401
0.513031423091888428 -0.16793137788772583 0.135837629437446594
-0.574194967746734619 0.321552664041519165 0.0493909530341625214
-0.558783650398254395 0.282928496599197388 0.364005684852600098
0.224661350250244141 0.0316601507365703583 -0.0582692176103591919
-0.574021458625793457 0.214189335703849792 -0.221164345741271973
-0.0440327264368534088 0.156178638339042664 0.0810766294598579407
0.114327825605869293 0.109724439680576324 0.0253443978726863861
0.342910587787628174 -0.247331410646438599 -0.0969289764761924744
-0.284756571054458618 0.299984365701675415 -0.00296157342381775379
0.153520554304122925 -0.0047258744016289711 -0.00366639252752065659
0.069296814501285553 0.138484716415405273 0.0755470693111419678
-0.269752323627471924 0.279730558395385742 0.00156060617882758379
0.503542959690093994 -0.29296150803565979 -0.159388601779937744
0.137181863188743591 -0.0261709652841091156 0.0130157638341188431
-0.338818341493606567 -0.0325820222496986389 0.0226811002939939499
0.373529046773910522 -0.0921764373779296875 0.0442227683961391449
0.200149402022361755 0.100968651473522186 -0.00190340005792677402
-0.297062456607818604 -0.0256035607308149338 0.0358171872794628143
0.131997227668762207 -0.0181522034108638763 -0.0261909216642379761
0.10160382091999054 0.0156648457050323486 0.0911185666918754578
0.175895214080810547 0.11906144767999649 0.0379410684108734131
-0.230330765247344971 -0.0642312765121459961 0.104543000459671021
0.486303210258483887 -0.297027677297592163 -0.303595811128616333
-0.602926433086395264 0.289021164178848267 0.185028567910194397
0.467298358678817749 -0.309139102697372437 0.120028853416442871
0.378411412239074707 -0.014760761521756649 0.00631895707920193672
0.514532923698425293 -0.295685172080993652 -0.103537589311599731
0.519064545631408691 -0.240076214075088501 -0.307668775320053101
0.478137493133544922 -0.310095548629760742 -0.300349891185760498
0.483607769012451172 -0.274877101182937622 -0.299978852272033691
0.117383494973182678 0.118377320468425751 0.297515064477920532
-0.583895027637481689 0.355882704257965088 0.0656656995415687561
0.383834004402160645 -0.337763547897338867 0.125453874468803406
-0.574157953262329102 0.317230433225631714 -0.0267005357891321182
-0.604148626327514648 0.216664642095565796 -0.0870446637272834778
0.267949968576431274 0.0389780178666114807 -0.0863295048475265503
-0.356158912181854248 -0.0227414928376674652 -0.131299823522567749
-0.563968002796173096 0.313854485750198364 -0.0080615626648068428
0.190818414092063904 -0.341238051652908325 -0.0748549327254295349
0.404363811016082764 -0.357997298240661621 -0.224102824926376343
-0.500032305717468262 0.145043373107910156 0.354515522718429565
0.509713232517242432 -0.151884213089942932 0.114917941391468048
0.497071743011474609 -0.264283090829849243 -0.304462283849716187
0.458188116550445557 -0.281239837408065796 -0.289815425872802734
0.441150426864624023 -0.265319198369979858 -0.28377339243888855
-0.5877113938331604 0.356988847255706787 0.0615802258253097534
0.505317211151123047 -0.127202346920967102 0.124338507652282715
-0.205938979983329773 0.311994642019271851 0.108592815697193146
0.268235385417938232 -0.284519016742706299 0.319121092557907104
0.232659384608268738 0.00311631942167878151 0.317783981561660767
0.513473451137542725 -0.176013529300689697 -0.281829386949539185
-0.114974953234195709 0.00939594302326440811 0.00574879441410303116
0.404095888137817383 -0.360026150941848755 -0.224726006388664246
0.417711615562438965 -0.313701331615447998 0.143708661198616028
-0.55520176887512207 0.375994384288787842 0.186635389924049377
-0.175362572073936462 0.308675616979598999 0.118273384869098663
-0.389392316341400146 0.27552524209022522 -0.085214078426361084
0.365419775247573853 0.0514970533549785614 0.0245457775890827179
0.129344061017036438 0.115274816751480103 0.318746089935302734
-0.286287248134613037 -0.101166792213916779 -0.0921985805034637451
0.258341133594512939 0.100610271096229553 -0.0621038228273391724
-0.361006230115890503 -0.0603987053036689758 -0.144269630312919617
0.134288415312767029 0.113236904144287109 0.337693661451339722
-0.562791287899017334 0.198839277029037476 -0.2291431725025177
-0.276074767112731934 0.287497460842132568 -0.00107592891436070204
0.455108046531677246 -0.246807441115379333 -0.288361907005310059
0.460452228784561157 -0.275770574808120728 -0.290882974863052368
-0.634580790996551514 0.307662874460220337 0.170237123966217041
0.51264035701751709 -0.317866414785385132 -0.0386368110775947571
0.469159960746765137 -0.266167253255844116 -0.298012763261795044
0.47837299108505249 -0.295387834310531616 -0.300287425518035889
0.458365529775619507 -0.24659082293510437 -0.28993341326713562
0.381327658891677856 -0.361363023519515991 -0.21391606330871582
-0.479188263416290283 -0.0131959598511457443 0.185731098055839539
-0.516176760196685791 0.365262418985366821 0.173904821276664734
-0.618236243724822998 0.201556071639060974 -0.0873053371906280518
-0.237023875117301941 0.0182743333280086517 -0.0726961195468902588
-0.382336407899856567 -0.0596589408814907074 0.0235648881644010544
0.47500985860824585 -0.368751019239425659 0.0217610765248537064
-0.648967504501342773 0.236271053552627563 0.0320928916335105896
0.412788629531860352 -0.34709504246711731 -0.221700698137283325
0.52619016170501709 -0.337567776441574097 0.0800098031759262085
0.50626063346862793 -0.239377707242965698 -0.308129012584686279
0.249593570828437805 -0.282703697681427002 0.318175733089447021
0.239345192909240723 0.0661605373024940491 0.314550161361694336
0.539742827415466309 -0.302214771509170532 -0.093718893826007843
-0.447633445262908936 -0.0420239493250846863 0.126402005553245544
-0.0436605289578437805 0.103998102247714996 0.317674040794372559
0.248090684413909912 0.0206076651811599731 0.32211574912071228
-0.284609794616699219 -0.100297950208187103 -0.0992156341671943665
-0.137493729591369629 -0.0156080080196261406 -0.0489633083343505859
-0.27754482626914978 0.337380528450012207 0.0468389280140399933
-0.254376083612442017 0.289419561624526978 -0.00339427171275019646
-0.218587920069694519 0.321417808532714844 0.0696898177266120911
-0.572946727275848389 0.151754602789878845 -0.0746308118104934692
-0.289614289999008179 0.292204588651657104 0.0158794857561588287
0.525773167610168457 -0.321066975593566895 0.02712281234562397
0.346295475959777832 -0.0308412928134202957 -0.0345439054071903229
0.522374331951141357 -0.363332122564315796 0.0893472656607627869
-0.0830978602170944214 -0.112369358539581299 0.0783332213759422302
-0.403662800788879395 0.325524479150772095 0.12107095867395401
0.504913210868835449 -0.367473036050796509 -0.00453389808535575867
-0.118417412042617798 0.265641599893569946 0.120799042284488678
0.518867671489715576 -0.343363255262374878 0.0357942543923854828
0.130338653922080994 -0.335151940584182739 0.301168918609619141
0.466758280992507935 -0.311471283435821533 0.0724094361066818237
0.483005791902542114 -0.374416977167129517 0.0522817634046077728
0.421245485544204712 -0.0264261234551668167 0.0647978037595748901
0.494309961795806885 -0.363930732011795044 -0.0155818276107311249
-0.232648342847824097 0.286665409803390503 0.0839781388640403748
0.531376898288726807 -0.332156091928482056 -0.0072763483040034771
-0.27164265513420105 0.314903438091278076 0.113805726170539856
0.308424770832061768 0.00221759104169905186 0.0462236665189266205
0.467641562223434448 -0.263775646686553955 -0.296084612607955933
0.473944276571273804 -0.304758787155151367 0.114181973040103912
0.51135551929473877 -0.314016103744506836 -0.104433193802833557
0.509408533573150635 -0.24572598934173584 -0.308447718620300293
0.4481678307056427 -0.292872309684753418 -0.292772948741912842
0.466607570648193359 -0.283635973930358887 -0.297289222478866577
0.138520047068595886 0.112356267869472504 0.336634546518325806
-0.651812970638275146 0.285250544548034668 0.0978843048214912415
-0.637986123561859131 0.244363710284233093 -0.0383270606398582458
0.136486783623695374 0.0688307136297225952 0.337760031223297119
-0.576754868030548096 0.303355246782302856 -0.0556959286332130432
0.262723982334136963 0.0301497839391231537 -0.073541983962059021
0.542083501815795898 -0.21715332567691803 0.111496485769748688
-0.359793782234191895 -0.0363843291997909546 -0.134477853775024414
-0.574397444725036621 0.327039271593093872 -0.0297068431973457336
-0.361514538526535034 -0.0715789347887039185 -0.0341444909572601318
-0.130413413047790527 -0.268194764852523804 0.11894526332616806
0.495276331901550293 -0.366229742765426636 -0.000418861221987754107
0.374016940593719482 -0.359761625528335571 -0.210083171725273132
-0.378149479627609253 -0.107595518231391907 0.101160712540149689
-0.0670111700892448425 -0.264630287885665894 0.296348690986633301
0.520088732242584229 -0.243678942322731018 -0.309467852115631104
0.509603977203369141 -0.330968260765075684 0.0152190132066607475
-0.593033134937286377 0.368530362844467163 0.120443522930145264
-0.655049502849578857 0.175211235880851746 -0.103138111531734467
-0.222795397043228149 -0.144760161638259888 -0.0538845397531986237
-0.190931171178817749 0.316183745861053467 0.100548222661018372
0.25669562816619873 -0.283993661403656006 0.319610565900802612
0.239305481314659119 0.0317954160273075104 0.319021701812744141
-0.119870409369468689 -0.0466443262994289398 0.00714272214099764824
-0.641249299049377441 0.308186799287796021 0.101739309728145599
0.364902406930923462 -0.374306976795196533 -0.206997737288475037
0.537858545780181885 -0.218186631798744202 0.16177840530872345
-0.552423059940338135 0.382003158330917358 0.157827660441398621
-0.122199803590774536 0.258855640888214111 0.114932090044021606
0.119681179523468018 0.102052919566631317 0.0893136784434318542
-0.37506529688835144 0.265368878841400146 -0.0897504314780235291
0.517004430294036865 -0.349485009908676147 0.0987119898200035095
-0.293276429176330566 -0.107776418328285217 -0.10946153849363327
0.275250047445297241 0.102666713297367096 -0.057740483433008194
-0.574755489826202393 0.219098269939422607 -0.212759077548980713
-0.115255266427993774 0.268138527870178223 0.179613903164863586
0.236052066087722778 -0.288476169109344482 0.314295649528503418
0.310240417718887329 -0.187812373042106628 0.240935459733009338
0.541911005973815918 -0.32623717188835144 -0.0209727678447961807
0.0790308713912963867 -0.33826446533203125 0.282110124826431274
-0.00621231785044074059 -0.172384962439537048 0.00408796872943639755
-0.281910032033920288 0.261251926422119141 0.00685164844617247581
0.513342559337615967 -0.237449035048484802 -0.309463798999786377
-0.646612226963043213 0.277805536985397339 0.0794130265712738037
-0.645980417728424072 0.182721778750419617 -0.0909892544150352478
0.51423722505569458 -0.322929859161376953 0.0242285300046205521
-0.406700551509857178 -0.0642912909388542175 0.113365449011325836
0.516971945762634277 -0.35610729455947876 -0.0206754878163337708
-0.566237568855285645 0.373876810073852539 0.15233612060546875
0.236065760254859924 0.042610514909029007 0.313568592071533203
-0.664491176605224609 0.226670131087303162 0.0229793135076761246
-0.447841048240661621 -0.0391252413392066956 0.126910880208015442
0.503188014030456543 -0.302640914916992188 -0.178913772106170654
-0.588773012161254883 0.360593050718307495 0.0859460756182670593
-0.193773970007896423 0.314455717802047729 0.104665592312812805
0.247075021266937256 0.0235119462013244629 0.323709428310394287
0.531070351600646973 -0.324192315340042114 -0.0581326819956302643
-0.182533383369445801 0.306556969881057739 0.128279358148574829
0.247316911816596985 0.00658221403136849403 0.32384142279624939
0.0588430687785148621 0.139222458004951477 0.345570981502532959
-0.50545579195022583 0.148845985531806946 0.356716066598892212
0.270749092102050781 -0.311737090349197388 0.32616075873374939
-0.253452897071838379 0.0230069290846586227 -0.0709087774157524109
0.241098165512084961 -0.295788109302520752 0.322400152683258057
0.249115899205207825 0.0433988235890865326 0.314298659563064575
0.468520700931549072 -0.102340459823608398 0.0345339067280292511
-0.124470889568328857 0.1946391761302948 0.115206323564052582
0.239989444613456726 -0.327105879783630371 0.317856520414352417
0.500364840030670166 -0.367023736238479614 0.0745892897248268127
0.523566722869873047 -0.325134247541427612 0.0261467341333627701
0.444670915603637695 -0.253745019435882568 0.332268089056015015
0.321685940027236938 -0.131800457835197449 -0.106753110885620117
0.0634946450591087341 -0.0112391887232661247 0.321532636880874634
0.511425495147705078 -0.361316293478012085 0.0474508404731750488
0.135878071188926697 -0.101140573620796204 0.0403787344694137573
0.0497868619859218597 0.0110981902107596397 0.0295428559184074402
0.0210567526519298553 0.0477826334536075592 0.0424012467265129089
0.0882503539323806763 -0.06656607985496521 0.28947681188583374
-0.161960169672966003 -0.266295731067657471 0.147840991616249084
0.265142649412155151 -0.0205631367862224579 0.0614212043583393097
-0.0287740603089332581 -0.0295543838292360306 0.295375823974609375
0.502411067485809326 -0.240694686770439148 -0.302047967910766602
0.476175397634506226 -0.315328806638717651 -0.301984518766403198
-0.630560100078582764 0.305811792612075806 0.167221114039421082
0.475584417581558228 -0.321275442838668823 0.120947211980819702
0.50926673412322998 -0.301240861415863037 -0.105596154928207397
0.528456628322601318 -0.275275170803070068 -0.317224621772766113
0.493789732456207275 -0.332798123359680176 -0.310735434293746948
0.503633797168731689 -0.320587396621704102 0.0979432687163352966
0.474421471357345581 -0.306161612272262573 -0.298137485980987549
-0.559022903442382812 0.267575711011886597 0.364333778619766235
0.1252107173204422 0.116405285894870758 0.314046382904052734
-0.63319474458694458 0.281776279211044312 0.0541460141539573669
-0.586962997913360596 0.362344503402709961 0.10228264331817627
0.371742963790893555 -0.374458491802215576 -0.212773248553276062
0.438572466373443604 -0.348460942506790161 0.154274895787239075
0.0583309903740882874 0.120843686163425446 0.32094922661781311
-0.57419896125793457 0.36834678053855896 0.21538543701171875
0.264976441860198975 0.024251716211438179 -0.0587474815547466278
0.368914246559143066 -0.337287485599517822 0.160550177097320557
0.510711371898651123 -0.301959484815597534 -0.1120438352227211
0.13387027382850647 -0.321111708879470825 -0.0978898480534553528
0.516749858856201172 -0.349232137203216553 -0.0203327517956495285
0.389534294605255127 -0.34718400239944458 -0.214132606983184814
-0.576617896556854248 0.318616181612014771 0.0406477823853492737
0.536273300647735596 -0.278246045112609863 -0.320628374814987183
0.468133062124252319 -0.311298370361328125 -0.299274057149887085
0.507359445095062256 -0.347581356763839722 0.017883647233247757
-0.555519044399261475 0.309239059686660767 0.102105960249900818
0.194124087691307068 -0.339858293533325195 -0.0592652447521686554
0.0703704729676246643 -0.28277820348739624 -0.0780331939458847046
0.252572000026702881 -0.250849634408950806 0.320068717002868652
0.240099981427192688 0.0304375588893890381 0.316799849271774292
-0.12073228508234024 -0.0484440736472606659 0.00799704529345035553
0.179021149873733521 -0.100662626326084137 -0.0149211445823311806
0.532640278339385986 -0.332761108875274658 -0.0132145630195736885
0.370606422424316406 -0.349911272525787354 -0.208914816379547119
0.535108625888824463 -0.246353223919868469 0.17719404399394989
0.561402559280395508 -0.31620490550994873 -0.330959022045135498
0.554694235324859619 -0.212223947048187256 0.133846476674079895
-0.542887210845947266 0.380301147699356079 0.164365082979202271
0.123172760009765625 0.116707116365432739 0.13298623263835907
-0.581844627857208252 0.351461499929428101 0.0976731479167938232
-0.481157273054122925 0.185410872101783752 -0.0916761159896850586
0.515807747840881348 -0.339661240577697754 0.0387866757810115814
0.253576576709747314 -0.279769688844680786 0.321894079446792603
0.27876630425453186 -0.356436073780059814 -0.126117870211601257
0.508182168006896973 -0.287058442831039429 -0.31369626522064209
-0.43183213472366333 -0.0579692944884300232 0.116590008139610291
0.202220812439918518 0.0899984091520309448 0.223248228430747986
0.24460110068321228 0.104157902300357819 -0.0573167577385902405
-0.195424258708953857 0.200991705060005188 0.34914010763168335
0.250656723976135254 0.0244001355022192001 0.323234260082244873
0.240015953779220581 0.018488619476556778 0.320924699306488037
-0.0311729125678539276 0.162178531289100647 0.38249632716178894
-0.482185423374176025 -0.0164025109261274338 0.180082395672798157
0.484005838632583618 -0.369583368301391602 0.0460359081625938416
-0.643133342266082764 0.286620348691940308 0.0861285030841827393
0.276216089725494385 -0.16629984974861145 -0.0705662667751312256
-0.411491125822067261 -0.0576376542448997498 0.0787997543811798096
-0.642639815807342529 0.175178542733192444 -0.0820771455764770508
-0.225631892681121826 -0.134653910994529724 -0.0523445531725883484
0.255080997943878174 -0.266181915998458862 0.32105371356010437
-0.344964027404785156 0.0166258979588747025 -0.117033936083316803
-0.286792844533920288 -0.0922807678580284119 -0.106629125773906708
-0.584657073020935059 0.209309384226799011 -0.218063801527023315
0.267735183238983154 -0.297636836767196655 0.315137773752212524
-0.0253054145723581314 -0.187930911779403687 -0.0436035208404064178
-0.617670536041259766 0.276415497064590454 0.0313204079866409302
-0.608452737331390381 0.297727853059768677 0.0923908799886703491
-0.397246360778808594 -0.0636428743600845337 0.118786506354808807
-0.451375067234039307 -0.038954712450504303 0.119393639266490936
0.431248396635055542 -0.272375315427780151 0.329146623611450195
-0.0520817004144191742 0.140236154198646545 0.0915716961026191711
-0.502721428871154785 0.150470420718193054 0.355331331491470337
0.240949511528015137 -0.319931060075759888 0.322753667831420898
0.497381716966629028 -0.371407359838485718 0.0573531463742256165
0.399444580078125 -0.257500171661376953 0.322421014308929443
-0.158122062683105469 -0.264283478260040283 0.181478440761566162
-0.498841911554336548 0.0132688330486416817 0.158000707626342773
0.417727470397949219 -0.298003315925598145 0.328700006008148193
0.535566449165344238 -0.340750366449356079 -0.0184433534741401672
0.344575017690658569 -0.267931908369064331 -0.127876639366149902
-0.496143192052841187 0.0712493732571601868 0.203896656632423401
0.4437904953956604 -0.272818624973297119 0.333373725414276123
0.52228856086730957 -0.335973471403121948 0.0327893421053886414
0.453695476055145264 -0.320434242486953735 -0.293016284704208374
0.474465280771255493 -0.312287211418151855 0.116685472428798676
0.517560899257659912 -0.278946340084075928 -0.312808632850646973
0.503000199794769287 -0.326482087373733521 -0.314301997423171997
0.518355727195739746 -0.3277130126953125 0.10190611332654953
0.479652643203735352 -0.311964124441146851 -0.30215492844581604
0.114818103611469269 0.118007011711597443 0.288904100656509399
-0.121562853455543518 0.268079966306686401 0.158631458878517151
-0.614426076412200928 0.26488029956817627 0.0520201250910758972
-0.479062497615814209 0.0022593056783080101 0.181259900331497192
0.426907986402511597 -0.355654776096343994 0.158556446433067322
-0.291974931955337524 -0.111360974609851837 -0.105886168777942657
0.130740180611610413 0.0649055764079093933 0.321124017238616943
0.254053652286529541 0.0381821542978286743 -0.0778588131070137024
0.235824897885322571 0.0933766588568687439 -0.0531440526247024536
0.417999237775802612 -0.262092411518096924 -0.202347368001937866
0.5219612717628479 -0.35523146390914917 -0.0194583144038915634
-0.608497917652130127 0.380533069372177124 0.181161209940910339
0.517912507057189941 -0.27984696626663208 -0.314731001853942871
0.499381035566329956 -0.350593775510787964 0.0240758806467056274
-0.587448954582214355 0.368718326091766357 0.112966969609260559
0.506206631660461426 -0.105328179895877838 0.147239595651626587
-0.197636798024177551 0.310986727476119995 0.112783432006835938
0.264184027910232544 -0.287225037813186646 0.319724619388580322
0.23714311420917511 0.0615556873381137848 0.310460597276687622
-0.144170388579368591 -0.0441931299865245819 0.00406329892575740814
-0.65738976001739502 0.214087352156639099 -0.0462376773357391357
-0.288257807493209839 -0.0767364576458930969 -0.0687321871519088745
0.227572694420814514 0.0416417829692363739 -0.0482236370444297791
0.55177384614944458 -0.145093917846679688 0.13199123740196228
0.520008265972137451 -0.295972287654876709 0.0748762190341949463
0.517896831035614014 -0.284614354372024536 -0.181178301572799683
-0.357716768980026245 -0.0178798753768205643 -0.0280617214739322662
0.0917984917759895325 0.0876151695847511292 0.0856643617153167725
0.466913402080535889 -0.362484633922576904 -0.0106686456128954887
-0.432522833347320557 0.157056763768196106 -0.0665941610932350159
0.524042010307312012 -0.336252987384796143 0.068886585533618927
0.263044297695159912 -0.286594122648239136 0.318447589874267578
0.00966641213744878769 -0.0916371196508407593 -0.0262439548969268799
0.0328269824385643005 -0.131051391363143921 0.0217456314712762833
-0.630335867404937744 0.264400839805603027 0.0289863068610429764
0.242346853017807007 0.0737299174070358276 0.318728506565093994
0.240406647324562073 0.0289620012044906616 0.318813055753707886
-0.174433857202529907 0.300269037485122681 0.116160035133361816
0.304786086082458496 -0.151952803134918213 0.307730644941329956
0.262077838182449341 -0.291395038366317749 0.320933789014816284
-0.47589150071144104 -0.00899633299559354782 0.166134044528007507
0.242985546588897705 0.0811700001358985901 0.312086910009384155
0.520460963249206543 -0.351910173892974854 0.0819225385785102844
-0.0346897467970848083 -0.238335877656936646 0.12397477775812149
-0.637949764728546143 0.289398610591888428 0.0987531840801239014
-0.233945280313491821 -0.133629173040390015 -0.0581289008259773254
-0.379000872373580933 -0.109670840203762054 0.105430141091346741
-0.236159950494766235 -0.14865642786026001 -0.0579743422567844391
-0.657603442668914795 0.213779076933860779 -0.0339433550834655762
0.529101073741912842 -0.353241592645645142 0.0778650417923927307
-0.620783627033233643 0.269659191370010376 0.0524182878434658051
-0.403863787651062012 -0.0651879161596298218 0.111959598958492279
-0.446037203073501587 -0.0423427633941173553 0.121898643672466278
0.268145531415939331 -0.286286294460296631 0.323408722877502441
0.127754136919975281 -0.327310770750045776 0.312499821186065674
0.15240892767906189 -0.343791484832763672 0.317780822515487671
0.448025137186050415 -0.336195468902587891 -0.292988359928131104
0.51601332426071167 -0.303538709878921509 -0.107964508235454559
0.515533328056335449 -0.280818283557891846 -0.312826812267303467
0.485166281461715698 -0.328248649835586548 -0.309783875942230225
0.464642316102981567 -0.346459805965423584 -0.302657425403594971
0.549897253513336182 -0.210775911808013916 -0.315983325242996216
0.524400770664215088 -0.300607681274414062 -0.32247626781463623
0.51826554536819458 -0.301418691873550415 -0.31837230920791626
0.247062548995018005 0.0564449019730091095 0.316323935985565186
0.241555765271186829 0.0869249626994132996 0.312653541564941406
-0.291422128677368164 -0.101363442838191986 -0.102017872035503387
-0.453295201063156128 -0.0528280399739742279 0.11699298769235611
0.404913604259490967 -0.272920131683349609 0.322468012571334839
-0.502110540866851807 0.00295908399857580662 0.18904721736907959
0.401203691959381104 -0.287898451089859009 0.32478630542755127
0.399353265762329102 -0.274216353893280029 0.323263645172119141
0.342435389757156372 -0.259583890438079834 0.09005708247423172
-0.0185950193554162979 -0.245124131441116333 0.128548949956893921
-0.464210420846939087 0.0351818539202213287 0.189463764429092407
-0.194073721766471863 0.220956906676292419 0.171908706426620483
0.367069393396377563 -0.329858243465423584 -0.0235397052019834518
0.323671877384185791 -0.390672862529754639 -0.158894002437591553
0.5356636643409729 -0.32420012354850769 -0.058234047144651413
-0.441475361585617065 -0.00555157428607344627 0.152611225843429565
-0.0188910290598869324 -0.0602089390158653259 0.141607686877250671
-3.0682553187943995e-05 -0.236846834421157837 0.106268137693405151
0.526452839374542236 -0.202350705862045288 -0.0800528824329376221
0.450082361698150635 -0.308876693248748779 -0.292874932289123535
0.527128338813781738 -0.275977730751037598 -0.315679371356964111
0.500195205211639404 -0.325431793928146362 -0.312671810388565063
0.475500941276550293 -0.30559113621711731 -0.297389984130859375
-0.127125874161720276 0.246034622192382812 0.138819009065628052
-0.648655474185943604 0.281425654888153076 0.0941426306962966919
-0.198702260851860046 0.286072134971618652 0.335745751857757568
0.498191893100738525 -0.0873347744345664978 0.136609926819801331
0.200985148549079895 -0.359769344329833984 -0.0908788964152336121
0.505636394023895264 -0.368254423141479492 -0.0227145552635192871
0.527428507804870605 -0.243298590183258057 0.172898143529891968
-0.585610628128051758 0.37874680757522583 0.170546248555183411
0.445298373699188232 -0.315470665693283081 -0.287750095129013062
0.498771071434020996 -0.111694395542144775 0.112124510109424591
-0.655428230762481689 0.174895063042640686 -0.103835128247737885
-0.201602354645729065 0.308183342218399048 0.0889999121427536011
0.201492011547088623 -0.0142157096415758133 0.295179218053817749
0.160308688879013062 -0.0627281889319419861 -0.044149395078420639
-0.579250812530517578 0.301636815071105957 0.368542134761810303
0.275338709354400635 0.0978895500302314758 -0.0291729159653186798
-0.434890776872634888 0.154763102531433105 -0.086114831268787384
0.534659624099731445 -0.333624303340911865 0.0127251623198390007
-0.568371951580047607 0.196755200624465942 -0.229152321815490723
-0.49729272723197937 0.0443017035722732544 -0.0869425162672996521
0.0316918529570102692 -0.104652196168899536 0.0328979901969432831
0.53438115119934082 -0.265015780925750732 -0.316325843334197998
0.0101333679631352425 0.197128713130950928 0.0274580288678407669
0.302442610263824463 0.0384031236171722412 -0.0845190286636352539
-0.331814855337142944 -0.0167005844414234161 -0.107796050608158112
0.236676037311553955 0.0138437440618872643 0.321729332208633423
0.125270605087280273 0.0123706096783280373 0.298854738473892212
0.527723073959350586 -0.355756580829620361 0.0663134753704071045
0.467369228601455688 -0.310369610786437988 -0.233122706413269043
-0.651636958122253418 0.284766256809234619 0.104248896241188049
0.546770930290222168 -0.22057245671749115 0.163455069065093994
0.528266310691833496 -0.323940962553024292 -0.0160599593073129654
-0.382672011852264404 -0.0571720637381076813 0.0761331766843795776
0.457203269004821777 -0.31135869026184082 -0.292571663856506348
0.505273401737213135 -0.340355902910232544 -0.317907005548477173
0.479120641946792603 -0.314840316772460938 -0.299513906240463257
0.52067255973815918 -0.301823735237121582 -0.317336827516555786
-0.00197229115292429924 -0.140635684132575989 -0.0249167848378419876
0.397687166929244995 -0.273774653673171997 0.3234386146068573
0.401358187198638916 -0.272201210260391235 0.323743343353271484
0.506298542022705078 -0.332571953535079956 0.105834268033504486
-0.467198818922042847 0.0417226590216159821 0.170575112104415894
0.410240411758422852 -0.346476227045059204 0.156575143337249756
-0.360403627157211304 -0.0359916426241397858 -0.148178458213806152
-0.127945542335510254 -0.268432319164276123 0.112307414412498474
0.51285243034362793 -0.369594663381576538 -0.014659675769507885
-0.213227495551109314 0.311981767416000366 0.0975321680307388306
0.250747114419937134 -0.287738054990768433 0.322870105504989624
0.209281265735626221 0.00891742482781410217 -0.0461627542972564697
0.0702903121709823608 -0.152134299278259277 -0.017320806160569191
-0.169275924563407898 0.30422559380531311 0.118724197149276733
0.471360296010971069 -0.364906936883926392 0.00705401087179780006
-0.290541648864746094 -0.100153073668479919 -0.103275157511234283
0.0367875024676322937 -0.150307744741439819 -0.0217925310134887695
0.232438817620277405 0.0556702427566051483 0.309144347906112671
0.253553718328475952 -0.289299130439758301 0.320652514696121216
-0.471306651830673218 0.000398309231968596578 0.168597772717475891
0.241257414221763611 0.0621297135949134827 0.313044697046279907
0.509202480316162109 -0.352598190307617188 0.0639639347791671753
0.22758147120475769 -0.315447747707366943 0.314556390047073364
-0.374983280897140503 -0.0939346775412559509 0.086105935275554657
-0.0624994002282619476 -0.242348030209541321 0.302460342645645142
-0.222295835614204407 -0.128364264965057373 -0.0531911365687847137
-0.409475177526473999 -0.0662023425102233887 0.0984517931938171387
-0.444585442543029785 -0.0454659275710582733 0.132673457264900208
0.239142134785652161 -0.294683605432510376 0.314426809549331665
0.154080674052238464 -0.324998259544372559 0.320090323686599731
0.425498366355895996 -0.256683528423309326 0.328586041927337646
0.438578814268112183 -0.343422353267669678 -0.292641431093215942
0.506692171096801758 -0.335057288408279419 -0.318052530288696289
0.445427477359771729 -0.352770894765853882 -0.286697417497634888
0.238525018095970154 0.0651935786008834839 0.312323272228240967
0.403431147336959839 -0.288126736879348755 0.3259105384349823
-0.494330555200576782 0.00598863372579216957 0.18833141028881073
0.486044466495513916 -0.0637616589665412903 0.131741181015968323
0.0128984563052654266 -0.171370550990104675 0.00976416375488042831
0.531863152980804443 -0.30813068151473999 -0.0622000843286514282
0.315138697624206543 -0.302771300077438354 -0.126810207962989807
0.446265161037445068 -0.291806936264038086 -0.285612434148788452
-0.336355835199356079 0.224073991179466248 0.125627025961875916
-0.400358051061630249 -0.0288866627961397171 -0.00197232328355312347
0.403344005346298218 -0.272343724966049194 0.324126660823822021
-0.13278670608997345 0.195212945342063904 0.167654365301132202
0.399393379688262939 -0.272281140089035034 0.323940038681030273
-0.446016013622283936 -0.0256625637412071228 0.0213536135852336884
-0.13745899498462677 0.244291678071022034 0.191601812839508057
-0.612201511859893799 0.293473809957504272 0.183685809373855591
0.124923504889011383 0.115537062287330627 0.316635370254516602
-0.120386786758899689 0.250038683414459229 0.161739200353622437
-0.582666754722595215 0.347633153200149536 0.0580961629748344421
0.427150934934616089 -0.348646104335784912 0.153060272336006165
-0.566080987453460693 0.294565409421920776 -0.0690202489495277405
0.252312183380126953 0.0263075754046440125 -0.0795856192708015442
0.24811851978302002 0.10000060498714447 -0.0483598224818706512
-0.356887906789779663 -0.0563497543334960938 -0.141915813088417053
0.199169784784317017 0.119789972901344299 0.0357321053743362427
0.545906603336334229 -0.132025450468063354 0.111993588507175446
-0.580972373485565186 0.321259558200836182 -0.0228775050491094589
0.206555739045143127 0.0241674706339836121 0.176818892359733582
-0.594702363014221191 0.37462317943572998 0.171961262822151184
0.445132255554199219 -0.319726794958114624 0.127391472458839417
0.25535815954208374 -0.279264867305755615 0.316495507955551147
0.235897406935691833 0.0232839882373809814 0.316574454307556152
-0.362342983484268188 -0.050396304577589035 -0.0238335337489843369
-0.182059839367866516 0.117591984570026398 0.0422320328652858734
0.255070894956588745 -0.288703322410583496 0.319313228130340576
0.242333695292472839 0.0326634719967842102 0.321839511394500732
0.400228053331375122 0.0229177121073007584 0.115187674760818481
-0.339929908514022827 -0.0667010471224784851 -0.147361159324645996
0.0760810598731040955 -0.333514094352722168 0.298945367336273193
-0.386201441287994385 -0.0614274702966213226 0.0937670692801475525
-0.447615236043930054 -0.0419395454227924347 0.127682551741600037
0.439641803503036499 -0.279804766178131104 0.333661764860153198
0.0349479280412197113 -0.123353764414787292 -0.0257010087370872498
0.414607465267181396 -0.281260818243026733 0.327007383108139038
0.433314859867095947 -0.296552300453186035 0.333168148994445801
0.368338465690612793 -0.279058128595352173 -0.130268454551696777
-0.476775795221328735 0.000794896390289068222 0.188288867473602295
-0.290953367948532104 -0.0968611463904380798 -0.104606293141841888
0.24169515073299408 -0.313469678163528442 0.309676855802536011
0.473588049411773682 -0.3546295166015625 0.0070608360692858696
-0.295784354209899902 -0.0971104130148887634 -0.107056237757205963
0.245048582553863525 -0.289053797721862793 0.320064932107925415
0.0626184567809104919 -0.330221801996231079 0.297026604413986206
0.158469393849372864 -0.268161803483963013 -0.105573393404483795
0.250551789999008179 0.0629417672753334045 0.315472036600112915
-0.481910079717636108 -0.00851928070187568665 0.177901819348335266
0.236696064472198486 0.0661094710230827332 0.314824372529983521
0.239029780030250549 -0.332274258136749268 0.32140842080116272
-0.381662100553512573 -0.0925865471363067627 0.0366704240441322327
-0.215565681457519531 -0.140599370002746582 -0.0544252060353755951
-0.382103979587554932 -0.0642346516251564026 0.0834817588329315186
0.150286316871643066 -0.33210909366607666 0.331880182027816772
0.446162611246109009 -0.280335605144500732 0.333585053682327271
0.407719343900680542 -0.280973285436630249 0.325120359659194946
-0.501420259475708008 0.00597434630617499352 0.188645705580711365
-0.321243584156036377 0.0967122167348861694 -0.070332452654838562
0.532949388027191162 -0.207892701029777527 -0.0526341237127780914
0.45145881175994873 -0.294245600700378418 -0.290500044822692871
0.487926781177520752 -0.325600683689117432 -0.310914218425750732
0.446903973817825317 -0.310091257095336914 -0.290864348411560059
-0.577107906341552734 0.268631398677825928 0.365735560655593872
-0.460735917091369629 0.105290420353412628 -0.231038421392440796
0.375191092491149902 -0.319151967763900757 0.19908006489276886
-0.589064717292785645 0.36638110876083374 0.131187304854393005
0.393037736415863037 -0.353804647922515869 -0.21750253438949585
0.441600173711776733 -0.310633659362792969 -0.289074242115020752
-0.199987739324569702 0.304908514022827148 0.0948593094944953918
-0.154874220490455627 0.267402172088623047 0.151552289724349976
0.530202746391296387 -0.338884621858596802 0.0718024596571922302
0.464297473430633545 -0.266498297452926636 -0.21769346296787262
-0.6328163743019104 0.275159776210784912 0.106999777257442474
0.438921242952346802 -0.308925807476043701 -0.287245571613311768
0.515976309776306152 -0.277561396360397339 -0.31687811017036438
0.51709669828414917 -0.340711832046508789 -0.320788204669952393
0.4548664391040802 -0.307406395673751831 -0.293299019336700439
0.491285413503646851 -0.322373926639556885 0.0943632125854492188
0.0210873987525701523 -0.276317358016967773 -0.0186567343771457672
-0.653360366821289062 0.171428993344306946 -0.108116716146469116
-0.224027827382087708 0.318000346422195435 0.121254615485668182
0.465757876634597778 -0.364512622356414795 0.00589189911261200905
0.48147246241569519 -0.337244987487792969 0.0502561628818511963
0.511998832225799561 -0.339771032333374023 -0.319447338581085205
0.440689682960510254 -0.356922060251235962 -0.297650635242462158
-0.269304990768432617 0.321468085050582886 0.0417913086712360382
0.424641996622085571 -0.313647568225860596 -0.281940817832946777
0.415806502103805542 -0.295714825391769409 0.328456223011016846
-0.325538873672485352 -0.0760379955172538757 0.123419329524040222
-0.366321563720703125 -0.0673661530017852783 0.154633641242980957
-0.337613612413406372 0.214236065745353699 0.132764428853988647
0.0106214387342333794 0.118893221020698547 0.105066508054733276
0.542462587356567383 -0.309605777263641357 -0.0462345071136951447
0.0141026787459850311 -0.262321561574935913 0.039427436888217926
-0.00309284823015332222 -0.237120583653450012 0.0941779166460037231
0.000674617884214967489 -0.220154225826263428 0.0814351737499237061
0.465333223342895508 -0.361376583576202393 0.0302897822111845016
-0.268890798091888428 -0.138654991984367371 0.177442982792854309
-0.344526201486587524 -0.0665342062711715698 0.141219407320022583
0.123875707387924194 -0.277208417654037476 0.128916025161743164
-0.133288219571113586 0.0782408490777015686 0.0902014821767807007
0.463907420635223389 -0.0548178739845752716 0.017549075186252594
-0.013660096563398838 -0.217471420764923096 0.0802751109004020691
-0.554036378860473633 0.391082853078842163 0.147695675492286682
0.497027426958084106 -0.36724168062210083 0.00522115081548690796
-0.610030055046081543 0.293470889329910278 0.186488837003707886
0.530509591102600098 -0.275627255439758301 -0.317715436220169067
0.370704740285873413 -0.265117883682250977 0.1814899742603302
0.420705825090408325 -0.344962507486343384 0.150826200842857361
0.252451390027999878 0.0388047993183135986 -0.066718369722366333
0.5498046875 -0.150425389409065247 0.12417922168970108
-0.569808721542358398 0.283529341220855713 -0.00640306714922189713
0.501299679279327393 -0.363092392683029175 -0.00131027947645634413
0.208705440163612366 0.115266382694244385 -0.0105066504329442978
-0.288608640432357788 -0.0862462595105171204 -0.0664581134915351868
0.159684076905250549 -0.0837001428008079529 -0.0362345427274703979
-0.339408665895462036 -0.106108762323856354 0.141261205077171326
0.511516094207763672 -0.281789302825927734 -0.313230812549591064
-0.3386974036693573 -0.080283530056476593 0.0385712161660194397
-0.368626713752746582 0.280199319124221802 -0.0626288354396820068
0.510225772857666016 -0.341452479362487793 0.0650869458913803101
0.302594780921936035 -0.206453949213027954 0.247856736183166504
0.543207168579101562 -0.312488377094268799 -0.0607816204428672791
0.141902893781661987 0.0689760670065879822 0.336297482252120972
-0.59416651725769043 0.266990423202514648 0.0121810929849743843
0.222322449088096619 -0.00761403888463973999 0.295515298843383789
0.231182694435119629 0.0338187478482723236 0.312706798315048218
0.533901870250701904 -0.320107102394104004 -0.0128290439024567604
-0.388738125562667847 -0.0646406859159469604 0.105733595788478851
-0.446957707405090332 -0.0407913848757743835 0.126534014940261841
0.496292322874069214 -0.0918508172035217285 0.154402166604995728
0.251218527555465698 0.0626188218593597412 0.316590040922164917
-0.290870785713195801 -0.0933775603771209717 0.307691812515258789
-0.365985065698623657 -0.11542288213968277 0.104027926921844482
-0.562733113765716553 0.126740515232086182 -0.0784353911876678467
-0.50088047981262207 0.0228270441293716431 0.186690360307693481
0.518573760986328125 -0.297812938690185547 -0.314066588878631592
0.473028689622879028 -0.328711956739425659 -0.299917906522750854
-0.573640644550323486 0.268297016620635986 0.362662166357040405
-0.570479452610015869 0.35435900092124939 0.167032703757286072
-0.191073045134544373 0.304161220788955688 0.101218491792678833
-0.661383867263793945 0.23924785852432251 0.0416865050792694092
-0.504298090934753418 0.143811658024787903 0.353319525718688965
0.507582247257232666 -0.347639143466949463 -0.318343430757522583
-0.199900224804878235 0.304491162300109863 0.101879209280014038
0.475487291812896729 -0.358156204223632812 0.00464801536872982979
0.510111629962921143 -0.331270188093185425 0.0663613826036453247
-0.610006511211395264 0.367073684930801392 0.087803862988948822
-0.561783194541931152 0.287780553102493286 -0.0559235475957393646
0.220256909728050232 0.00975011847913265228 0.309041470289230347
0.240812048316001892 0.00458481535315513611 0.321505725383758545
-0.358939528465270996 -0.0574958622455596924 -0.13791230320930481
0.399528563022613525 -0.25335279107093811 0.321865439414978027
0.399829000234603882 -0.263724416494369507 0.32461923360824585
0.224300861358642578 -0.324735432863235474 0.320634514093399048
0.411313325166702271 -0.268463343381881714 0.325039565563201904
-0.50851285457611084 0.0488049723207950592 0.195280805230140686
-0.630534350872039795 0.155969187617301941 -0.0526046603918075562
-0.501267492771148682 0.146377652883529663 0.345292747020721436
0.521387398242950439 -0.351201355457305908 -0.32308688759803772
0.495670944452285767 -0.348881185054779053 0.000165501522133126855
-0.197295814752578735 0.0155635103583335876 -0.0500244162976741791
-0.557022929191589355 0.341272532939910889 -0.00570455985143780708
0.48887142539024353 -0.361023157835006714 0.0409863889217376709
0.449512839317321777 -0.0747384354472160339 0.00186870992183685303
-0.555567562580108643 0.384687632322311401 0.157815217971801758
0.374988555908203125 -0.0816593989729881287 -0.120001144707202911
-0.389008700847625732 0.319026947021484375 0.168752297759056091
-0.383977949619293213 0.327593475580215454 0.19744478166103363
-0.363434553146362305 0.237458765506744385 -0.0835294425487518311
-0.406605392694473267 0.198923066258430481 0.0408587977290153503
-0.643762171268463135 0.286297500133514404 0.0936481505632400513
0.408875197172164917 -0.347833245992660522 0.13634781539440155
0.222777962684631348 0.0824208632111549377 -0.033635307103395462
0.498876035213470459 -0.161868259310722351 0.123713940382003784
0.500632166862487793 -0.09345293790102005 0.134636223316192627
0.215669065713882446 0.0013030908303335309 0.299374550580978394
-0.352547556161880493 -0.0688166543841362 -0.0091314408928155899
-0.384665340185165405 0.265452742576599121 -0.071712978184223175
0.506795167922973633 -0.347670793533325195 0.054841306060552597
-0.356359571218490601 -0.0569574758410453796 -0.145502731204032898
0.132539317011833191 0.0720348209142684937 0.322022199630737305
-0.0991334468126296997 -0.266221761703491211 0.00601305998861789703
0.242728844285011292 0.0227302908897399902 0.321811586618423462
-0.479773670434951782 -0.0124486181885004044 0.185284584760665894
0.242773205041885376 0.0477242358028888702 0.316991537809371948
-0.277466356754302979 0.332140833139419556 0.0405764617025852203
0.37018662691116333 -0.0313816778361797333 -0.0400530621409416199
0.520514607429504395 -0.348562717437744141 -0.0364014357328414917
0.293661445379257202 -0.0125143164768815041 0.0368986055254936218
-0.64344942569732666 0.284215539693832397 0.0924955606460571289
0.0362159460783004761 0.136135280132293701 0.0849782824516296387
-0.396866828203201294 -0.058346189558506012 0.125835686922073364
-0.440817028284072876 -0.0389438048005104065 0.131276190280914307
0.524193465709686279 -0.318143844604492188 -0.0655462667346000671
0.422667622566223145 -0.280650109052658081 0.331106364727020264
0.509959518909454346 -0.345566660165786743 0.0570085681974887848
