ply
format ascii 1.0
element vertex 737
property float x
property float y
property float z
end_header
0.159622117877006531 0.0945022180676460266 0.124343991279602051
-0.0489034280180931091 -0.062878929078578949 0.0490901991724967957
-0.588994622230529785 0.271300733089447021 -0.00717314844951033592
-0.610029339790344238 0.236960574984550476 -0.0560340657830238342
-0.343206256628036499 0.167245268821716309 0.0332447662949562073
-0.58125990629196167 0.191072359681129456 0.0908410251140594482
-0.436171293258666992 0.0526297502219676971 -0.148538514971733093
-0.0907769054174423218 0.266513854265213013 0.177528724074363708
0.249392732977867126 0.104219794273376465 -0.0591051317751407623
0.111336730420589447 0.0958890542387962341 -0.0143796335905790329
0.386130064725875854 -0.264340490102767944 0.196201235055923462
-0.0154219586402177811 0.00351555366069078445 0.22275756299495697
-0.437691003084182739 -0.013448699377477169 -0.0319981388747692108
-0.136222675442695618 -0.0370490327477455139 0.0952978581190109253
0.0254605244845151901 0.142931953072547913 0.294593632221221924
-0.554830372333526611 0.151203960180282593 -0.11320938915014267
0.0428055450320243835 -0.058103807270526886 0.153787463903427124
-0.155790045857429504 -0.00198568915948271751 0.156250223517417908
0.0369096584618091583 0.139495313167572021 0.0900847166776657104
-0.462042331695556641 0.00800307933241128922 0.166823148727416992
-0.28683769702911377 -0.05360456183552742 0.135468870401382446
0.207587346434593201 -0.15326322615146637 0.212625876069068909
0.0319665893912315369 0.118649743497371674 0.0911858007311820984
0.321262836456298828 -0.171915575861930847 0.0105827189981937408
0.301167130470275879 -0.124019697308540344 -0.0415262691676616669
-0.377235770225524902 -0.00750098330900073051 -0.0300014764070510864
0.448289930820465088 -0.272623658180236816 0.0943053737282752991
0.317569136619567871 -0.117306366562843323 0.0135933589190244675
0.157577678561210632 -0.0911348462104797363 0.212735772132873535
-0.162458851933479309 0.146686047315597534 0.0704650506377220154
0.456265360116958618 -0.108503714203834534 -0.231392011046409607
-0.577600836753845215 0.244595944881439209 -0.119807399809360504
-0.571637988090515137 0.294876158237457275 -0.0639875605702400208
0.517946243286132812 -0.242291316390037537 -0.158789306879043579
-0.369784563779830933 0.0988594144582748413 -0.0739303678274154663
-0.61400294303894043 0.263820618391036987 0.0386542826890945435
0.342894285917282104 -0.32884332537651062 -0.106298871338367462
0.340378552675247192 -0.189258292317390442 0.160325601696968079
0.532250344753265381 -0.247360065579414368 0.0926271378993988037
0.143345624208450317 0.0787420347332954407 0.0921818912029266357
-0.572369039058685303 0.305212140083312988 -0.0512400828301906586
0.271092712879180908 0.00532317394390702248 0.0708295553922653198
-0.625223934650421143 0.193288207054138184 -0.0881902724504470825
-0.461372613906860352 0.292046308517456055 -0.0616762451827526093
-0.152728348970413208 0.180273309350013733 0.0909121707081794739
-0.549176633358001709 0.174318358302116394 -0.0439480170607566833
-0.54389578104019165 0.277911514043807983 0.171783104538917542
0.401006728410720825 -0.233796074986457825 -0.0235941167920827866
0.286556065082550049 -0.0624670125544071198 -0.096996404230594635
0.22145882248878479 0.0401038005948066711 -0.0702940374612808228
0.103054799139499664 -0.138363167643547058 0.210744708776473999
0.115108273923397064 0.0725705251097679138 0.31640094518661499
-0.370595574378967285 0.118604831397533417 0.236960098147392273
-0.0232938192784786224 -0.0573429316282272339 0.13746429979801178
0.221635356545448303 -0.235956162214279175 0.0974811166524887085
0.0754573121666908264 0.0649644434452056885 0.034150298684835434
-0.383898526430130005 -0.0578385703265666962 0.104262866079807281
0.103976503014564514 0.0791855454444885254 0.126054227352142334
0.251952171325683594 0.0287150051444768906 -0.0659015923738479614
-0.37245294451713562 0.269605875015258789 0.113668754696846008
0.0321839787065982819 -0.0555189363658428192 0.30215984582901001
-0.0151975825428962708 0.137819617986679077 0.0921061486005783081
-0.501629531383514404 0.0958059504628181458 -0.127791821956634521
-0.345842868089675903 0.0126127647235989571 0.150644361972808838
0.526655137538909912 -0.0546572916209697723 -0.309413492679595947
-0.500249266624450684 0.136029928922653198 -0.240803971886634827
0.472895383834838867 -0.269003868103027344 0.113068178296089172
0.376883447170257568 -0.133936271071434021 -0.048000141978263855
0.234609976410865784 0.0929243192076683044 -0.040452662855386734
0.137184053659439087 0.0129374340176582336 0.284611254930496216
0.520635783672332764 -0.204561486840248108 -0.0884449034929275513
-0.536478042602539062 0.12490178644657135 -0.105700075626373291
-0.579407870769500732 0.292756259441375732 -0.000989846419543027878
0.482613950967788696 -0.325066059827804565 0.0999940931797027588
0.499370604753494263 -0.269565969705581665 0.0357742905616760254
0.493008613586425781 -0.330068260431289673 -0.063131384551525116
-0.483563929796218872 0.120445393025875092 -0.0454562343657016754
-0.591663956642150879 0.301548272371292114 0.175726309418678284
0.483395755290985107 -0.322958409786224365 0.134336799383163452
0.505786895751953125 -0.303498625755310059 -0.104117892682552338
-0.381262749433517456 0.317089825868606567 0.15876750648021698
-0.546481609344482422 0.334437966346740723 0.134326815605163574
0.46040460467338562 -0.259415894746780396 0.114804364740848541
0.533865809440612793 -0.207318529486656189 -0.0880819410085678101
0.513332784175872803 -0.231717228889465332 -0.305035799741744995
-0.554124116897583008 0.259648144245147705 -0.0208043530583381653
0.461305469274520874 -0.304605036973953247 0.108846180140972137
-0.452025324106216431 0.112832397222518921 -0.224852621555328369
0.486273854970932007 -0.314118057489395142 -0.30368456244468689
-0.559507846832275391 0.317615866661071777 0.354714393615722656
0.179248109459877014 -0.104139409959316254 -0.0162184368818998337
0.306173652410507202 0.0181134138256311417 -0.111792325973510742
0.506309568881988525 -0.337856322526931763 0.0247721076011657715
0.404651224613189697 0.0226203612983226776 0.00805644504725933075
0.475191801786422729 -0.288156270980834961 -0.30016714334487915
0.0104822181165218353 0.15412922203540802 0.0574787706136703491
0.523145556449890137 -0.300415873527526855 -0.0980577021837234497
-0.380921036005020142 0.334008991718292236 0.205026701092720032
-0.551088511943817139 0.337496548891067505 0.124764814972877502
0.418469667434692383 -0.252654373645782471 0.0978673845529556274
-0.580170631408691406 0.208369523286819458 -0.214804813265800476
0.278315037488937378 -0.0851738527417182922 0.190420106053352356
-0.129817962646484375 0.22452719509601593 0.126593083143234253
-0.382253348827362061 0.104158155620098114 -0.0631703734397888184
0.551463842391967773 -0.220161080360412598 0.114107571542263031
0.383623331785202026 -0.242535993456840515 0.313747704029083252
-0.552776753902435303 0.163220450282096863 0.0799568146467208862
-0.134491845965385437 0.201458126306533813 0.16849692165851593
0.242239058017730713 0.109905034303665161 -0.0490639060735702515
0.116450950503349304 0.0397768579423427582 0.328174740076065063
-0.55920875072479248 0.278056859970092773 0.00263144751079380512
0.319850116968154907 -0.132782787084579468 -0.0798365771770477295
-0.575016617774963379 0.20040169358253479 -0.225750654935836792
0.207804024219512939 0.117932580411434174 0.045137699693441391
0.463725805282592773 -0.308259963989257812 0.134619757533073425
-0.585370719432830811 0.319771915674209595 -0.0246697422116994858
0.530434668064117432 -0.253469139337539673 0.0980683416128158569
-0.309768944978713989 0.0826595276594161987 -0.0721240714192390442
-0.449481159448623657 0.00865540094673633575 -0.13996259868144989
-0.301172733306884766 0.290783137083053589 0.146480321884155273
-0.526429116725921631 0.181708455085754395 -0.215056315064430237
-0.391591697931289673 -0.0584310106933116913 0.100944988429546356
-0.545336067676544189 0.26284453272819519 -0.164512172341346741
0.313648760318756104 -0.334083676338195801 0.19768039882183075
-0.0597902089357376099 0.0939817428588867188 0.321313470602035522
-0.101671241223812103 0.143809139728546143 0.0936361104249954224
0.499757915735244751 -0.362802416086196899 0.0762264654040336609
0.348912328481674194 -0.282819479703903198 -0.135059729218482971
-0.412324666976928711 0.198208913207054138 0.036557905375957489
-0.34513208270072937 0.251793384552001953 -0.0132883703336119652
-0.267419636249542236 0.0790829882025718689 -0.0144830653443932533
-0.180717423558235168 0.0187508966773748398 0.0397550687193870544
-0.553332805633544922 0.21271929144859314 -0.0471954345703125
0.407766222953796387 -0.400774955749511719 -0.21570451557636261
0.517643749713897705 -0.285145610570907593 -0.100361168384552002
0.395224809646606445 -0.264376789331436157 -0.193748414516448975
0.497862756252288818 -0.274204760789871216 -0.30082249641418457
0.434503942728042603 -0.257232487201690674 -0.0019247931195423007
-0.154349073767662048 -0.243911609053611755 0.14900071918964386
-0.630050241947174072 0.194478631019592285 -0.0475007295608520508
-0.354865938425064087 0.000593419070355594158 -0.150946229696273804
-0.500997066497802734 0.146366998553276062 0.346407920122146606
-0.331580787897109985 0.299810826778411865 0.191217377781867981
-0.334489643573760986 -0.0314003676176071167 -0.132092520594596863
0.113093554973602295 0.0954580307006835938 0.0293341726064682007
0.470054179430007935 -0.134954288601875305 0.0993651300668716431
0.398953825235366821 -0.304894000291824341 0.145110636949539185
-0.457163989543914795 0.167749136686325073 0.116996176540851593
-0.536236584186553955 0.287380218505859375 0.0423329062759876251
-0.276181966066360474 -0.127420246601104736 0.0820939168334007263
-0.482949435710906982 0.249207079410552979 -0.102702721953392029
0.171133697032928467 -0.271905899047851562 0.0366850532591342926
-0.344566375017166138 0.10362551361322403 0.00674804812297224998
-0.365923643112182617 0.283056646585464478 0.0872127935290336609
0.38652762770652771 -0.229928240180015564 -0.121753104031085968
-0.352977216243743896 0.00264767557382583618 0.0354967601597309113
-0.517962098121643066 0.202101364731788635 0.0494050793349742889
-0.384886413812637329 0.182997375726699829 0.0923652872443199158
-0.571711301803588867 0.328203678131103516 -0.0113825360313057899
-0.338947474956512451 -0.0875232592225074768 -0.0537144243717193604
-0.136829286813735962 -0.268797844648361206 0.130531787872314453
0.27500113844871521 -0.165758490562438965 0.0550356470048427582
0.313129007816314697 -0.302493840456008911 -0.128317207098007202
-0.381159126758575439 0.25040474534034729 0.233612313866615295
0.310700953006744385 -0.217060968279838562 0.201210528612136841
0.496366500854492188 -0.254888683557510376 -0.105467677116394043
-0.118940703570842743 0.0726900771260261536 0.173800811171531677
0.512547194957733154 -0.361894190311431885 -0.0307382773607969284
-0.509074270725250244 0.269111394882202148 -0.00465958565473556519
-0.5950927734375 0.243982374668121338 -0.0024216317106038332
-0.586206912994384766 0.251065939664840698 0.194585412740707397
-0.54765629768371582 0.121390491724014282 -0.133855134248733521
-0.244870796799659729 0.182829782366752625 0.357149213552474976
0.462453722953796387 -0.264132112264633179 -0.290367454290390015
0.45617222785949707 -0.255884647369384766 -0.186900779604911804
0.519443511962890625 -0.302778452634811401 0.0444886274635791779
-0.625578701496124268 0.200310483574867249 0.0452274754643440247
-0.255704730749130249 -0.00448988890275359154 -0.061893124133348465
0.245494857430458069 0.0990137532353401184 -0.068904973566532135
0.504974842071533203 -0.15995509922504425 0.130817770957946777
0.343139469623565674 -0.0699960812926292419 0.162071451544761658
0.399868816137313843 -0.237061187624931335 0.130341753363609314
-0.35952836275100708 -0.118579916656017303 0.116757765412330627
-0.478954583406448364 0.189720302820205688 0.0642725005745887756
-0.574598729610443115 0.342032372951507568 0.0256054159253835678
-0.358906298875808716 -0.0631380975246429443 0.0911418721079826355
-0.342666834592819214 0.0118092214688658714 -0.114090308547019958
0.303013354539871216 -0.29578438401222229 0.162126854062080383
-0.504563271999359131 0.221044659614562988 0.142213806509971619
-0.485077500343322754 0.0285843927413225174 -0.0465343520045280457
0.0332199260592460632 0.0879987403750419617 0.0879928916692733765
-0.231437802314758301 0.347238689661026001 0.149088636040687561
0.0319358184933662415 0.0105700688436627388 0.042238086462020874
-0.365617960691452026 -0.0365409813821315765 -0.0324232988059520721
-0.0480809696018695831 -0.234085708856582642 0.301915675401687622
0.185888379812240601 -0.292769044637680054 0.00382724124938249588
0.23469407856464386 -0.0115868812426924706 0.230298399925231934
-0.526381194591522217 0.140771806240081787 0.0683621242642402649
-0.520224690437316895 0.201505973935127258 -0.0670159980654716492
-0.55217897891998291 0.285770177841186523 0.107870973646640778
0.14379572868347168 0.00780345220118761063 0.307874947786331177
0.0679684951901435852 -0.286047309637069702 -0.0812362432479858398
-0.361901164054870605 0.0354353226721286774 -0.160826414823532104
0.307364553213119507 -0.293624997138977051 0.0296167191118001938
-0.33919861912727356 0.213526278734207153 0.159494847059249878
-0.188086315989494324 0.200103133916854858 0.368018358945846558
-0.540002882480621338 0.25493389368057251 -0.0837380960583686829
0.522642612457275391 -0.199701488018035889 -0.0926882177591323853
-0.518970787525177002 0.185425445437431335 0.136833176016807556
-0.543610155582427979 0.270045608282089233 -0.00205562938936054707
0.471121013164520264 -0.326296746730804443 0.0445936284959316254
0.288881689310073853 0.0309572555124759674 0.0537969321012496948
0.433266997337341309 -0.306101888418197632 -0.285037368535995483
-0.51854395866394043 0.0901543349027633667 -0.134692102670669556
-0.600529909133911133 0.285348445177078247 0.184339404106140137
0.467649608850479126 -0.321227550506591797 0.127357363700866699
0.467617511749267578 -0.260643661022186279 -0.293632984161376953
-0.40397760272026062 0.300617635250091553 0.143157452344894409
-0.454183608293533325 0.119587808847427368 -0.223520785570144653
0.481538683176040649 -0.311922967433929443 -0.302447974681854248
0.468202978372573853 -0.330775201320648193 -0.00299609312787652016
0.457266926765441895 -0.305355340242385864 -0.292379617691040039
0.524280846118927002 -0.262045204639434814 -0.102056324481964111
-0.408735573291778564 0.31871563196182251 0.163019716739654541
-0.560744643211364746 0.267577201128005981 0.365594357252120972
-0.576111018657684326 0.210626259446144104 -0.200393378734588623
0.447410821914672852 -0.296662271022796631 -0.223009034991264343
0.310393154621124268 -0.0763032138347625732 0.148843705654144287
0.534682393074035645 -0.248379483819007874 0.101112581789493561
-0.562538802623748779 0.11988212913274765 -0.232837393879890442
-0.408145219087600708 0.0768303126096725464 -0.11617414653301239
-0.579674482345581055 0.356401503086090088 0.083006732165813446
0.0413698405027389526 0.11449933797121048 0.312449872493743896
-0.45659598708152771 0.00903767254203557968 0.18196551501750946
0.40942150354385376 -0.343995988368988037 0.159902945160865784
-0.554712474346160889 0.288551211357116699 -0.0488477721810340881
0.543189644813537598 -0.256037503480911255 0.113545060157775879
0.0239726491272449493 -0.249704107642173767 0.205177277326583862
0.195505648851394653 0.129984557628631592 0.0349263288080692291
0.315476953983306885 -0.370526015758514404 -0.156924471259117126
0.110571667551994324 0.0595229417085647583 0.319116324186325073
-0.314876765012741089 0.306487351655960083 0.28442537784576416
-0.254430562257766724 -0.132525324821472168 -0.0728654563426971436
-0.38648107647895813 -0.0600141100585460663 0.106718920171260834
0.453173041343688965 -0.0728310719132423401 -0.116460599005222321
0.315823465585708618 -0.333117067813873291 0.195810869336128235
0.29773181676864624 0.0380973853170871735 0.0500971972942352295
0.475902348756790161 -0.331045180559158325 0.136327207088470459
0.439807415008544922 -0.26754915714263916 -0.282232940196990967
0.461448013782501221 -0.273147910833358765 0.137885332107543945
0.504089891910552979 -0.346459180116653442 0.0173975192010402679
0.519010603427886963 -0.269634842872619629 -0.0871867164969444275
0.49871256947517395 -0.088199228048324585 0.161700218915939331
0.542338371276855469 -0.215356886386871338 0.110727958381175995
-0.577097117900848389 0.326926201581954956 0.0808110684156417847
0.246636584401130676 0.111255422234535217 -0.0543577224016189575
0.0335562005639076233 0.0683791562914848328 0.272636502981185913
-0.562071621417999268 0.275315195322036743 0.0243261177092790604
-0.613985538482666016 0.27208477258682251 0.0389236323535442352
0.535697758197784424 -0.239327877759933472 0.102767057716846466
-0.576065778732299805 0.212788939476013184 -0.116327553987503052
-0.425032287836074829 0.0308373533189296722 -0.188152000308036804
0.30447879433631897 -0.12646833062171936 -0.108277291059494019
-0.38509678840637207 -0.0555298030376434326 0.100961193442344666
-0.603289306163787842 0.259626150131225586 0.0178229957818984985
-0.460725843906402588 0.3064003586769104 0.0815723389387130737
0.504955768585205078 -0.264001339673995972 -0.109291605651378632
0.534689605236053467 -0.192442208528518677 0.0285921916365623474
-0.616218447685241699 0.210556104779243469 -0.0557460561394691467
0.452603191137313843 -0.123689033091068268 0.0892881676554679871
0.0336147472262382507 -0.279379695653915405 -0.0356084480881690979
0.401989459991455078 -0.318839371204376221 0.130876719951629639
-0.0938664525747299194 0.0740504413843154907 0.29338344931602478
0.243196114897727966 -0.136782437562942505 0.0111690536141395569
0.161337956786155701 -0.27145424485206604 0.0439885444939136505
-0.590616166591644287 0.369184434413909912 0.0906094387173652649
0.0270203500986099243 -0.0116568049415946007 0.0281107593327760696
0.195730194449424744 0.0339988917112350464 0.178186804056167603
-0.306093394756317139 -0.0912655293941497803 0.305686682462692261
0.49376523494720459 -0.366876870393753052 0.0197854116559028625
0.521674036979675293 -0.311450451612472534 0.0459744855761528015
0.502685964107513428 -0.15357932448387146 0.118873715400695801
0.0808423161506652832 -0.271932035684585571 -0.0593419671058654785
-0.325399667024612427 -0.10303787887096405 0.0886981189250946045
-0.586229979991912842 0.334862619638442993 0.0189688596874475479
-0.0738473460078239441 -0.235635071992874146 0.301791191101074219
0.194332197308540344 -0.339808166027069092 -0.0622159987688064575
-0.398897856473922729 0.272160440683364868 -0.0542482472956180573
-0.521730303764343262 0.0442650578916072845 -0.0573360472917556763
-0.257817089557647705 0.142332032322883606 0.0915857031941413879
-0.21349690854549408 -0.135571032762527466 -0.0629564076662063599
0.508558154106140137 -0.104762926697731018 0.144187465310096741
0.214118465781211853 -0.279594331979751587 -0.00919608026742935181
0.238090425729751587 -0.0760608911514282227 0.126905679702758789
-0.140434280037879944 0.29656749963760376 0.148094356060028076
-0.655993998050689697 0.171537280082702637 -0.112087644636631012
0.253288626670837402 -0.00947207584977149963 0.249951258301734924
0.250222146511077881 -0.178825259208679199 0.302685827016830444
-0.263006925582885742 -0.136811956763267517 -0.0673462897539138794
-0.20081011950969696 0.314400643110275269 0.0992572382092475891
0.257753819227218628 -0.278012365102767944 0.323005437850952148
0.178808301687240601 -0.0540362782776355743 -0.0508720092475414276
-0.443259119987487793 -0.0664841309189796448 0.12940707802772522
-0.503747701644897461 0.0301800835877656937 0.247490882873535156
-0.497014790773391724 0.0366521328687667847 -0.0112900091335177422
0.232610642910003662 0.0228110142052173615 0.314056456089019775
-0.37135741114616394 -0.045587245374917984 0.143658950924873352
-0.348916769027709961 0.106700889766216278 0.0663009211421012878
0.307558774948120117 -0.198800399899482727 0.242877677083015442
0.308344990015029907 -0.00554771628230810165 0.219549059867858887
-0.442799955606460571 0.266677141189575195 -0.0368807613849639893
0.517168402671813965 -0.326562166213989258 -0.0813303589820861816
-0.538760662078857422 0.138554513454437256 -0.0967755168676376343
0.465789675712585449 -0.124469734728336334 0.00194944173563271761
-0.385357290506362915 0.255438655614852905 0.0331200659275054932
0.493957400321960449 -0.301933258771896362 0.121041223406791687
0.465323925018310547 -0.106221757829189301 0.0595281198620796204
0.203696742653846741 0.0152044352144002914 -0.0421112105250358582
-0.22456890344619751 0.295789211988449097 0.158980011940002441
-0.125105917453765869 -0.0488460473716259003 0.0111722908914089203
-0.231699302792549133 0.228422895073890686 0.348410367965698242
-0.380745470523834229 -0.0541443862020969391 0.145774766802787781
0.341181099414825439 -0.0737791359424591064 0.0477075576782226562
-0.435896903276443481 -0.0120605695992708206 0.0344247780740261078
0.20533403754234314 0.0166350584477186203 0.0704856216907501221
0.0561953037977218628 -0.0858892872929573059 0.239425525069236755
-0.383833169937133789 -0.0593270957469940186 0.11689399927854538
-0.136693552136421204 -0.264614790678024292 -0.000896457873750478029
-0.24371907114982605 0.0636703372001647949 0.245088532567024231
-0.542081356048583984 0.210916712880134583 0.163129419088363647
-0.590713679790496826 0.287193804979324341 -0.00686134351417422295
0.30692589282989502 0.0176042243838310242 0.0429229065775871277
0.478533387184143066 -0.314743280410766602 -0.305323094129562378
0.503812491893768311 -0.345514774322509766 -0.0637357458472251892
0.471688181161880493 -0.30514410138130188 0.1150650754570961
0.52718818187713623 -0.302888065576553345 -0.109326452016830444
-0.402856796979904175 0.311557680368423462 0.135063529014587402
0.517983496189117432 -0.251262933015823364 -0.307326972484588623
0.507656574249267578 -0.329025536775588989 -0.314687162637710571
0.518887996673583984 -0.331350326538085938 0.0916072949767112732
0.477418839931488037 -0.304215997457504272 -0.302963584661483765
0.527646481990814209 -0.2856331467628479 -0.107943758368492126
-0.559860706329345703 0.267193466424942017 0.365980148315429688
-0.640102863311767578 0.289579987525939941 0.0855987668037414551
0.371428400278091431 -0.401090145111083984 -0.21739332377910614
-0.449676007032394409 -0.000875536235980689526 0.175449088215827942
0.176407709717750549 0.0729627683758735657 0.00678405771031975746
-0.453481912612915039 0.134809717535972595 -0.213227033615112305
0.403140664100646973 -0.33583986759185791 0.129019573330879211
-0.598852992057800293 0.207433372735977173 0.00123416690621525049
0.247555434703826904 -0.114497169852256775 -0.0706611871719360352
-0.483089804649353027 0.182829961180686951 -0.209632232785224915
-0.376005440950393677 -0.0628700777888298035 0.0920322686433792114
0.52299797534942627 -0.32094573974609375 0.035910535603761673
0.542480945587158203 -0.217422053217887878 0.108255505561828613
0.525807440280914307 -0.273529231548309326 0.0553373023867607117
0.111169934272766113 0.0840782672166824341 0.317413032054901123
-0.350772470235824585 -0.0476840883493423462 0.0453494228422641754
0.105082876980304718 0.0722316652536392212 0.295656412839889526
-0.165242761373519897 0.13310946524143219 0.151634529232978821
0.502856731414794922 -0.256477534770965576 -0.102408990263938904
0.428978383541107178 -0.303847014904022217 0.135978549718856812
-0.355575293302536011 -0.101191788911819458 0.159351766109466553
0.498712360858917236 -0.201629534363746643 -0.107872366905212402
-0.578369557857513428 0.348069518804550171 0.152564942836761475
0.105042263865470886 -0.0114625534042716026 0.0213735476136207581
-0.341064661741256714 -0.123118676245212555 0.104911819100379944
-0.120585501194000244 -0.275405555963516235 0.174297362565994263
-0.161069989204406738 0.16732451319694519 0.325444310903549194
0.515106201171875 -0.358567327260971069 0.0268502477556467056
0.521151244640350342 -0.287568598985671997 -0.0116288932040333748
0.478937596082687378 -0.140005901455879211 0.10765983909368515
-0.180764049291610718 0.0294358078390359879 0.0262329522520303726
-0.341780930757522583 -0.121340334415435791 0.104055561125278473
-0.600066661834716797 0.376757562160491943 0.188825741410255432
-0.119577594101428986 -0.266532570123672485 0.218537643551826477
0.523563921451568604 -0.308805465698242188 -0.074722975492477417
0.516428887844085693 -0.25207635760307312 -0.309449583292007446
0.455067217350006104 -0.308163255453109741 -0.294366508722305298
0.240599587559700012 -0.0959430709481239319 0.158759772777557373
-0.62007373571395874 0.272271066904067993 0.0376140400767326355
-0.429755806922912598 -0.00361351808533072472 0.17767585813999176
-0.250213950872421265 -0.13658905029296875 -0.0707294493913650513
0.317348599433898926 -0.318912893533706665 0.122648023068904877
0.539412438869476318 -0.249728992581367493 0.106644093990325928
0.452784627676010132 -0.13979649543762207 0.0155019182711839676
0.429415583610534668 -0.320989549160003662 0.123771011829376221
0.413373291492462158 -0.330738276243209839 -0.209678515791893005
0.473872721195220947 -0.128585204482078552 0.109546586871147156
-0.548825979232788086 0.378571748733520508 0.173034787178039551
0.190582022070884705 -0.339656591415405273 -0.013113170862197876
-0.20151190459728241 -0.135133057832717896 -0.068079724907875061
-0.185449704527854919 0.312113851308822632 0.118243113160133362
0.103319071233272552 0.107782982289791107 0.174652904272079468
-0.444111466407775879 -0.0540528930723667145 0.0922343134880065918
-0.489167064428329468 0.0302884634584188461 0.0172865800559520721
0.231384620070457458 0.0110170440748333931 0.315133243799209595
-0.0246563870459794998 0.113234966993331909 0.312716931104660034
0.243241086602210999 -0.0385982915759086609 0.204777985811233521
-0.384703874588012695 0.245458632707595825 0.0347092784941196442
-0.653887391090393066 0.216804057359695435 -0.0387869216501712799
0.483069509267807007 -0.116253629326820374 0.0235072672367095947
0.122179470956325531 0.0795723646879196167 0.138766512274742126
-0.381707191467285156 -0.072296537458896637 0.0959778651595115662
0.319708734750747681 -0.0723344087600708008 0.062539324164390564
-0.440437197685241699 -0.0113844452425837517 0.00728386780247092247
-0.502014815807342529 0.233804315328598022 -0.0706407353281974792
-0.547068119049072266 0.203558161854743958 -0.0680431053042411804
0.0885831490159034729 0.0917685776948928833 0.0802747011184692383
-0.519703507423400879 0.204673454165458679 -0.0467005521059036255
-0.168109238147735596 0.0725302174687385559 0.232802510261535645
-0.0571967363357543945 -0.186586380004882812 0.0271351523697376251
-0.212388515472412109 0.290829688310623169 0.109494619071483612
0.249646559357643127 -0.00537565164268016815 0.0225346125662326813
-0.555618047714233398 0.204449191689491272 0.118798218667507172
-0.457162857055664062 0.216569453477859497 0.0249755643308162689
-0.462465494871139526 0.266588598489761353 -0.00226394226774573326
-0.575263440608978271 0.247672185301780701 -0.0759649872779846191
-0.389192044734954834 0.275259524583816528 -0.0836722329258918762
0.34382280707359314 -0.134686499834060669 0.318879097700119019
-0.49843183159828186 0.206963568925857544 -0.0111518697813153267
-0.345834881067276001 0.292943418025970459 -0.0496992133557796478
0.526109635829925537 -0.360994160175323486 0.041745353490114212
-0.539777934551239014 0.215201973915100098 0.201490938663482666
-0.569149017333984375 0.294414520263671875 -0.00266593205742537975
0.31660151481628418 0.0237236469984054565 0.048901192843914032
0.482154607772827148 -0.306890875101089478 -0.303633719682693481
0.479798823595046997 -0.326258689165115356 0.125341370701789856
0.523334503173828125 -0.30694010853767395 -0.0987131893634796143
0.490509927272796631 -0.310658872127532959 -0.307395696640014648
0.516332507133483887 -0.324986398220062256 0.119794048368930817
0.44467008113861084 -0.300083458423614502 -0.290599942207336426
0.523351430892944336 -0.304491966962814331 -0.0973762050271034241
0.134250327944755554 0.116368167102336884 0.337246716022491455
-0.642235636711120605 0.242649778723716736 -0.00897716451436281204
-0.29240003228187561 -0.113557673990726471 -0.105287253856658936
0.539351165294647217 -0.255462735891342163 0.0921458154916763306
0.129110813140869141 0.0975925996899604797 0.317524462938308716
-0.235016494989395142 -0.143232792615890503 -0.0709644556045532227
0.252466678619384766 0.0300784241408109665 -0.0857375636696815491
0.531089663505554199 -0.323087304830551147 0.00680169090628623962
-0.599209904670715332 0.307359844446182251 0.104955501854419708
0.532203078269958496 -0.244639262557029724 0.0865026265382766724
-0.373891770839691162 -0.0605685152113437653 0.0926917344331741333
0.526700675487518311 -0.27526053786277771 -0.123253360390663147
-0.50098949670791626 0.148796528577804565 0.353414773941040039
0.385221183300018311 -0.297582060098648071 0.131844758987426758
0.13281586766242981 -0.331782490015029907 -0.100198447704315186
0.522891044616699219 -0.354799866676330566 -0.0149544021114706993
-0.43631511926651001 0.150682255625724792 -0.0845529139041900635
0.515876889228820801 -0.300066262483596802 0.0646704584360122681
0.393192827701568604 -0.367765039205551147 -0.213621571660041809
0.500609159469604492 -0.171478062868118286 0.13000158965587616
0.533358633518218994 -0.333954751491546631 0.0283550955355167389
-0.579786419868469238 0.348867475986480713 0.0407660827040672302
0.520110547542572021 -0.24083825945854187 -0.308694005012512207
-0.600885212421417236 0.370617091655731201 0.105127535760402679
-0.500490367412567139 0.147168144583702087 0.355618715286254883
0.234027624130249023 -0.277780711650848389 0.317413866519927979
-0.181165352463722229 -0.136766254901885986 -0.0552465841174125671
-0.228184998035430908 -0.137700662016868591 -0.0531369522213935852
-0.204195946455001831 0.298424124717712402 0.127074405550956726
0.262587517499923706 -0.28960224986076355 0.323688745498657227
-0.362123191356658936 -0.0302936621010303497 0.119900904595851898
-0.499942660331726074 0.0196280535310506821 0.0323201194405555725
0.242870241403579712 9.06284840311855078e-05 0.322366267442703247
0.141409397125244141 -0.290302902460098267 0.311808139085769653
0.308138549327850342 -0.207513809204101562 0.248212695121765137
-0.38601568341255188 0.254978656768798828 0.0347644463181495667
0.531220078468322754 -0.262251079082489014 0.102872572839260101
0.224078953266143799 0.0227403528988361359 0.305538386106491089
0.530715644359588623 -0.147330254316329956 -0.30822223424911499
-0.644742012023925781 0.231444522738456726 -0.047018345445394516
0.54140472412109375 -0.310885131359100342 -0.0444714315235614777
0.507946193218231201 -0.267650306224822998 -0.311471253633499146
0.514434158802032471 -0.315991193056106567 -0.295070409774780273
0.458968818187713623 -0.290764868259429932 -0.2965431809425354
-0.54296952486038208 0.268248379230499268 -0.188860893249511719
-0.621313333511352539 0.289008766412734985 0.0671315118670463562
0.363554239273071289 -0.384085148572921753 -0.206022113561630249
-0.0924298912286758423 0.2672843337059021 0.189661100506782532
-0.448296397924423218 0.131527379155158997 -0.208333268761634827
-0.575312137603759766 0.203907787799835205 -0.126613497734069824
-0.629945516586303711 0.191819310188293457 -0.0394467562437057495
-0.469600945711135864 0.139166966080665588 -0.230633378028869629
0.257695555686950684 -0.0169946141541004181 -0.0719406306743621826
0.230543375015258789 0.053929746150970459 -0.0450011081993579865
0.113063544034957886 0.109804950654506683 0.301803737878799438
-0.58396601676940918 0.218526959419250488 -0.22097429633140564
-0.598097264766693115 0.235331028699874878 -0.0103208236396312714
-0.36685141921043396 -0.0914258584380149841 0.123142562806606293
-0.32983708381652832 -0.1250486820936203 0.137569263577461243
-0.634476661682128906 0.199732750654220581 -0.0378631576895713806
-0.425524502992630005 -0.0546208806335926056 0.0995856821537017822
-0.477915465831756592 0.0204086471349000931 -0.0361211709678173065
0.208664208650588989 0.00862472411245107651 0.300921529531478882
-0.634066164493560791 0.248176664113998413 -0.00554863177239894867
-0.127986252307891846 0.269961386919021606 0.132555708289146423
0.271107465028762817 -0.330135643482208252 0.180136606097221375
0.53316342830657959 -0.210045084357261658 -0.098883509635925293
-0.126337364315986633 -0.112367674708366394 -0.0544728226959705353
0.454270333051681519 -0.338721752166748047 -0.298056691884994507
-0.212490960955619812 0.0364864766597747803 -0.0593289211392402649
-0.553081393241882324 0.175929859280586243 0.013232572004199028
-0.198443084955215454 0.139821484684944153 0.0214746575802564621
-0.0124752568081021309 -0.1022777259349823 -0.0426658876240253448
0.264777094125747681 -0.274769842624664307 0.202479302883148193
0.348745107650756836 -0.320949256420135498 1.4007086974743288e-05
-0.155863508582115173 0.0700035467743873596 0.0278484933078289032
-0.249105438590049744 0.131016075611114502 -0.0340831354260444641
0.199129700660705566 0.00178077537566423416 0.0192246027290821075
0.0763667672872543335 0.0810097232460975647 0.0241714268922805786
-0.283362776041030884 0.288437068462371826 -0.00555967539548873901
0.477051496505737305 -0.2896537184715271 -0.301714450120925903
-0.556783199310302734 0.265881508588790894 -0.0168045889586210251
-0.237289547920227051 0.0978741943836212158 -0.032102629542350769
0.137885749340057373 -0.280624628067016602 0.150184676051139832
0.296417981386184692 -0.297219306230545044 0.0569781772792339325
-0.285960346460342407 0.257431507110595703 0.00091728998813778162
-0.0210266076028347015 -0.0401467643678188324 0.0892337411642074585
0.204497829079627991 0.0428597666323184967 0.0658298879861831665
-0.143633380532264709 -0.0849126651883125305 0.091981545090675354
0.372547239065170288 -0.0733015164732933044 0.0315978750586509705
0.52146071195602417 -0.198986634612083435 -0.0985688194632530212
0.487195640802383423 -0.297653347253799438 -0.305370211601257324
0.480520874261856079 -0.314723074436187744 0.122236773371696472
0.513708949089050293 -0.3070506751537323 -0.102456927299499512
0.496119648218154907 -0.309282571077346802 -0.309738308191299438
0.506262123584747314 -0.327692210674285889 -0.00418522069230675697
0.511832058429718018 -0.324422091245651245 0.118259504437446594
0.465977787971496582 -0.288553893566131592 -0.29656645655632019
0.438067913055419922 -0.263270139694213867 -0.194287747144699097
0.135057628154754639 0.117015041410923004 0.3371620774269104
0.39661070704460144 -0.244279265403747559 0.318689644336700439
-0.601556062698364258 0.354394257068634033 0.0660079717636108398
-0.505156934261322021 0.357294529676437378 0.178735256195068359
0.542732477188110352 -0.282405585050582886 0.0978101268410682678
0.256408423185348511 0.0370344668626785278 -0.0719431117177009583
-0.233123138546943665 0.156192511320114136 -0.00494550261646509171
0.506252646446228027 -0.331858605146408081 -0.00260824430733919144
0.444875061511993408 -0.249854668974876404 -0.228008076548576355
-0.639075160026550293 0.254648566246032715 0.0550156757235527039
0.532699346542358398 -0.26258385181427002 0.0931338444352149963
-0.393069475889205933 -0.0589436031877994537 0.100755393505096436
0.524011790752410889 -0.289521872997283936 -0.0921600088477134705
0.0280495267361402512 -0.273863017559051514 -0.035068165510892868
0.385186851024627686 -0.305912375450134277 0.118773728609085083
-0.582240521907806396 0.366925299167633057 0.132182896137237549
0.240153178572654724 0.00305607053451240063 0.181182458996772766
-0.113049358129501343 0.165617212653160095 0.347767084836959839
0.48227044939994812 -0.368216067552566528 -0.0221135038882493973
0.412298142910003662 -0.320982933044433594 -0.211013182997703552
0.507332265377044678 -0.155443951487541199 0.123917520046234131
0.528910458087921143 -0.334586292505264282 0.0127330049872398376
-0.58418583869934082 0.336552709341049194 0.0345882698893547058
-0.590814650058746338 0.382018059492111206 0.131744071841239929
0.526405274868011475 -0.244196429848670959 -0.310671299695968628
0.474520981311798096 -0.290574729442596436 -0.299467295408248901
-0.597277164459228516 0.353796422481536865 0.170134082436561584
-0.587409675121307373 0.371560484170913696 0.101599238812923431
-0.212006181478500366 -0.129221484065055847 -0.0573621951043605804
0.234359219670295715 -0.292868763208389282 0.314981788396835327
0.237971782684326172 0.0672196075320243835 0.320127010345458984
0.541961789131164551 -0.313721835613250732 -0.058190561830997467
-0.44466593861579895 -0.0480904728174209595 0.127421975135803223
0.359593480825424194 -0.388159394264221191 -0.208963394165039062
-0.556594252586364746 0.211371228098869324 -0.113185591995716095
0.520918905735015869 -0.279415339231491089 -0.177163168787956238
0.241836860775947571 0.0348678193986415863 0.314599603414535522
0.24270358681678772 0.000611541152466088533 0.0237681306898593903
0.380648523569107056 0.0389882102608680725 0.0119377681985497475
0.526875793933868408 -0.230497375130653381 -0.310178041458129883
0.326945692300796509 0.0963522791862487793 -0.0358256697654724121
-0.374185293912887573 -0.0599016472697257996 -0.132510915398597717
0.512961924076080322 -0.167444869875907898 0.135803833603858948
-0.574560165405273438 0.322159230709075928 0.0499519184231758118
-0.559045851230621338 0.283496558666229248 0.364523082971572876
0.224381491541862488 0.0321471653878688812 -0.0580486059188842773
-0.574352085590362549 0.214847490191459656 -0.220609799027442932
-0.0443725287914276123 0.156795427203178406 0.0814783573150634766
0.113996893167495728 0.110266655683517456 0.0256495960056781769
0.342768281698226929 -0.246810629963874817 -0.0968277901411056519
-0.285147726535797119 0.300638198852539062 -0.00244770105928182602
0.15323348343372345 -0.00415961397811770439 -0.00339632760733366013
0.0689581111073493958 0.139049097895622253 0.0758728757500648499
-0.270138263702392578 0.280391812324523926 0.0020692325197160244
0.503452003002166748 -0.292462736368179321 -0.159396201372146606
0.136902347207069397 -0.0255775284022092819 0.0132928229868412018
-0.339028000831604004 -0.031658761203289032 0.0231424551457166672
0.373362362384796143 -0.0916947871446609497 0.0443037189543247223
0.199832901358604431 0.10144226998090744 -0.00166667636949568987
-0.297276854515075684 -0.0247022118419408798 0.0362626425921916962
0.131712615489959717 -0.0175671875476837158 -0.0258965343236923218
0.101295962929725647 0.0162863768637180328 0.0913974717259407043
0.175579428672790527 0.119558349251747131 0.0381873324513435364
-0.230520263314247131 -0.0633530765771865845 0.10493391752243042
0.486179739236831665 -0.296516627073287964 -0.303599327802658081
-0.603243231773376465 0.289623916149139404 0.185576394200325012
0.467236846685409546 -0.308601438999176025 0.11999964714050293
0.378217488527297974 -0.0143176587298512459 0.00642239395529031754
0.514457762241363525 -0.295187443494796753 -0.103549115359783173
0.518943190574645996 -0.239586636424064636 -0.307675451040267944
0.478011608123779297 -0.309580177068710327 -0.300348997116088867
0.483482867479324341 -0.274371862411499023 -0.299981951713562012
0.117109812796115875 0.118926562368869781 0.297747522592544556
-0.58426213264465332 0.356462985277175903 0.0662280619144439697
0.383739560842514038 -0.337191194295883179 0.125465169548988342
-0.574533462524414062 0.317834049463272095 -0.0261352229863405228
-0.604481756687164307 0.217316657304763794 -0.0864863991737365723
0.2676829993724823 0.039429735392332077 -0.0861423388123512268
-0.356374889612197876 -0.0218261312693357468 -0.130801752209663391
-0.564346075057983398 0.314465612173080444 -0.00749365566298365593
0.190658360719680786 -0.340581417083740234 -0.0746459290385246277
0.404223144054412842 -0.35746118426322937 -0.224062666296958923
-0.500238776206970215 0.145753070712089539 0.354962348937988281
0.509634613990783691 -0.151403680443763733 0.114891469478607178
0.496947288513183594 -0.263783395290374756 -0.304464012384414673
0.458057433366775513 -0.280729532241821289 -0.289808452129364014
0.441010475158691406 -0.264812678098678589 -0.283746689558029175
-0.588078200817108154 0.357566893100738525 0.062142055481672287
0.50523078441619873 -0.126728102564811707 0.124314039945602417
-0.206295952200889587 0.312585264444351196 0.10906711220741272
0.268175452947616577 -0.283919155597686768 0.31914481520652771
0.232466429471969604 0.00363581068813800812 0.317897409200668335
0.513343989849090576 -0.175545692443847656 -0.281836062669754028
-0.115252166986465454 0.0101511925458908081 0.00618544314056634903
0.403954893350601196 -0.359489500522613525 -0.224685966968536377
0.417633086442947388 -0.313146054744720459 0.143698900938034058
-0.555556118488311768 0.3765583336353302 0.187200814485549927
-0.175715968012809753 0.309249430894851685 0.118741244077682495
-0.389788359403610229 0.276231318712234497 -0.0846729949116706848
0.365202814340591431 0.0519246943295001984 0.024649403989315033
0.129082962870597839 0.11581207811832428 0.31896507740020752
-0.286437749862670898 -0.100217215716838837 -0.0917341858148574829
0.25805547833442688 0.101043872535228729 -0.0619093663990497589
-0.361197829246520996 -0.0594587028026580811 -0.143776565790176392
0.134036362171173096 0.113767273724079132 0.337905675172805786
-0.563117027282714844 0.199514999985694885 -0.228589102625846863
-0.276473969221115112 0.288161724805831909 -0.000559569802135229111
0.454968869686126709 -0.246308669447898865 -0.288341104984283447
0.460321396589279175 -0.275262236595153809 -0.290876030921936035
-0.634897053241729736 0.308243423700332642 0.170788660645484924
0.512575268745422363 -0.317354768514633179 -0.0386515632271766663
0.46902814507484436 -0.265663117170333862 -0.298005402088165283
0.478248775005340576 -0.29487571120262146 -0.300291866064071655
0.458227187395095825 -0.246092468500137329 -0.289914548397064209
0.381180912256240845 -0.360821068286895752 -0.213863074779510498
-0.479375392198562622 -0.0122867375612258911 0.186184301972389221
-0.516528010368347168 0.365862280130386353 0.174442857503890991
-0.618560075759887695 0.202211976051330566 -0.0867497175931930542
-0.237275272607803345 0.0191012155264616013 -0.0722223222255706787
-0.382530510425567627 -0.0587073042988777161 0.0240376312285661697
0.47494235634803772 -0.368214011192321777 0.0217507816851139069
-0.649289786815643311 0.236900061368942261 0.0326429270207881927
0.412651926279067993 -0.346563488245010376 -0.221664145588874817
0.526150107383728027 -0.337034761905670166 0.0799677520990371704
0.506133973598480225 -0.238886758685112 -0.308130592107772827
0.249527931213378906 -0.282093435525894165 0.31821286678314209
0.239126056432723999 0.0666506290435791016 0.314671635627746582
0.539683341979980469 -0.301717281341552734 -0.0937451347708702087
-0.447822481393814087 -0.0410967320203781128 0.12685742974281311
-0.0439019165933132172 0.104613669216632843 0.318005502223968506
0.247895956039428711 0.0211095958948135376 0.322222471237182617
-0.284762114286422729 -0.0993512868881225586 -0.098750770092010498
-0.137746736407279968 -0.0148292668163776398 -0.0485114939510822296
-0.277925491333007812 0.338001668453216553 0.0473415739834308624
-0.254757076501846313 0.290059834718704224 -0.00288780312985181808
-0.218956038355827332 0.322012364864349365 0.0701787248253822327
-0.573256969451904297 0.152472779154777527 -0.0740705206990242004
-0.289999395608901978 0.29286724328994751 0.0163882337510585785
0.525723397731781006 -0.32054564356803894 0.027092810720205307
0.346090584993362427 -0.0303873643279075623 -0.0344215258955955505
0.522336781024932861 -0.362790822982788086 0.0893023982644081116
-0.083310544490814209 -0.111561395227909088 0.0787103846669197083
-0.40402984619140625 0.326190382242202759 0.121576659381389618
0.504853904247283936 -0.366943120956420898 -0.00455288076773285866
-0.118766747415065765 0.266215682029724121 0.121244095265865326
0.518817722797393799 -0.342833846807479858 0.0357643365859985352
0.130263075232505798 -0.334449023008346558 0.301281988620758057
0.46668851375579834 -0.310938030481338501 0.0723936110734939575
0.482943862676620483 -0.373873293399810791 0.0522607974708080292
0.421081215143203735 -0.025975596159696579 0.0648482292890548706
0.494244366884231567 -0.36340254545211792 -0.0155942104756832123
-0.233008280396461487 0.287294715642929077 0.084455832839012146
0.531325757503509521 -0.331636816263198853 -0.00730438809841871262
-0.272002905607223511 0.31553301215171814 0.114282742142677307
0.308192133903503418 0.00269601005129516125 0.0463566817343235016
0.46750912070274353 -0.263272225856781006 -0.296075701713562012
0.473884522914886475 -0.304224252700805664 0.114149682223796844
0.511279642581939697 -0.313512235879898071 -0.104444272816181183
0.509284257888793945 -0.245233476161956787 -0.308450877666473389
0.448031783103942871 -0.292357683181762695 -0.292755097150802612
0.466479778289794922 -0.283125340938568115 -0.297289818525314331
0.138268634676933289 0.112884670495986938 0.336842805147171021
-0.652140915393829346 0.285821884870529175 0.0984465032815933228
-0.638320684432983398 0.244987413287162781 -0.0377743989229202271
0.136254474520683289 0.0693785175681114197 0.337959229946136475
-0.577126383781433105 0.303962796926498413 -0.055131036788225174
0.262458294630050659 0.0306106265634298325 -0.0733511298894882202
0.542035400867462158 -0.216655075550079346 0.111452460289001465
-0.360000967979431152 -0.035459812730550766 -0.13398076593875885
-0.574774801731109619 0.327636927366256714 -0.0291423127055168152
-0.361702054738998413 -0.0706286057829856873 -0.0336631461977958679
-0.130516171455383301 -0.267292708158493042 0.119267918169498444
0.495214462280273438 -0.365699231624603271 -0.00043464559712447226
0.3738689124584198 -0.359217911958694458 -0.210025131702423096
-0.378317683935165405 -0.106594577431678772 0.101575203239917755
-0.0670720264315605164 -0.263819366693496704 0.296592772006988525
0.519968032836914062 -0.24318830668926239 -0.309474855661392212
0.509546518325805664 -0.330444842576980591 0.015197480097413063
-0.593386709690093994 0.369095951318740845 0.12100442498922348
-0.655356764793395996 0.175859436392784119 -0.102589748799800873
-0.222941890358924866 -0.143849492073059082 -0.0534443370997905731
-0.191290989518165588 0.316762983798980713 0.101024851202964783
0.25663265585899353 -0.283387482166290283 0.319642305374145508
0.239102363586425781 0.032298848032951355 0.319136559963226318
-0.120110437273979187 -0.0458538644015789032 0.0075706937350332737
-0.641581237316131592 0.308767437934875488 0.102294988930225372
0.364750951528549194 -0.373757809400558472 -0.206936582922935486
0.537820279598236084 -0.217688187956809998 0.16172473132610321
-0.552776098251342773 0.382576107978820801 0.158381462097167969
-0.122548937797546387 0.259437352418899536 0.115377649664878845
0.119352258741855621 0.102612860500812531 0.0895864889025688171
-0.375455319881439209 0.266078799962997437 -0.0892160981893539429
0.51696479320526123 -0.348946213722229004 0.098667629063129425
-0.29343569278717041 -0.106836944818496704 -0.108997374773025513
0.274971336126327515 0.103090792894363403 -0.057559628039598465
-0.575087964534759521 0.219752341508865356 -0.212203964591026306
-0.115590393543243408 0.268702983856201172 0.180045530200004578
0.235983178019523621 -0.287855744361877441 0.314341127872467041
0.31012389063835144 -0.187250092625617981 0.240978360176086426
0.541861832141876221 -0.325722098350524902 -0.02100335992872715
0.0789487659931182861 -0.337518930435180664 0.28226393461227417
-0.00641326187178492546 -0.171609833836555481 0.00447503244504332542
-0.282284587621688843 0.261932194232940674 0.00735428789630532265
0.5132179856300354 -0.236959457397460938 -0.309467852115631104
-0.64694058895111084 0.278399735689163208 0.0799690708518028259
