ply
format ascii 1.0
element vertex 738
property float x
property float y
property float z
end_header
0.483218789100646973 -0.116391941905021667 0.0234073475003242493
0.122357487678527832 0.0794154927134513855 0.138477712869644165
-0.381935447454452515 -0.0728892013430595398 0.0955593809485435486
0.319911569356918335 -0.0724864006042480469 0.0623536854982376099
-0.440686225891113281 -0.0119256312027573586 0.00680072465911507607
-0.502240836620330811 0.233558386564254761 -0.0711256116628646851
-0.54729461669921875 0.203299269080162048 -0.0685303583741188049
0.0887444540858268738 0.0915939286351203918 0.0799431055784225464
-0.519925594329833984 0.204403981566429138 -0.0471869446337223053
-0.168208792805671692 0.0722373276948928833 0.232431843876838684
-0.0572749339044094086 -0.187146767973899841 0.0267303138971328735
-0.212499946355819702 0.290710240602493286 0.109071023762226105
0.249842643737792969 -0.00551723828539252281 0.0222841780632734299
-0.555822610855102539 0.204218462109565735 0.118308931589126587
-0.457365900278091431 0.216298013925552368 0.0245045740157365799
-0.462672293186187744 0.266370415687561035 -0.00274624442681670189
-0.575490772724151611 0.247471809387207031 -0.0764480307698249817
-0.389415502548217773 0.275032699108123779 -0.0841398537158966064
0.343991190195083618 -0.134790539741516113 0.318801850080490112
-0.498644113540649414 0.206689402461051941 -0.0116363521665334702
-0.346040844917297363 0.292749583721160889 -0.0501608103513717651
0.52618873119354248 -0.361302614212036133 0.0417021289467811584
-0.539993643760681152 0.21499103307723999 0.201019614934921265
-0.569351613521575928 0.294283390045166016 -0.00315664033405482769
0.316825926303863525 0.0236508175730705261 0.0486994609236717224
0.482144773006439209 -0.30725434422492981 -0.30377921462059021
0.47991982102394104 -0.326531022787094116 0.125306516885757446
0.523379266262054443 -0.307247072458267212 -0.0987994670867919922
0.49049648642539978 -0.311021596193313599 -0.307539254426956177
0.516439199447631836 -0.325254350900650024 0.11977299302816391
0.444671571254730225 -0.300450801849365234 -0.290764749050140381
0.523397147655487061 -0.304797202348709106 -0.0974623411893844604
0.134419098496437073 0.116285756230354309 0.337003856897354126
-0.642451941967010498 0.242466717958450317 -0.00945759471505880356
-0.292676240205764771 -0.114234462380409241 -0.105759583413600922
0.539465904235839844 -0.255690097808837891 0.0921217054128646851
0.12927602231502533 0.0974857807159423828 0.317277908325195312
-0.23526117205619812 -0.143895417451858521 -0.0714237764477729797
0.252624273300170898 0.0299546364694833755 -0.0860199257731437683
0.531166732311248779 -0.323381483554840088 0.00674811610952019691
-0.599418699741363525 0.307242810726165771 0.104464918375015259
0.53232187032699585 -0.244860008358955383 0.0864718779921531677
-0.374118238687515259 -0.0611435025930404663 0.0922712907195091248
0.526742935180664062 -0.275553226470947266 -0.123345702886581421
-0.501238107681274414 0.148554712533950806 0.352988511323928833
0.38537365198135376 -0.297861248254776001 0.131760984659194946
0.132815942168235779 -0.33234250545501709 -0.100544601678848267
0.522955060005187988 -0.355116546154022217 -0.0150166712701320648
-0.436547785997390747 0.150319427251815796 -0.0850366577506065369
0.515983045101165771 -0.300333946943283081 0.0646282285451889038
0.393222332000732422 -0.368167340755462646 -0.213794678449630737
0.50076526403427124 -0.171629786491394043 0.129965245723724365
0.533438801765441895 -0.33425024151802063 0.0283096898347139359
-0.580000162124633789 0.348769038915634155 0.0402849651873111725
0.520101428031921387 -0.241152539849281311 -0.308830916881561279
-0.60109865665435791 0.370550960302352905 0.104641780257225037
-0.500739574432373047 0.146925389766693115 0.355193078517913818
0.234126761555671692 -0.278070062398910522 0.317308783531188965
-0.181368812918663025 -0.13738347589969635 -0.055704653263092041
-0.228417336940765381 -0.138347506523132324 -0.0535917505621910095
-0.20430147647857666 0.298316776752471924 0.126654431223869324
0.262689352035522461 -0.289873331785202026 0.323603719472885132
-0.362340688705444336 -0.0308219250291585922 0.119491860270500183
-0.500185608863830566 0.0191519688814878464 0.0318285822868347168
0.243067339062690735 4.42305008618859574e-06 0.322209417819976807
0.141466781497001648 -0.290680646896362305 0.311647772789001465
0.308294296264648438 -0.207721501588821411 0.248118206858634949
-0.386207252740859985 0.254745125770568848 0.0343145392835140228
0.531337082386016846 -0.262480169534683228 0.102849535644054413
0.224279090762138367 0.0226495135575532913 0.305365204811096191
0.530720353126525879 -0.147573322057723999 -0.308356702327728271
-0.644964396953582764 0.231244966387748718 -0.0474963709712028503
0.541463136672973633 -0.311181008815765381 -0.0445355363190174103
0.5079345703125 -0.267985284328460693 -0.311612099409103394
0.514418363571166992 -0.316347181797027588 -0.295199692249298096
0.458968162536621094 -0.291126906871795654 -0.296697825193405151
-0.543222367763519287 0.268054664134979248 -0.189344674348831177
-0.62152332067489624 0.288874655961990356 0.0666433274745941162
0.363587915897369385 -0.384507238864898682 -0.206209972500801086
-0.0924329906702041626 0.267198145389556885 0.189258813858032227
-0.448559880256652832 0.131126433610916138 -0.208831191062927246
-0.5755501389503479 0.203656092286109924 -0.127099275588989258
-0.63016808032989502 0.191577985882759094 -0.0399297252297401428
-0.469868093729019165 0.138778850436210632 -0.231133639812469482
0.257849931716918945 -0.0171545352786779404 -0.072216622531414032
0.230715334415435791 0.0538175702095031738 -0.0452863946557044983
0.113225333392620087 0.109688341617584229 0.301541149616241455
-0.584220468997955322 0.218285292387008667 -0.221457540988922119
-0.598312437534332275 0.235128507018089294 -0.0108053078874945641
-0.367078691720962524 -0.0920238271355628967 0.122742608189582825
-0.33006247878074646 -0.125661164522171021 0.137190863490104675
-0.634698331356048584 0.199500963091850281 -0.0383449755609035492
-0.42576262354850769 -0.0551837161183357239 0.0991464629769325256
-0.47816997766494751 0.0199078377336263657 -0.0366212837398052216
0.208856403827667236 0.00851063430309295654 0.30074387788772583
-0.634281814098358154 0.247997984290122986 -0.0060298149473965168
-0.128025650978088379 0.269855916500091553 0.132139712572097778
0.271242082118988037 -0.330490022897720337 0.180007904767990112
0.533226668834686279 -0.210286319255828857 -0.0989734232425689697
-0.126486077904701233 -0.112919725477695465 -0.0549320429563522339
0.454262018203735352 -0.339105367660522461 -0.298215210437774658
-0.212662383913993835 0.0360561423003673553 -0.0597944669425487518
-0.553292274475097656 0.175651729106903076 0.0127432364970445633
-0.198561385273933411 0.139531925320625305 0.0210317205637693405
-0.0125127360224723816 -0.102736391127109528 -0.0430982708930969238
0.26492387056350708 -0.275080680847167969 0.202354148030281067
0.348860800266265869 -0.32129514217376709 -0.000147960381582379341
-0.155959174036979675 0.0696604475378990173 0.0274101719260215759
-0.24927106499671936 0.130681037902832031 -0.0345399938523769379
0.199314668774604797 0.0016120182117447257 0.0189386233687400818
0.0764828398823738098 0.0808169916272163391 0.0238050483167171478
-0.283546239137649536 0.288278043270111084 -0.00600623385980725288
0.477046757936477661 -0.29001268744468689 -0.301858246326446533
-0.556996703147888184 0.265699565410614014 -0.0172900054603815079
-0.23745359480381012 0.0975066646933555603 -0.032561086118221283
0.137977123260498047 -0.281071305274963379 0.149951651692390442
0.296556055545806885 -0.297569245100021362 0.0568064302206039429
-0.286132276058197021 0.257230579853057861 0.000469667545985430479
-0.0210074149072170258 -0.0405134707689285278 0.0888556241989135742
0.204703643918037415 0.0427299216389656067 0.0655691176652908325
-0.143739432096481323 -0.0854027122259140015 0.0915849730372428894
0.372736752033233643 -0.0734317824244499207 0.031428217887878418
0.521529078483581543 -0.199219986796379089 -0.0986672192811965942
0.487185895442962646 -0.298011511564254761 -0.305513679981231689
0.480645328760147095 -0.314988553524017334 0.122201599180698395
0.513755738735198975 -0.307359933853149414 -0.102549619972705841
0.496104538440704346 -0.309643268585205078 -0.309880346059799194
0.506343185901641846 -0.327993422746658325 -0.00425541633740067482
0.511940717697143555 -0.324690669775009155 0.11823609471321106
0.465977132320404053 -0.288915514945983887 -0.296713054180145264
0.438109278678894043 -0.26359286904335022 -0.1944437175989151
0.13522706925868988 0.116933673620223999 0.336919695138931274
0.396733403205871582 -0.244428351521492004 0.318662673234939575
-0.601769149303436279 0.354308515787124634 0.0655253604054450989
-0.505371749401092529 0.357195526361465454 0.178277522325515747
0.542840898036956787 -0.282653093338012695 0.0977940559387207031
0.256573915481567383 0.0369215123355388641 -0.0722194686532020569
-0.23326873779296875 0.155899643898010254 -0.00539442803710699081
0.506333231925964355 -0.332161813974380493 -0.00267763272859156132
0.444904595613479614 -0.250174373388290405 -0.2281675785779953
-0.639286577701568604 0.25448375940322876 0.0545280054211616516
0.532814681529998779 -0.262816488742828369 0.0931079760193824768
-0.393300175666809082 -0.059514559805393219 0.100331507623195648
0.524062275886535645 -0.28981703519821167 -0.0922457575798034668
0.0280041992664337158 -0.274458616971969604 -0.0354678668081760406
0.385338902473449707 -0.306202173233032227 0.118685208261013031
-0.582455098628997803 0.366854399442672729 0.13169880211353302
0.240382552146911621 0.00292893359437584877 0.180990681052207947
-0.113104552030563354 0.165480151772499084 0.347412168979644775
0.482345670461654663 -0.368545353412628174 -0.0221990980207920074
0.41232946515083313 -0.321353882551193237 -0.211181640625
0.507490694522857666 -0.155585989356040955 0.123879007995128632
0.528987228870391846 -0.334885895252227783 0.0126807233318686485
-0.584399282932281494 0.336444824934005737 0.0341066382825374603
-0.591030001640319824 0.381959617137908936 0.131260871887207031
0.526394009590148926 -0.244511991739273071 -0.310805559158325195
0.474517673254013062 -0.290935635566711426 -0.299609869718551636
-0.597496092319488525 0.353726059198379517 0.169647783041000366
-0.587622106075286865 0.371497184038162231 0.101108551025390625
-0.212228536605834961 -0.1298503577709198 -0.0578207746148109436
0.234454914927482605 -0.293169498443603516 0.314878135919570923
0.238186627626419067 0.0671743825078010559 0.31995689868927002
0.542014002799987793 -0.314021825790405273 -0.0582575537264347076
-0.444905698299407959 -0.0486326627433300018 0.12698325514793396
0.359622389078140259 -0.388585805892944336 -0.209155678749084473
-0.556829392910003662 0.211122334003448486 -0.113672077655792236
0.520944297313690186 -0.279724985361099243 -0.177266880869865417
0.242045149207115173 0.0348018407821655273 0.314435184001922607
0.242899015545845032 0.000470074446639046073 0.0235138572752475739
0.380859524011611938 0.0389555506408214569 0.0117590297013521194
0.526866674423217773 -0.230803802609443665 -0.31031268835067749
0.327145576477050781 0.0963373631238937378 -0.0360488966107368469
-0.374467372894287109 -0.0605394020676612854 -0.132999002933502197
0.513114869594573975 -0.167590945959091187 0.135774374008178711
-0.574770748615264893 0.322037994861602783 0.0494682416319847107
-0.559296607971191406 0.283436357975006104 0.364062368869781494
0.224541470408439636 0.0320093408226966858 -0.0583421811461448669
-0.574607253074645996 0.214598774909973145 -0.221094638109207153
-0.0443392097949981689 0.156608939170837402 0.0810758396983146667
0.114146687090396881 0.110127359628677368 0.0253072306513786316
0.342856079339981079 -0.247132688760757446 -0.0970318764448165894
-0.285326957702636719 0.300483644008636475 -0.0028981619980186224
0.153375163674354553 -0.00437655393034219742 -0.00372017081826925278
0.06909189373254776 0.138908147811889648 0.0755233466625213623
-0.270308375358581543 0.280225396156311035 0.00162110314704477787
0.503485918045043945 -0.292779296636581421 -0.159505069255828857
0.137032285332679749 -0.0258273426443338394 0.012966059148311615
-0.339253515005111694 -0.0322128273546695709 0.0226948130875825882
0.373551487922668457 -0.0918386206030845642 0.0441423878073692322
0.200041860342025757 0.101364657282829285 -0.0019571895245462656
-0.297481626272201538 -0.0252296384423971176 0.0358246453106403351
0.131825268268585205 -0.0178191885352134705 -0.026243237778544426
0.101450212299823761 0.0160562340170145035 0.0910793393850326538
0.17577303946018219 0.119473479688167572 0.0378942638635635376
-0.230684712529182434 -0.0638680681586265564 0.104536756873130798
0.486171066761016846 -0.296874701976776123 -0.303742051124572754
-0.60345989465713501 0.289507687091827393 0.185084313154220581
0.467367857694625854 -0.308866143226623535 0.119957529008388519
0.378425955772399902 -0.0143861938267946243 0.00623784866183996201
0.51450645923614502 -0.295489847660064697 -0.103642605245113373
0.518934786319732666 -0.239900141954421997 -0.307812720537185669
0.478003203868865967 -0.309945642948150635 -0.300495266914367676
0.48347926139831543 -0.274718552827835083 -0.300125539302825928
0.117275521159172058 0.11882028728723526 0.297486305236816406
-0.584474682807922363 0.35637548565864563 0.0657448023557662964
0.383882224559783936 -0.337500095367431641 0.1253795325756073
-0.574752986431121826 0.317703783512115479 -0.0266159549355506897
-0.60471111536026001 0.217091202735900879 -0.0869682580232620239
0.267846375703811646 0.039324585348367691 -0.0864148363471031189
-0.356642961502075195 -0.0224125180393457413 -0.131288900971412659
-0.564560890197753906 0.314332276582717896 -0.00797646399587392807
0.190702199935913086 -0.341081678867340088 -0.0749368369579315186
0.404246091842651367 -0.357856273651123047 -0.22423359751701355
-0.500488102436065674 0.145508497953414917 0.354536682367324829
0.509792864322662354 -0.151545658707618713 0.114850141108036041
0.496940463781356812 -0.264117956161499023 -0.304607659578323364
0.458060711622238159 -0.281085491180419922 -0.28996160626411438
0.441019117832183838 -0.26515805721282959 -0.28391692042350769
-0.5882912278175354 0.357480317354202271 0.0616595707833766937
0.505400240421295166 -0.126849517226219177 0.124269619584083557
-0.206405803561210632 0.312487125396728516 0.108640596270561218
0.268281370401382446 -0.284183293581008911 0.319061934947967529
0.232661619782447815 0.00354239530861377716 0.317733794450759888
0.513354301452636719 -0.175808310508728027 -0.281971275806427002
-0.115333117544651031 0.00976196210831403732 0.00574500439688563347
0.403977334499359131 -0.359885722398757935 -0.224856913089752197
0.41777375340461731 -0.313419103622436523 0.143638044595718384
-0.555780589580535889 0.376511096954345703 0.186707913875579834
-0.175801947712898254 0.30916181206703186 0.118315964937210083
-0.390012413263320923 0.276005059480667114 -0.0851406827569007874
0.365422278642654419 0.0518975555896759033 0.0244655273854732513
0.129251286387443542 0.115719705820083618 0.318716138601303101
-0.286737650632858276 -0.100912041962146759 -0.0922149196267127991
0.258236885070800781 0.100990474224090576 -0.0621799714863300323
-0.361479789018630981 -0.0600966177880764008 -0.14426383376121521
0.134204432368278503 0.113682962954044342 0.337663143873214722
-0.563374698162078857 0.199243456125259399 -0.229077056050300598
-0.27665245532989502 0.288004845380783081 -0.00100586155895143747
0.454975992441177368 -0.246638357639312744 -0.288506478071212769
0.460324555635452271 -0.27561420202255249 -0.291029214859008789
-0.635114133358001709 0.308144807815551758 0.170297175645828247
0.512643754482269287 -0.317656397819519043 -0.0387293025851249695
0.469028323888778687 -0.266006410121917725 -0.298159360885620117
0.478243470191955566 -0.29523661732673645 -0.300434589385986328
0.458233237266540527 -0.246421575546264648 -0.290078252553939819
0.381212413311004639 -0.361225903034210205 -0.214044764637947083
-0.47962498664855957 -0.0127748465165495872 0.185738265514373779
-0.516743779182434082 0.365773409605026245 0.173980340361595154
-0.6187896728515625 0.20197470486164093 -0.0872308611869812012
-0.237470492720603943 0.018632151186466217 -0.072691500186920166
-0.382773637771606445 -0.0593030564486980438 0.0235835369676351547
0.475036203861236572 -0.368535846471786499 0.0216754134744405746
-0.649503052234649658 0.236716523766517639 0.0321581289172172546
0.412675589323043823 -0.346949636936187744 -0.221831008791923523
0.526245534420013428 -0.337320983409881592 0.0799370110034942627
0.506127595901489258 -0.239202722907066345 -0.308274358510971069
0.249629974365234375 -0.282372325658798218 0.318117797374725342
0.239342331886291504 0.0666042640805244446 0.314501523971557617
0.539724469184875488 -0.302018433809280396 -0.0938202664256095886
-0.448061853647232056 -0.0416306667029857635 0.126416102051734924
-0.0438923090696334839 0.10443144291639328 0.317665368318557739
0.248101010918617249 0.0210414621978998184 0.322064638137817383
-0.285060286521911621 -0.100042931735515594 -0.0992322936654090881
-0.137873083353042603 -0.0152729228138923645 -0.0489706620573997498
-0.278089672327041626 0.337884217500686646 0.0469003356993198395
-0.254920154809951782 0.289906352758407593 -0.00334128714166581631
-0.219081789255142212 0.321910589933395386 0.0697404593229293823
-0.573490262031555176 0.152167037129402161 -0.0745625719428062439
-0.290173649787902832 0.292704135179519653 0.0159428901970386505
0.525809526443481445 -0.320834130048751831 0.0270425267517566681
0.346264868974685669 -0.030503222718834877 -0.034631386399269104
0.522428810596466064 -0.363090962171554565 0.0892746299505233765
-0.0833701044321060181 -0.112045511603355408 0.0783168822526931763
-0.404220998287200928 0.326037883758544922 0.121144704520702362
0.504926621913909912 -0.367265373468399048 -0.00462095579132437706
-0.118797250092029572 0.266109257936477661 0.120825797319412231
0.518902957439422607 -0.34313395619392395 0.0357146486639976501
0.130303949117660522 -0.334870636463165283 0.301115542650222778
0.466812074184417725 -0.311218470335006714 0.0723318606615066528
0.483040273189544678 -0.374191761016845703 0.0522007271647453308
0.421290040016174316 -0.0260448213666677475 0.0647161379456520081
0.494318455457687378 -0.363726377487182617 -0.0156715903431177139
-0.23313535749912262 0.287156939506530762 0.0840266197919845581
0.53139573335647583 -0.331938654184341431 -0.00736161181703209877
-0.272149741649627686 0.315408855676651001 0.113864041864871979
0.308411240577697754 0.00260092481039464474 0.0461501032114028931
0.467510312795639038 -0.263613700866699219 -0.296230792999267578
0.474016755819320679 -0.304486930370330811 0.11411033570766449
0.51132512092590332 -0.313826054334640503 -0.104538224637508392
0.509276390075683594 -0.245553046464920044 -0.308592647314071655
0.448033243417739868 -0.292720913887023926 -0.292918235063552856
0.466479450464248657 -0.283483624458312988 -0.29743725061416626
0.138439461588859558 0.112802408635616302 0.336603313684463501
-0.652345001697540283 0.285722672939300537 0.0979455187916755676
-0.638541281223297119 0.244801536202430725 -0.0382528416812419891
0.136413365602493286 0.0692640766501426697 0.337724894285202026
-0.577351033687591553 0.303819715976715088 -0.0556112192571163177
0.262624055147171021 0.0304963570088148117 -0.073624439537525177
0.542161822319030762 -0.216845571994781494 0.111433513462543488
-0.360273957252502441 -0.0360644124448299408 -0.134468287229537964
-0.574995994567871094 0.327514529228210449 -0.0296220090240240097
-0.361957848072052002 -0.0712518319487571716 -0.0341295711696147919
-0.130661264061927795 -0.267937302589416504 0.118926271796226501
0.495294541120529175 -0.366020888090133667 -0.000506329408381134272
0.373902857303619385 -0.359624803066253662 -0.210210934281349182
-0.378545552492141724 -0.107236608862876892 0.101170174777507782
-0.0671686306595802307 -0.264313787221908569 0.296336263418197632
0.519958376884460449 -0.243504330515861511 -0.309611886739730835
0.5096321702003479 -0.330743193626403809 0.0151354912668466568
-0.593600690364837646 0.369028419256210327 0.120519012212753296
-0.655586421489715576 0.17560945451259613 -0.10306413471698761
-0.223173618316650391 -0.144500136375427246 -0.0538986735045909882
-0.191391795873641968 0.316673964262008667 0.100594326853752136
0.256735801696777344 -0.283660709857940674 0.319552123546600342
0.239307880401611328 0.0322304479777812958 0.318971723318099976
-0.120210379362106323 -0.046309392899274826 0.00713473325595259666
-0.641792237758636475 0.308661967515945435 0.101804710924625397
0.364786237478256226 -0.374175220727920532 -0.207124844193458557
0.537946522235870361 -0.217858701944351196 0.161722570657730103
-0.552993595600128174 0.382512092590332031 0.157904282212257385
-0.122583210468292236 0.259322077035903931 0.114958532154560089
0.119532153010368347 0.102471336722373962 0.0892768502235412598
-0.375677287578582764 0.265844017267227173 -0.0896827429533004761
0.51706397533416748 -0.349235951900482178 0.0986401736736297607
-0.293712079524993896 -0.107508637011051178 -0.109471656382083893
0.275159299373626709 0.103051036596298218 -0.0578188337385654449
-0.575341641902923584 0.219510763883590698 -0.21268811821937561
-0.115617603063583374 0.268608272075653076 0.179640874266624451
0.236080914735794067 -0.288151830434799194 0.314237743616104126
0.310289591550827026 -0.187445193529129028 0.24087873101234436
0.541925013065338135 -0.326022356748580933 -0.0210595931857824326
0.0789601728320121765 -0.337992489337921143 0.282062113285064697
-0.00644825072959065437 -0.172132968902587891 0.00406184140592813492
-0.282454133033752441 0.261738955974578857 0.00690804747864603996
0.51321035623550415 -0.23727281391620636 -0.309608668088912964
-0.647149324417114258 0.278271287679672241 0.0794764980673789978
-0.646519958972930908 0.183126151561737061 -0.090914897620677948
0.514271259307861328 -0.322698891162872314 0.0241468064486980438
-0.407114475965499878 -0.0639133155345916748 0.113376207649707794
0.516978025436401367 -0.35590130090713501 -0.020764010027050972
-0.566805779933929443 0.374382466077804565 0.152411118149757385
0.236063480377197266 0.0430473648011684418 0.313519120216369629
-0.665022373199462891 0.227108225226402283 0.0230439826846122742
-0.448270499706268311 -0.0387303493916988373 0.126925155520439148
0.50312042236328125 -0.302466303110122681 -0.17903415858745575
-0.589349448680877686 0.361089080572128296 0.086023867130279541
-0.194234594702720642 0.314946472644805908 0.104711912572383881
0.247084587812423706 0.0239465124905109406 0.323658585548400879
0.531064033508300781 -0.32398948073387146 -0.0582273192703723907
-0.182973876595497131 0.307044267654418945 0.128322690725326538
0.247329205274581909 0.00701235048472881317 0.323790162801742554
0.0586913898587226868 0.139672145247459412 0.345554709434509277
-0.505913317203521729 0.149312436580657959 0.356738537549972534
0.270794600248336792 -0.31141364574432373 0.326098531484603882
-0.253907293081283569 0.0233696456998586655 -0.0709019526839256287
0.24113030731678009 -0.295464396476745605 0.322341382503509521
0.249122142791748047 0.0438379719853401184 0.314247846603393555
0.468565702438354492 -0.102010026574134827 0.0344488807022571564
-0.124840043485164642 0.195091992616653442 0.115224003791809082
0.240017890930175781 -0.326799154281616211 0.317793965339660645
0.500413239002227783 -0.366788268089294434 0.074512191116809845
0.523601710796356201 -0.324903011322021484 0.0260661076754331589
0.444766849279403687 -0.253376096487045288 0.332217663526535034
0.321614831686019897 -0.131550416350364685 -0.106853365898132324
0.0633800625801086426 -0.0108347460627555847 0.32150644063949585
0.511461734771728516 -0.361088395118713379 0.0473719984292984009
0.135750353336334229 -0.10082719475030899 0.0403289683163166046
0.0495639406144618988 0.0114635219797492027 0.0295123159885406494
0.0208084434270858765 0.0481665469706058502 0.042378012090921402
0.0881617814302444458 -0.0661832317709922791 0.289445161819458008
-0.162215813994407654 -0.266026288270950317 0.14782300591468811
0.265111029148101807 -0.0201889276504516602 0.0613536834716796875
-0.0289567951112985611 -0.0291587915271520615 0.295363873243331909
0.502280533313751221 -0.240519747138023376 -0.302192658185958862
0.47603839635848999 -0.315179973840713501 -0.302129775285720825
-0.63109433650970459 0.30629393458366394 0.167281210422515869
0.475652098655700684 -0.321007102727890015 0.12087586522102356
0.509237825870513916 -0.301048159599304199 -0.105701848864555359
0.528324425220489502 -0.275111347436904907 -0.317368745803833008
0.493647456169128418 -0.332650661468505859 -0.310880213975906372
0.503697872161865234 -0.320328056812286377 0.0978711396455764771
0.474289119243621826 -0.306011766195297241 -0.298283249139785767
-0.559528231620788574 0.268077582120895386 0.364386409521102905
0.125113263726234436 0.116849765181541443 0.314016997814178467
-0.633742928504943848 0.282240748405456543 0.0542142540216445923
-0.587537407875061035 0.362843304872512817 0.10235951840877533
0.371624618768692017 -0.374326437711715698 -0.212901681661605835
0.438635677099227905 -0.348190516233444214 0.154203116893768311
0.0581778474152088165 0.121285714209079742 0.320929944515228271
-0.574756383895874023 0.36885380744934082 0.215456485748291016
0.264885634183883667 0.0246012639254331589 -0.0588278584182262421
0.368965625762939453 -0.337010025978088379 0.160478070378303528
0.510678887367248535 -0.301768273115158081 -0.112150579690933228
0.133708864450454712 -0.320959359407424927 -0.0979660302400588989
0.516757488250732422 -0.349024206399917603 -0.0204213187098503113
0.389421999454498291 -0.347041606903076172 -0.214261263608932495
-0.577194809913635254 0.319099158048629761 0.0407259613275527954
0.536140978336334229 -0.278082877397537231 -0.320772260427474976
0.467996984720230103 -0.311149775981903076 -0.299419581890106201
0.507385849952697754 -0.347360104322433472 0.0178003404289484024
-0.556081593036651611 0.309733480215072632 0.102175086736679077
0.194015681743621826 -0.33969452977180481 -0.0593445375561714172
0.0701761767268180847 -0.282609224319458008 -0.0780945867300033569
0.252610236406326294 -0.250502616167068481 0.320014446973800659
0.240102678537368774 0.030872127041220665 0.316749602556228638
-0.121071815490722656 -0.0481098629534244537 0.00798906665295362473
0.178908437490463257 -0.100371532142162323 -0.0149828791618347168
0.53265613317489624 -0.33254578709602356 -0.0133007196709513664
0.370493084192276001 -0.349771887063980103 -0.20904192328453064
0.535197615623474121 -0.246032580733299255 0.177139192819595337
0.561265885829925537 -0.316048711538314819 -0.331100910902023315
0.55477827787399292 -0.21190546452999115 0.133787855505943298
-0.543457388877868652 0.380811303853988647 0.164441615343093872
0.123034700751304626 0.11713697761297226 0.132953152060508728
-0.582417428493499756 0.351958245038986206 0.0977489277720451355
-0.481742769479751587 0.185853257775306702 -0.09160614013671875
0.515844881534576416 -0.3394298255443573 0.0387072339653968811
0.25361555814743042 -0.279435098171234131 0.3218364417552948
0.278669029474258423 -0.356292456388473511 -0.126222103834152222
0.508047163486480713 -0.286899775266647339 -0.313841640949249268
-0.432253599166870117 -0.0575864836573600769 0.116603046655654907
0.202170893549919128 0.0904378071427345276 0.223203718662261963
0.244488880038261414 0.104539908468723297 -0.0573892854154109955
-0.195784494280815125 0.201461866497993469 0.349156439304351807
0.250668346881866455 0.024835461750626564 0.323183029890060425
0.240021198987960815 0.0189204197376966476 0.320874303579330444
-0.0313985906541347504 0.162635341286659241 0.382494479417800903
-0.482619822025299072 -0.0159876476973295212 0.180091574788093567
0.484038650989532471 -0.369358986616134644 0.0459543392062187195
-0.64367222785949707 0.287090003490447998 0.0861923694610595703
0.276146262884140015 -0.16606159508228302 -0.0706544965505599976
-0.411918878555297852 -0.0572626665234565735 0.0788162350654602051
-0.643177568912506104 0.175584360957145691 -0.0820057392120361328
-0.226014390587806702 -0.134386792778968811 -0.0523572079837322235
0.255120754241943359 -0.265840888023376465 0.320997565984725952
-0.345457136631011963 0.0169803891330957413 -0.117018193006515503
-0.287235736846923828 -0.0920076146721839905 -0.106640107929706573
-0.585238039493560791 0.209715768694877625 -0.217993184924125671
0.26777985692024231 -0.297308474779129028 0.315076887607574463
-0.0255640298128128052 -0.187703445553779602 -0.043638136237859726
-0.618226587772369385 0.276878327131271362 0.0313924588263034821
-0.609003126621246338 0.298207134008407593 0.0924573168158531189
-0.397656410932540894 -0.0632641762495040894 0.118795573711395264
-0.45180743932723999 -0.0385601893067359924 0.119409412145614624
0.431341052055358887 -0.272015392780303955 0.32909315824508667
-0.0523887574672698975 0.140663951635360718 0.0915698930621147156
-0.503179609775543213 0.150937348604202271 0.355354130268096924
0.240979775786399841 -0.319619446992874146 0.322692036628723145
0.497419923543930054 -0.37117922306060791 0.0572739504277706146
0.399532139301300049 -0.257132142782211304 0.322366386651992798
-0.158366456627845764 -0.264001607894897461 0.181460216641426086
-0.499290972948074341 0.0136886471882462502 0.158018752932548523
0.417815893888473511 -0.297655940055847168 0.328642457723617554
0.53557819128036499 -0.340538769960403442 -0.0185299888253211975
0.344505220651626587 -0.267751067876815796 -0.127986028790473938
-0.49660336971282959 0.0716918110847473145 0.203915834426879883
0.443885475397109985 -0.272458910942077637 0.333321601152420044
0.522324204444885254 -0.3357430100440979 0.0327096208930015564
0.453557491302490234 -0.320287913084030151 -0.293160378932952881
0.474534809589385986 -0.312017083168029785 0.116613946855068207
0.51742851734161377 -0.278784126043319702 -0.312953084707260132
0.50285869836807251 -0.326332658529281616 -0.314446747303009033
0.518419802188873291 -0.327455073595046997 0.101835623383522034
0.479516953229904175 -0.311814337968826294 -0.302300304174423218
0.114706210792064667 0.118448890745639801 0.288875222206115723
-0.121935091912746429 0.268550217151641846 0.158659189939498901
-0.614973783493041992 0.265343934297561646 0.0520878545939922333
-0.479507535696029663 0.00268936529755592346 0.181268468499183655
0.426968753337860107 -0.355385512113571167 0.15848386287689209
-0.292408138513565063 -0.111094869673252106 -0.105896472930908203
0.130658984184265137 0.0653360262513160706 0.321089029312133789
0.253944694995880127 0.0385299287736415863 -0.0779401510953903198
0.235709622502326965 0.0937547609210014343 -0.0532147996127605438
0.417907744646072388 -0.261918634176254272 -0.202474445104598999
0.521968424320220947 -0.355024665594100952 -0.0195461586117744446
-0.609052419662475586 0.381032764911651611 0.181233674287796021
0.517779111862182617 -0.279685229063034058 -0.31487572193145752
0.499409407377243042 -0.350371420383453369 0.0239927954971790314
-0.588021397590637207 0.369218260049819946 0.113043725490570068
0.506294965744018555 -0.10495758056640625 0.147171929478645325
-0.198095977306365967 0.311477869749069214 0.112829826772212982
0.264227896928787231 -0.286891579627990723 0.319665402173995972
0.237138569355010986 0.0619974508881568909 0.310411751270294189
-0.144525974988937378 -0.0438554994761943817 0.00405719969421625137
-0.657931745052337646 0.214510560035705566 -0.0461667105555534363
-0.288689553737640381 -0.0764338821172714233 -0.0687342435121536255
0.22745870053768158 0.041999373584985733 -0.0482949987053871155
0.551861703395843506 -0.144748389720916748 0.131928384304046631
0.520068705081939697 -0.295712798833847046 0.0748030990362167358
0.517831861972808838 -0.284433066844940186 -0.181298255920410156
-0.358179032802581787 -0.0175151992589235306 -0.0280419811606407166
0.0916305556893348694 0.0880311727523803711 0.0856290087103843689
0.466924846172332764 -0.362279891967773438 -0.0107594979926943779
-0.433075189590454102 0.157490924000740051 -0.066538102924823761
0.524093031883239746 -0.336009562015533447 0.0688121244311332703
0.263087540864944458 -0.286260902881622314 0.318388462066650391
0.00941147096455097198 -0.0913468822836875916 -0.026271698996424675
0.0326169282197952271 -0.130764499306678772 0.0217132717370986938
-0.630885481834411621 0.26485753059387207 0.0290562603622674942
0.242345869541168213 0.0741765573620796204 0.318680167198181152
0.240410163998603821 0.0293964333832263947 0.318762838840484619
-0.174871891736984253 0.3007546067237854 0.116201303899288177
0.304843366146087646 -0.151557967066764832 0.307678461074829102
0.262120515108108521 -0.291063994169235229 0.320874243974685669
-0.476329505443572998 -0.00858103670179843903 0.166146129369735718
0.242982938885688782 0.081618189811706543 0.312038689851760864
0.520514428615570068 -0.351667463779449463 0.0818490609526634216
-0.034888189285993576 -0.238062232732772827 0.12394946813583374
-0.638488411903381348 0.289870947599411011 0.0988163948059082031
-0.234333142638206482 -0.1333627849817276 -0.0581413730978965759
-0.379394292831420898 -0.109316051006317139 0.105438061058521271
-0.236542984843254089 -0.148399174213409424 -0.0579879432916641235
-0.658143043518066406 0.214204534888267517 -0.0338734537363052368
0.529153227806091309 -0.353000819683074951 0.0777920261025428772
-0.621331393718719482 0.27012285590171814 0.0524861440062522888
-0.404277056455612183 -0.0648106485605239868 0.11197025328874588
-0.446466386318206787 -0.0419501625001430511 0.12191329151391983
0.268191725015640259 -0.285950720310211182 0.323349595069885254
0.127721145749092102 -0.327023744583129883 0.312448322772979736
0.152390196919441223 -0.343508094549179077 0.317724764347076416
0.447883129119873047 -0.336052805185317993 -0.293132126331329346
0.515983402729034424 -0.303346425294876099 -0.10807008296251297
0.515400528907775879 -0.280656874179840088 -0.312971413135528564
0.485023826360702515 -0.328101485967636108 -0.309929251670837402
0.464496880769729614 -0.346317946910858154 -0.302802443504333496
0.549770534038543701 -0.210588276386260986 -0.316125273704528809
0.524262964725494385 -0.300451487302780151 -0.32262110710144043
0.518128514289855957 -0.301262825727462769 -0.318517059087753296
0.247066214680671692 0.0568873882293701172 0.316274046897888184
0.241551622748374939 0.0873746126890182495 0.312605947256088257
-0.291863173246383667 -0.101095959544181824 -0.102029033005237579
-0.453723251819610596 -0.0524411611258983612 0.1170082688331604
0.405001521110534668 -0.272559553384780884 0.322412073612213135
-0.502550780773162842 0.00337848044000566006 0.189059272408485413
0.401290267705917358 -0.287544727325439453 0.324728608131408691
0.39944031834602356 -0.273855865001678467 0.323207288980484009
0.342466115951538086 -0.259307235479354858 0.0899850502610206604
-0.0187812782824039459 -0.244852170348167419 0.128521174192428589
-0.464655935764312744 0.035613279789686203 0.189477473497390747
-0.194485694169998169 0.221431806683540344 0.171938300132751465
0.367054402828216553 -0.32965773344039917 -0.0236316975206136703
0.323562085628509521 -0.390538901090621948 -0.15900808572769165
0.535657763481140137 -0.323997080326080322 -0.0583283528685569763
-0.441909641027450562 -0.00513837719336152077 0.152623862028121948
-0.01911119744181633 -0.059845510870218277 0.141586080193519592
-0.000214345287531614304 -0.23658008873462677 0.106238327920436859
0.526444196701049805 -0.202112212777137756 -0.0801537483930587769
0.449945807456970215 -0.308728605508804321 -0.293019533157348633
0.526996612548828125 -0.275814026594161987 -0.315823405981063843
0.500054299831390381 -0.325282365083694458 -0.312816590070724487
0.475369542837142944 -0.305441081523895264 -0.297535717487335205
-0.127502933144569397 0.246500939130783081 0.138844147324562073
-0.649188816547393799 0.281895726919174194 0.0942042618989944458
-0.199090868234634399 0.286557525396347046 0.335785567760467529
0.498278260231018066 -0.0869601666927337646 0.13653893768787384
0.200870469212532043 -0.359626710414886475 -0.090966247022151947
0.505638539791107178 -0.368052959442138672 -0.0228043869137763977
0.52751624584197998 -0.242977485060691833 0.172842040657997131
-0.586176574230194092 0.379252642393112183 0.170619502663612366
0.44516223669052124 -0.31532365083694458 -0.287893474102020264
0.498854398727416992 -0.111339554190635681 0.112051807343959808
-0.655965149402618408 0.175293117761611938 -0.103761285543441772
-0.202073901891708374 0.308674395084381104 0.0890465900301933289
0.201472818851470947 -0.013802163302898407 0.295129597187042236
0.160159274935722351 -0.0624265857040882111 -0.0442116931080818176
-0.579764425754547119 0.30214419960975647 0.368602484464645386
0.275265336036682129 0.0982832536101341248 -0.0292467847466468811
-0.435446828603744507 0.15519183874130249 -0.0860599055886268616
0.534687936305999756 -0.333400219678878784 0.0126435020938515663
-0.568953335285186768 0.197157725691795349 -0.229085654020309448
-0.497809231281280518 0.044680517166852951 -0.0868927985429763794
0.0314794294536113739 -0.104345887899398804 0.0328675694763660431
0.534250974655151367 -0.264848172664642334 -0.316469371318817139
0.00984769314527511597 0.197557687759399414 0.0274536740034818649
0.302360117435455322 0.0387533307075500488 -0.0846093595027923584
-0.332290083169937134 -0.0163640230894088745 -0.107786588370800018
0.236680001020431519 0.014273839071393013 0.321679174900054932
0.125189423561096191 0.0127840191125869751 0.298816800117492676
0.527769744396209717 -0.355520397424697876 0.0662388056516647339
0.46726614236831665 -0.310209870338439941 -0.233254954218864441
-0.652168571949005127 0.285237699747085571 0.10430976003408432
0.546859800815582275 -0.220245510339736938 0.163400352001190186
0.528282105922698975 -0.32372438907623291 -0.0161471348255872726
-0.383093506097793579 -0.0567984692752361298 0.0761466696858406067
0.457068353891372681 -0.311210453510284424 -0.292716175317764282
0.505127906799316406 -0.340209066867828369 -0.31805187463760376
0.478985756635665894 -0.314690768718719482 -0.299658715724945068
0.520536601543426514 -0.301667541265487671 -0.317481189966201782
-0.00222145370207726955 -0.140373513102531433 -0.0249477941542863846
0.397773981094360352 -0.273413807153701782 0.323382198810577393
0.401445686817169189 -0.271839797496795654 0.323687344789505005
0.506362378597259521 -0.332314163446426392 0.105762898921966553
-0.467651069164276123 0.042155098170042038 0.170592814683914185
0.410299241542816162 -0.346203267574310303 0.156502589583396912
-0.360887140035629272 -0.0356745123863220215 -0.148170650005340576
-0.128193870186805725 -0.268177986145019531 0.112288244068622589
0.512858867645263672 -0.369390487670898438 -0.0147474734112620354
-0.213703706860542297 0.312474995851516724 0.097581036388874054
0.250784516334533691 -0.287407845258712769 0.322811692953109741
0.209158599376678467 0.00925965979695320129 -0.0462320856750011444
0.0700978711247444153 -0.151875331997871399 -0.0173647962510585785
-0.1697092205286026 0.304709941148757935 0.118765152990818024
0.471385300159454346 -0.364696472883224487 0.00696571031585335732
-0.290983378887176514 -0.0998853817582130432 -0.103286541998386383
0.0365685410797595978 -0.150049701333045959 -0.0218308921903371811
0.232431605458259583 0.0561095811426639557 0.309095680713653564
0.253592193126678467 -0.288969367742538452 0.320593684911727905
-0.471747517585754395 0.000818853441160172224 0.168609797954559326
0.241255998611450195 0.0625725090503692627 0.312995582818984985
0.509247779846191406 -0.352361798286437988 0.0638870671391487122
0.227604418992996216 -0.315138518810272217 0.314495950937271118
-0.375388383865356445 -0.0935691893100738525 0.0861180722713470459
-0.0626541450619697571 -0.242021381855010986 0.302449613809585571
-0.222679764032363892 -0.128093793988227844 -0.0532035566866397858
-0.40989348292350769 -0.0658276602625846863 0.0984649062156677246
-0.445010125637054443 -0.0450740382075309753 0.132686033844947815
0.239172235131263733 -0.29436144232749939 0.314367979764938354
0.154064759612083435 -0.324705302715301514 0.320036232471466064
0.425590842962265015 -0.256315469741821289 0.328533530235290527
0.438433736562728882 -0.343282461166381836 -0.292785167694091797
0.506547808647155762 -0.334909349679946899 -0.318197399377822876
0.445285439491271973 -0.35263100266456604 -0.286840111017227173
0.238521307706832886 0.0656367093324661255 0.312274575233459473
0.403518110513687134 -0.28777313232421875 0.325853019952774048
-0.494772404432296753 0.00641160784289240837 0.188342750072479248
0.486127346754074097 -0.0633778125047683716 0.131667450070381165
0.0126773519441485405 -0.171114280819892883 0.00973459053784608841
0.531857788562774658 -0.307924985885620117 -0.0622957311570644379
0.315059751272201538 -0.302607119083404541 -0.126917943358421326
0.446134179830551147 -0.291654437780380249 -0.285756409168243408
-0.336856365203857422 0.224565356969833374 0.125676751136779785
-0.400820016860961914 -0.0285165552049875259 -0.00194655591621994972
0.403431862592697144 -0.271982461214065552 0.32407081127166748
-0.133148059248924255 0.19567166268825531 0.167671546339988708
0.399480581283569336 -0.271919578313827515 0.323883950710296631
-0.446480691432952881 -0.0252835247665643692 0.021385636180639267
-0.13782915472984314 0.244761362671852112 0.191627427935600281
-0.612734019756317139 0.293958783149719238 0.183742865920066833
0.124826550483703613 0.115981429815292358 0.316605985164642334
-0.120752997696399689 0.250505954027175903 0.161763787269592285
-0.583246171474456787 0.348123341798782349 0.0581750050187110901
0.427211731672286987 -0.348375827074050903 0.15298791229724884
-0.566681802272796631 0.295027762651443481 -0.0689335539937019348
0.252202808856964111 0.0266491994261741638 -0.0796675682067871094
0.248013868927955627 0.10038447380065918 -0.0484317503869533539
-0.35736161470413208 -0.0560448728501796722 -0.141910165548324585
0.199065983295440674 0.12020343542098999 0.0356810502707958221
0.545991837978363037 -0.131681740283966064 0.111926339566707611
-0.581566095352172852 0.321733206510543823 -0.022793252021074295
0.20650896430015564 0.0245810896158218384 0.17676699161529541
-0.595263063907623291 0.375125616788864136 0.172033607959747314
0.445195645093917847 -0.319454491138458252 0.127319559454917908
0.25539746880531311 -0.278930604457855225 0.316437602043151855
0.235898375511169434 0.0237159542739391327 0.316524386405944824
-0.362791895866394043 -0.0500514842569828033 -0.0238164328038692474
-0.182474821805953979 0.118019744753837585 0.0422484427690505981
0.255109995603561401 -0.288373112678527832 0.31925433874130249
0.242338463664054871 0.0330994948744773865 0.321789354085922241
0.400280922651290894 0.0233371034264564514 0.115109562873840332
-0.340397536754608154 -0.0664060637354850769 -0.147361099720001221
0.0760133117437362671 -0.333236455917358398 0.298899561166763306
-0.386617034673690796 -0.061051487922668457 0.0937787070870399475
-0.448043346405029297 -0.0415461026132106781 0.127696454524993896
0.439735680818557739 -0.279448330402374268 0.333608567714691162
0.0347201898694038391 -0.12308153510093689 -0.0257377661764621735
0.414696782827377319 -0.280904412269592285 0.326951473951339722
0.433406174182891846 -0.296204596757888794 0.333112448453903198
0.368274033069610596 -0.278879761695861816 -0.130380138754844666
-0.477232933044433594 0.00124816852621734142 0.188289642333984375
-0.291395962238311768 -0.0965907871723175049 -0.104617118835449219
0.241724416613578796 -0.313157320022583008 0.309615492820739746
0.47360914945602417 -0.354415774345397949 0.00697320001199841499
-0.296225428581237793 -0.096836484968662262 -0.107065148651599884
0.245082706212997437 -0.288726240396499634 0.320006638765335083
0.062541767954826355 -0.329943090677261353 0.296983510255813599
0.158322259783744812 -0.267993330955505371 -0.105654433369636536
0.250556826591491699 0.0633864328265190125 0.315421998500823975
-0.48234906792640686 -0.00809922441840171814 0.177911490201950073
0.236691504716873169 0.0665528029203414917 0.314776003360748291
0.239057853817939758 -0.331969678401947021 0.321345418691635132
-0.382082819938659668 -0.0922472178936004639 0.0366859287023544312
-0.215942889451980591 -0.140337556600570679 -0.0544396936893463135
-0.382520496845245361 -0.0638628304004669189 0.0834940224885940552
0.150270327925682068 -0.331817686557769775 0.331826299428939819
0.446257472038269043 -0.279979944229125977 0.333532452583312988
0.407807469367980957 -0.280616462230682373 0.325063884258270264
-0.501861572265625 0.00639489898458123207 0.188658103346824646
-0.321750015020370483 0.0971175581216812134 -0.0703039243817329407
0.532956242561340332 -0.207646623253822327 -0.0527287498116493225
0.451326638460159302 -0.294094264507293701 -0.290645122528076172
0.487784653902053833 -0.3254527747631073 -0.311059683561325073
0.446767449378967285 -0.309943437576293945 -0.291008502244949341
-0.577613413333892822 0.269133031368255615 0.365788877010345459
-0.461295425891876221 0.105667389929294586 -0.231002628803253174
0.375255674123764038 -0.318849086761474609 0.199011906981468201
-0.589630007743835449 0.366879940032958984 0.131261751055717468
0.392923027276992798 -0.353663802146911621 -0.21763196587562561
0.441463261842727661 -0.310486257076263428 -0.289217978715896606
-0.200455576181411743 0.305400162935256958 0.0949054136872291565
-0.155275434255599976 0.267877817153930664 0.151584923267364502
0.530254900455474854 -0.338641077280044556 0.0717289596796035767
0.464206308126449585 -0.26632380485534668 -0.217823460698127747
-0.633350908756256104 0.27563023567199707 0.107060588896274567
0.438784986734390259 -0.308778107166290283 -0.287389010190963745
0.515841424465179443 -0.277399450540542603 -0.317023366689682007
0.51695173978805542 -0.340563833713531494 -0.320932447910308838
0.45473131537437439 -0.307257741689682007 -0.293443858623504639
0.49134787917137146 -0.322116434574127197 0.0942895188927650452
0.020879007875919342 -0.276123851537704468 -0.0186993144452571869
-0.653898179531097412 0.171826809644699097 -0.108044475317001343
-0.224502682685852051 0.318496257066726685 0.121305868029594421
0.465779602527618408 -0.364302635192871094 0.00580329867079854012
0.481512486934661865 -0.337009191513061523 0.0501757189631462097
0.511853814125061035 -0.339623421430587769 -0.31959185004234314
0.440539747476577759 -0.356785029172897339 -0.297795295715332031
-0.269843101501464844 0.321967452764511108 0.0418497845530509949
0.424505054950714111 -0.313502192497253418 -0.282083183526992798
0.415894836187362671 -0.295366078615188599 0.328398793935775757
-0.325920075178146362 -0.0756720602512359619 0.123418815433979034
-0.36670994758605957 -0.0669886618852615356 0.154633671045303345
-0.338108807802200317 0.21472524106502533 0.132811769843101501
0.0103750778362154961 0.119317539036273956 0.105050608515739441
0.542466342449188232 -0.309394598007202148 -0.0463262610137462616
0.0139079578220844269 -0.262095451354980469 0.0393914170563220978
-0.00328267575241625309 -0.236858993768692017 0.094148196280002594
0.000479972077300772071 -0.219889596104621887 0.0814062654972076416
0.465359598398208618 -0.361156314611434937 0.0302051808685064316
-0.269212931394577026 -0.138319790363311768 0.177430406212806702
-0.344911932945251465 -0.0661591887474060059 0.141219377517700195
0.12379109114408493 -0.276946276426315308 0.128866672515869141
-0.133642300963401794 0.0786566957831382751 0.0902027711272239685
0.463943511247634888 -0.0544694438576698303 0.0174618978053331375
-0.0138645591214299202 -0.217205986380577087 0.0802481099963188171
-0.55460822582244873 0.391591340303421021 0.147774398326873779
0.497047632932662964 -0.3670310378074646 0.00513472547754645348
-0.610562682151794434 0.293956547975540161 0.186545670032501221
0.530377566814422607 -0.27546343207359314 -0.317859470844268799
0.370770692825317383 -0.264793306589126587 0.181425973773002625
