ply
format ascii 1.0
element vertex 737
property float x
property float y
property float z
end_header
-0.559492886066436768 0.317949235439300537 0.354344964027404785
0.179148375988006592 -0.103929325938224792 -0.0165591500699520111
0.306041896343231201 0.0183415375649929047 -0.112186059355735779
0.50616157054901123 -0.337674915790557861 0.0245523992925882339
0.404504597187042236 0.0228501353412866592 0.00770999118685722351
0.475061088800430298 -0.288017779588699341 -0.300463616847991943
0.0103958779945969582 0.154392346739768982 0.0571095496416091919
0.522996187210083008 -0.300245910882949829 -0.0983063057065010071
-0.380918741226196289 0.334306269884109497 0.204689174890518188
-0.551060676574707031 0.337796598672866821 0.12433943897485733
0.418335705995559692 -0.252453058958053589 0.0976464226841926575
-0.580141663551330566 0.208612754940986633 -0.215277105569839478
0.278217583894729614 -0.0849586650729179382 0.19019615650177002
-0.129882141947746277 0.224817469716072083 0.126245051622390747
-0.382255673408508301 0.104366526007652283 -0.0635847747325897217
0.551309585571289062 -0.219955578446388245 0.113914966583251953
0.383479654788970947 -0.242271482944488525 0.313612431287765503
-0.552761077880859375 0.163474708795547485 0.0795293748378753662
-0.134552091360092163 0.201746106147766113 0.168171927332878113
0.242109894752502441 0.110155791044235229 -0.0494523309171199799
0.116372101008892059 0.0400503352284431458 0.327946662902832031
-0.559162437915802002 0.278338015079498291 0.0021648164838552475
0.319721341133117676 -0.132579699158668518 -0.0801796987652778625
-0.574987709522247314 0.200639888644218445 -0.226223215460777283
0.207684651017189026 0.118181556463241577 0.0447848886251449585
0.463584333658218384 -0.308056831359863281 0.134436249732971191
-0.585331082344055176 0.320057868957519531 -0.025128290057182312
0.530282914638519287 -0.253269791603088379 0.0978720784187316895
-0.309787660837173462 0.0828680172562599182 -0.0725231543183326721
-0.449484497308731079 0.00882267951965332031 -0.14040568470954895
-0.301190197467803955 0.291072249412536621 0.146141991019248962
-0.526405096054077148 0.181934505701065063 -0.215521439909934998
-0.391608595848083496 -0.0582579374313354492 0.100614652037620544
-0.545305311679840088 0.263104081153869629 -0.164978131651878357
0.313533276319503784 -0.333867967128753662 0.197521790862083435
-0.059858415275812149 0.0942826196551322937 0.321059912443161011
-0.101735539734363556 0.144072681665420532 0.0932825580239295959
0.499610960483551025 -0.362616837024688721 0.0760293230414390564
0.348787248134613037 -0.282647311687469482 -0.135367006063461304
-0.41231459379196167 0.198453143239021301 0.0361606217920780182
-0.34513208270072937 0.252053141593933105 -0.0136853838339447975
-0.267445921897888184 0.0793000459671020508 -0.0148646309971809387
-0.180763736367225647 0.0189647190272808075 0.0394029989838600159
-0.553302764892578125 0.212976321578025818 -0.0476480163633823395
0.407640904188156128 -0.400631368160247803 -0.215997323393821716
0.517495632171630859 -0.284974038600921631 -0.100615106523036957
0.395095407962799072 -0.264214932918548584 -0.194060474634170532
0.497728198766708374 -0.274061769247055054 -0.301119059324264526
0.434365898370742798 -0.257042825222015381 -0.00218878127634525299
-0.154419839382171631 -0.243715032935142517 0.148776650428771973
-0.630024731159210205 0.194737330079078674 -0.0479565486311912537
-0.354886114597320557 0.000753927568439394236 -0.15136285126209259
-0.501006662845611572 0.14666004478931427 0.346088200807571411
-0.331591695547103882 0.300103902816772461 0.190890341997146606
-0.334517568349838257 -0.0312452875077724457 -0.132497936487197876
0.112996570765972137 0.0957027897238731384 0.0289681404829025269
0.469911515712738037 -0.134739741683006287 0.0991202667355537415
0.398823916912078857 -0.304689079523086548 0.144922077655792236
-0.457155376672744751 0.167995154857635498 0.116616994142532349
-0.53620445728302002 0.287659585475921631 0.0418923795223236084
-0.276223599910736084 -0.127252906560897827 0.0817971229553222656
-0.482921481132507324 0.249462485313415527 -0.103153333067893982
0.17104262113571167 -0.271713703870773315 0.0364178158342838287
-0.344575107097625732 0.103839769959449768 0.00636170059442520142
-0.36591804027557373 0.283321470022201538 0.0868428424000740051
0.386394292116165161 -0.229747369885444641 -0.122066870331764221
-0.352992832660675049 0.00282933772541582584 0.0351300090551376343
-0.517940044403076172 0.202358096837997437 0.0489779375493526459
-0.384882986545562744 0.183228909969329834 0.0920039564371109009
-0.571670413017272949 0.328491181135177612 -0.0118393460288643837
-0.338979214429855347 -0.087375052273273468 -0.0540944337844848633
-0.136902153491973877 -0.268606185913085938 0.130299821496009827
0.274887830018997192 -0.165552496910095215 0.0547564253211021423
0.313009083271026611 -0.302321374416351318 -0.128621965646743774
-0.381164371967315674 0.250687956809997559 0.2332935631275177
0.310586631298065186 -0.216837257146835327 0.201026409864425659
0.496221989393234253 -0.254713535308837891 -0.105737827718257904
-0.118997439742088318 0.0729465335607528687 0.173496261239051819
0.512398123741149902 -0.361721813678741455 -0.030971236526966095
-0.509041070938110352 0.269380927085876465 -0.00510601140558719635
-0.595061361789703369 0.244253650307655334 -0.0028746449388563633
-0.58619391918182373 0.251362830400466919 0.194176614284515381
-0.547636985778808594 0.12161342054605484 -0.134315311908721924
-0.244915902614593506 0.183147653937339783 0.35689842700958252
0.462322473526000977 -0.26398700475692749 -0.290674775838851929
0.456036657094955444 -0.2557220458984375 -0.187195360660552979
0.519293665885925293 -0.302591949701309204 0.044276408851146698
-0.625558078289031982 0.200577393174171448 0.0447836555540561676
-0.255742430686950684 -0.00430397409945726395 -0.0622765831649303436
0.245366588234901428 0.0992623642086982727 -0.0692982897162437439
0.50482785701751709 -0.159737482666969299 0.130604222416877747
0.343019723892211914 -0.0697683617472648621 0.16181616485118866
0.399737924337387085 -0.236852049827575684 0.13013012707233429
-0.359557390213012695 -0.118413649499416351 0.116460993885993958
-0.478936761617660522 0.189969718456268311 0.0638626813888549805
-0.574559152126312256 0.342325359582901001 0.0251537952572107315
-0.358927905559539795 -0.0629669725894927979 0.0908178761601448059
-0.342686921358108521 0.011980854906141758 -0.114500842988491058
0.302901655435562134 -0.295576274394989014 0.161943539977073669
-0.504548966884613037 0.221314877271652222 0.141821369528770447
-0.48507082462310791 0.0287731438875198364 -0.0469703115522861481
0.0331412181258201599 0.0882415845990180969 0.0876490324735641479
-0.231477722525596619 0.347556233406066895 0.148742213845252991
0.0318603850901126862 0.0107936309650540352 0.041887231171131134
-0.36563640832901001 -0.036378517746925354 -0.0328145325183868408
-0.0481532588601112366 -0.233827635645866394 0.301767557859420776
0.185794800519943237 -0.292578130960464478 0.0035545367281883955
0.234595358371734619 -0.0113449897617101669 0.230059176683425903
-0.526366531848907471 0.141013294458389282 0.0679430738091468811
-0.520197451114654541 0.201755031943321228 -0.0674660131335258484
-0.552151858806610107 0.286057710647583008 0.10743509978055954
0.143712416291236877 0.00806805025786161423 0.307654321193695068
0.0678780898451805115 -0.285878688097000122 -0.0815754979848861694
-0.361916154623031616 0.0356070324778556824 -0.161248013377189636
0.307248055934906006 -0.293434858322143555 0.0293585807085037231
-0.339209914207458496 0.213790759444236755 0.159164562821388245
-0.188142269849777222 0.200441911816596985 0.367762833833694458
-0.539969265460968018 0.255198031663894653 -0.084195844829082489
0.522493720054626465 -0.19951881468296051 -0.0929589197039604187
-0.51895904541015625 0.185687810182571411 0.136436581611633301
-0.543573975563049316 0.270319521427154541 -0.00250807055272161961
0.470979273319244385 -0.326110720634460449 0.0443713776767253876
0.288757055997848511 0.0311876069754362106 0.0534604042768478394
0.433139234781265259 -0.305959731340408325 -0.285346001386642456
-0.518530011177062988 0.0903623104095458984 -0.135149672627449036
-0.600513577461242676 0.285652458667755127 0.183920279145240784
0.46750757098197937 -0.321027219295501709 0.127172842621803284
0.467485815286636353 -0.260498285293579102 -0.293940544128417969
-0.403968840837478638 0.300897747278213501 0.142794147133827209
-0.454173773527145386 0.119782254099845886 -0.223976656794548035
0.481406688690185547 -0.311784327030181885 -0.302743613719940186
0.468061655759811401 -0.330594927072525024 -0.00323836226016283035
0.45713728666305542 -0.305215269327163696 -0.292680978775024414
0.524131894111633301 -0.261871397495269775 -0.102312438189983368
-0.408726096153259277 0.319002896547317505 0.162660375237464905
-0.560734570026397705 0.267905175685882568 0.365229785442352295
-0.576082468032836914 0.210873112082481384 -0.200864657759666443
0.447278797626495361 -0.296510398387908936 -0.22330358624458313
0.310279399156570435 -0.0760810375213623047 0.148585796356201172
0.534530043601989746 -0.248179048299789429 0.100917346775531769
-0.562516570091247559 0.120092533528804779 -0.233309894800186157
-0.408146977424621582 0.0770239084959030151 -0.116604156792163849
-0.579639911651611328 0.356703728437423706 0.0825609415769577026
0.0412987358868122101 0.114783912897109985 0.31219056248664856
-0.456607848405838013 0.00925007928162813187 0.181631043553352356
0.40928986668586731 -0.343789607286453247 0.159728258848190308
-0.554674863815307617 0.288826793432235718 -0.0493057072162628174
0.543035030364990234 -0.255835980176925659 0.113358356058597565
0.0239058788865804672 -0.249484851956367493 0.204992249608039856
0.195386335253715515 0.130237191915512085 0.0345668531954288483
0.315362632274627686 -0.370368450880050659 -0.157224312424659729
0.11049419641494751 0.0597953759133815765 0.318880140781402588
-0.314897447824478149 0.306803315877914429 0.28412976861000061
-0.254489988088607788 -0.132375746965408325 -0.073228783905506134
-0.38649904727935791 -0.0598403662443161011 0.106394067406654358
0.453025013208389282 -0.0726272314786911011 -0.116802595555782318
0.315707683563232422 -0.33290177583694458 0.195651039481163025
0.297604292631149292 0.0383296981453895569 0.0497576966881752014
0.475758254528045654 -0.330843299627304077 0.136149212718009949
0.439677685499191284 -0.267401993274688721 -0.282546699047088623
0.46130707859992981 -0.272940665483474731 0.137696713209152222
0.503942191600799561 -0.346279293298721313 0.0171750131994485855
0.518862009048461914 -0.269459754228591919 -0.0874406918883323669
0.498566627502441406 -0.0879679322242736816 0.161474257707595825
0.542185664176940918 -0.215151116251945496 0.110531046986579895
-0.577065706253051758 0.327221453189849854 0.0803685933351516724
0.246506303548812866 0.111506558954715729 -0.0547477453947067261
0.0334873087704181671 0.0686490461230278015 0.272377252578735352
-0.562035560607910156 0.275594204664230347 0.0238742157816886902
-0.613956689834594727 0.272367030382156372 0.0384741462767124176
0.535545527935028076 -0.239125996828079224 0.102570615708827972
-0.576035618782043457 0.213045015931129456 -0.11679038405418396
-0.425037354230880737 0.0310029443353414536 -0.188594445586204529
0.304352283477783203 -0.12626609206199646 -0.108631104230880737
-0.385114341974258423 -0.0553560219705104828 0.100632630288600922
-0.603258252143859863 0.259903281927108765 0.0173711124807596207
-0.460700631141662598 0.306678056716918945 0.081165120005607605
0.50481027364730835 -0.263828158378601074 -0.109556876122951508
0.534539461135864258 -0.192245975136756897 0.0283563490957021713
-0.616190493106842041 0.210817411541938782 -0.0562032982707023621
0.452462136745452881 -0.123474776744842529 0.0890301614999771118
0.0335281230509281158 -0.279205173254013062 -0.0359359718859195709
0.401859402656555176 -0.318638652563095093 0.130683228373527527
-0.0939367040991783142 0.0743476897478103638 0.293128401041030884
0.243085563182830811 -0.13657534122467041 0.0108566926792263985
0.161249011754989624 -0.27126196026802063 0.0437238328158855438
-0.590581536293029785 0.369491398334503174 0.0901618152856826782
0.0269456803798675537 -0.011439075693488121 0.0277569238096475601
0.195637151598930359 0.0342319570481777191 0.177917197346687317
-0.306152701377868652 -0.0910238102078437805 0.305494487285614014
0.493619024753570557 -0.366697877645492554 0.019560912624001503
0.521523594856262207 -0.311264693737030029 0.0457646138966083527
0.502539396286010742 -0.153363481163978577 0.118652604520320892
0.080752938985824585 -0.271756947040557861 -0.0596722178161144257
-0.325430780649185181 -0.102871857583522797 0.0883907750248908997
-0.586191117763519287 0.335154622793197632 0.0185155663639307022
-0.0739199817180633545 -0.235377579927444458 0.301643103361129761
0.19423481822013855 -0.339633136987686157 -0.0625107139348983765
-0.398883014917373657 0.272418797016143799 -0.054667346179485321
-0.521718859672546387 0.0444647409021854401 -0.0577797889709472656
-0.257845848798751831 0.142578080296516418 0.0912439748644828796
-0.213563978672027588 -0.135411664843559265 -0.0633165091276168823
0.508410155773162842 -0.104537308216094971 0.143962487578392029
0.214017361402511597 -0.279405057430267334 -0.00947812385857105255
0.237989947199821472 -0.0758435726165771484 0.126638337969779968
-0.140500262379646301 0.296881735324859619 0.147743597626686096
-0.655971825122833252 0.171789348125457764 -0.112551465630531311
0.253184586763381958 -0.00922296009957790375 0.249716326594352722
0.250111401081085205 -0.178569942712783813 0.302537649869918823
-0.263065069913864136 -0.136664122343063354 -0.0677074044942855835
-0.200859919190406799 0.314709365367889404 0.0988925471901893616
0.257635056972503662 -0.277756154537200928 0.322896212339401245
0.17870628833770752 -0.0538204200565814972 -0.0512375049293041229
-0.443272620439529419 -0.0663017109036445618 0.129070624709129333
-0.503764212131500244 0.0304260868579149246 0.247161880135536194
-0.497005462646484375 0.0368476212024688721 -0.0117211798205971718
0.232507809996604919 0.0230795014649629593 0.31383204460144043
-0.371380150318145752 -0.0453989505767822266 0.143355995416641235
-0.348926454782485962 0.106919422745704651 0.0659409090876579285
0.307440727949142456 -0.198561713099479675 0.242707788944244385
0.308232009410858154 -0.00530449440702795982 0.219296842813491821
-0.442776262760162354 0.266937911510467529 -0.0373128466308116913
0.517019867897033691 -0.326392918825149536 -0.081575341522693634
-0.538739144802093506 0.138785302639007568 -0.0972303971648216248
0.465643316507339478 -0.124264337122440338 0.00165548792574554682
-0.385348379611968994 0.255698353052139282 0.0327252782881259918
0.493810713291168213 -0.301733523607254028 0.120856545865535736
0.465179353952407837 -0.106009110808372498 0.0592543706297874451
0.203586816787719727 0.015433507040143013 -0.0424882508814334869
-0.224610328674316406 0.296095669269561768 0.158644244074821472
-0.125165641307830811 -0.048646043986082077 0.0108183128759264946
-0.231744199991226196 0.228750541806221008 0.348145425319671631
-0.380767643451690674 -0.0539578758180141449 0.145471662282943726
0.341052591800689697 -0.073563791811466217 0.0473964810371398926
-0.435901015996932983 -0.0118827987462282181 0.0340329632163047791
0.205231040716171265 0.0168590303510427475 0.070163138210773468
0.0561295375227928162 -0.085648268461227417 0.239206880331039429
-0.38385242223739624 -0.0591502413153648376 0.116575345396995544
-0.136780977249145508 -0.264447987079620361 -0.00121104856953024864
-0.243767678737640381 0.063934914767742157 0.244827792048454285
-0.542069137096405029 0.211193621158599854 0.162730276584625244
-0.590674102306365967 0.287475883960723877 -0.00732225598767399788
0.306798160076141357 0.0178325939923524857 0.0425835736095905304
0.478401869535446167 -0.314604997634887695 -0.305620282888412476
0.5036659836769104 -0.345344811677932739 -0.0639803037047386169
0.471546173095703125 -0.304946362972259521 0.11487472802400589
0.527038455009460449 -0.302720040082931519 -0.109575137495994568
-0.402847081422805786 0.311839252710342407 0.134696483612060547
0.517846345901489258 -0.251116752624511719 -0.307625085115432739
0.507521629333496094 -0.328888356685638428 -0.314976930618286133
0.518736720085144043 -0.331159323453903198 0.0914177149534225464
0.477287471294403076 -0.304077237844467163 -0.303260833024978638
0.527496576309204102 -0.285462886095046997 -0.108194410800933838
-0.559850633144378662 0.267521262168884277 0.365616083145141602
-0.64008098840713501 0.289873480796813965 0.0851499214768409729
0.371308505535125732 -0.400946855545043945 -0.217693746089935303
-0.449689000844955444 -0.000666587555315345526 0.175117969512939453
0.176298439502716064 0.0732029825448989868 0.00641565350815653801
-0.453470945358276367 0.13501092791557312 -0.213680088520050049
0.403010845184326172 -0.335640668869018555 0.128827571868896484
-0.598824262619018555 0.207696095108985901 0.000783740193583071232
0.247440055012702942 -0.114290043711662292 -0.0710118710994720459
-0.483070224523544312 0.183050185441970825 -0.210088267922401428
-0.376024007797241211 -0.0627006962895393372 0.0917038321495056152
0.522847294807434082 -0.320762187242507935 0.0356983356177806854
0.542328238487243652 -0.217217028141021729 0.108058124780654907
0.525656938552856445 -0.273338675498962402 0.0551265478134155273
0.111092865467071533 0.0843514129519462585 0.317170292139053345
-0.350793629884719849 -0.0475140102207660675 0.0449979491531848907
0.105008572340011597 0.0724972933530807495 0.295411050319671631
-0.1652936190366745 0.133374139666557312 0.151314437389373779
0.502711176872253418 -0.256302386522293091 -0.102675631642341614
0.428843080997467041 -0.303643196821212769 0.135788887739181519
-0.355605602264404297 -0.101010590791702271 0.159076735377311707
0.498565822839736938 -0.201447337865829468 -0.108157709240913391
-0.578344047069549561 0.348378628492355347 0.152140378952026367
0.104957729578018188 -0.011243465356528759 0.021020885556936264
-0.341097027063369751 -0.122953183948993683 0.104614205658435822
-0.120659440755844116 -0.275199443101882935 0.174097657203674316
-0.161128923296928406 0.167641907930374146 0.325178921222686768
0.514956116676330566 -0.35838782787322998 0.0266356281936168671
0.521001517772674561 -0.287387311458587646 -0.0118618011474609375
0.478794068098068237 -0.139790475368499756 0.107422918081283569
-0.180810213088989258 0.0296516269445419312 0.0258736070245504379
-0.341812849044799805 -0.121175013482570648 0.10375688225030899
-0.600042223930358887 0.377080470323562622 0.188403725624084473
-0.119651809334754944 -0.266311198472976685 0.218359485268592834
0.523414075374603271 -0.308633506298065186 -0.0749661847949028015
0.516292095184326172 -0.251930505037307739 -0.30974850058555603
0.454937875270843506 -0.308023333549499512 -0.294669091701507568
0.240501940250396729 -0.0957237109541893005 0.158516347408294678
-0.620045244693756104 0.272553563117980957 0.0371642410755157471
-0.429772049188613892 -0.00340550602413713932 0.177357658743858337
-0.250274986028671265 -0.136438950896263123 -0.0710911229252815247
0.317234814167022705 -0.3187142014503479 0.122444815933704376
0.539259016513824463 -0.249527901411056519 0.106452420353889465
0.452641069889068604 -0.13959115743637085 0.0152162471786141396
0.429280638694763184 -0.320789873600006104 0.123577989637851715
0.413245677947998047 -0.330587476491928101 -0.209975332021713257
0.473729640245437622 -0.128368526697158813 0.10930478572845459
-0.548797965049743652 0.378887683153152466 0.172619298100471497
0.190488368272781372 -0.339476227760314941 -0.0133901285007596016
-0.201581582427024841 -0.134971886873245239 -0.0684419497847557068
-0.185504138469696045 0.312425732612609863 0.117884077131748199
0.103238902986049652 0.108027845621109009 0.174363836646080017
-0.444121062755584717 -0.0538761019706726074 0.0918749943375587463
-0.48915940523147583 0.0304824914783239365 0.0168653223663568497
0.23128211498260498 0.0112849259749054909 0.314912945032119751
-0.0247240997850894928 0.113529995083808899 0.312453955411911011
0.243142440915107727 -0.0383652485907077789 0.204536616802215576
-0.384696096181869507 0.245715975761413574 0.0343161933124065399
-0.653861761093139648 0.217069804668426514 -0.0392424687743186951
0.482921600341796875 -0.116045907139778137 0.0232250932604074478
0.122092463076114655 0.0798122510313987732 0.138462960720062256
-0.38172459602355957 -0.072131820023059845 0.0956529751420021057
0.31958538293838501 -0.0721190422773361206 0.0622348785400390625
-0.440438807010650635 -0.0112109789624810219 0.00687715644016861916
-0.501986265182495117 0.234059721231460571 -0.0710897073149681091
-0.547038733959197998 0.203811824321746826 -0.068497389554977417
0.0884976163506507874 0.092005312442779541 0.0799379870295524597
-0.519676029682159424 0.204924434423446655 -0.0471480377018451691
-0.168165639042854309 0.0728026777505874634 0.232529014348983765
-0.0572721473872661591 -0.18639858067035675 0.0268174130469560623
-0.212433859705924988 0.291130870580673218 0.109138995409011841
0.24953104555606842 -0.00515214167535305023 0.022189239040017128
-0.555602669715881348 0.204720601439476013 0.118376322090625763
-0.457142144441604614 0.216822043061256409 0.0245556719601154327
-0.462434560060501099 0.266854196786880493 -0.00270495284348726273
-0.575229465961456299 0.247938618063926697 -0.0764250904321670532
-0.389176487922668457 0.275513738393783569 -0.0840898752212524414
0.343697011470794678 -0.134419798851013184 0.318705707788467407
-0.498404502868652344 0.207215353846549988 -0.0115930363535881042
-0.34583282470703125 0.293211281299591064 -0.0501058883965015411
0.525957345962524414 -0.360813409090042114 0.0415397509932518005
-0.539768338203430176 0.215486124157905579 0.201104387640953064
-0.569098711013793945 0.294700562953948975 -0.00313804042525589466
0.316471785306930542 0.023953653872013092 0.0485641472041606903
0.482022613286972046 -0.306752055883407593 -0.303929805755615234
0.479654401540756226 -0.32605937123298645 0.125158637762069702
0.523185193538665771 -0.306771010160446167 -0.0989610403776168823
0.490376889705657959 -0.310520172119140625 -0.307690411806106567
0.516180694103240967 -0.324788719415664673 0.119615077972412109
0.444541364908218384 -0.299941867589950562 -0.290906578302383423
0.523202061653137207 -0.304322391748428345 -0.097624070942401886
0.134167194366455078 0.116649031639099121 0.337002009153366089
-0.642207801342010498 0.242922872304916382 -0.0094310026615858078
-0.292449027299880981 -0.113419108092784882 -0.105665318667888641
0.539198100566864014 -0.255265414714813232 0.0919498950242996216
0.129029408097267151 0.0978666245937347412 0.317280113697052002
-0.235082134604454041 -0.143080607056617737 -0.071324571967124939
0.252344459295272827 0.030310850590467453 -0.0861283242702484131
0.530937671661376953 -0.322908103466033936 0.00658267270773649216
-0.599183917045593262 0.307655781507492065 0.104515112936496735
0.532051742076873779 -0.244440913200378418 0.086300089955329895
-0.373910695314407349 -0.0603979527950286865 0.0923636928200721741
0.526552081108093262 -0.275091409683227539 -0.123509660363197327
-0.500998735427856445 0.149091526865959167 0.353096157312393188
0.385093718767166138 -0.297380536794662476 0.131646633148193359
0.13272269070148468 -0.331617057323455811 -0.100520536303520203
0.522739887237548828 -0.35462576150894165 -0.0151798669248819351
-0.436303585767745972 0.150905773043632507 -0.0849847272038459778
0.515727460384368896 -0.29987683892250061 0.0644652917981147766
0.393070071935653687 -0.36761939525604248 -0.213918700814247131
0.500462949275970459 -0.171261683106422424 0.129790395498275757
0.533205866813659668 -0.333773970603942871 0.0281446538865566254
-0.579748451709747314 0.34916350245475769 0.0403167568147182465
0.519973278045654297 -0.240691035985946655 -0.308994263410568237
-0.600854158401489258 0.370926558971405029 0.104685030877590179
-0.500500023365020752 0.147463232278823853 0.355301052331924438
0.233915314078330994 -0.277526289224624634 0.317303746938705444
-0.181236520409584045 -0.136599808931350708 -0.0556054487824440002
-0.228248640894889832 -0.137543395161628723 -0.0534932687878608704
-0.204243883490562439 0.298730373382568359 0.126723453402519226
0.262467116117477417 -0.289346247911453247 0.323582768440246582
-0.362143725156784058 -0.0301084071397781372 0.119584940373897552
-0.499936282634735107 0.0198227632790803909 0.0319036170840263367
0.242765039205551147 0.000360299047315493226 0.322149574756622314
0.14131733775138855 -0.290051043033599854 0.311698108911514282
0.30801922082901001 -0.207273617386817932 0.248048186302185059
-0.386006832122802734 0.255238384008407593 0.0343700796365737915
0.53106766939163208 -0.262051999568939209 0.102680444717407227
0.223978206515312195 0.0230060853064060211 0.305313229560852051
0.530576229095458984 -0.147171452641487122 -0.308542639017105103
-0.644714415073394775 0.231712609529495239 -0.0474754534661769867
0.541251659393310547 -0.310710698366165161 -0.0447018258273601532
0.507810652256011963 -0.267506688833236694 -0.311769604682922363
0.514296770095825195 -0.315850764513015747 -0.295355021953582764
0.458839237689971924 -0.290624648332595825 -0.296845823526382446
-0.542938649654388428 0.268507122993469238 -0.189329907298088074
-0.621286988258361816 0.289297997951507568 0.0666843503713607788
0.363436132669448853 -0.383939862251281738 -0.206321999430656433
-0.0925057977437973022 0.267596811056137085 0.189327284693717957
-0.448286771774291992 0.131727948784828186 -0.208784684538841248
-0.575283348560333252 0.204160198569297791 -0.127076789736747742
-0.629920303821563721 0.192077741026878357 -0.0399014987051486969
-0.469586312770843506 0.139367982745170593 -0.231091827154159546
0.257575362920761108 -0.016771392896771431 -0.072319522500038147
0.230423733592033386 0.0541674457490444183 -0.0453827157616615295
0.112986080348491669 0.110075943171977997 0.301551580429077148
-0.583936035633087158 0.218771651387214661 -0.221447333693504333
-0.598066568374633789 0.235599711537361145 -0.0107739856466650963
-0.366875559091567993 -0.0912556871771812439 0.122841328382492065
-0.329873502254486084 -0.124872773885726929 0.137293845415115356
-0.634451150894165039 0.199993565678596497 -0.038318142294883728
-0.425537109375 -0.0544441193342208862 0.0992389768362045288
-0.477909654378890991 0.0205935034900903702 -0.036553550511598587
0.208567127585411072 0.00888721179217100143 0.300703108310699463
-0.634037375450134277 0.248450919985771179 -0.00600251369178295135
-0.128054574131965637 0.270266354084014893 0.132201820611953735
0.27100256085395813 -0.329925388097763062 0.179968744516372681
0.533013820648193359 -0.209865212440490723 -0.0991474464535713196
-0.126409679651260376 -0.112187683582305908 -0.0548404604196548462
0.45414164662361145 -0.338584810495376587 -0.298357158899307251
-0.212533965706825256 0.0366951599717140198 -0.059716004878282547
-0.553053617477416992 0.176180660724639893 0.0127893881872296333
-0.198485508561134338 0.140072301030158997 0.0211009755730628967
-0.0125531135126948357 -0.102083250880241394 -0.0430342033505439758
0.264671593904495239 -0.274551272392272949 0.202315911650657654
0.348622113466262817 -0.320765048265457153 -0.000251191377174109221
-0.155914455652236938 0.0702360272407531738 0.0274820700287818909
-0.249134987592697144 0.131253361701965332 -0.0344705507159233093
0.199025258421897888 0.00200441130436956882 0.0188706498593091965
0.0762777030467987061 0.0812512412667274475 0.0238013509660959244
-0.283373177051544189 0.288722634315490723 -0.00594804948195815086
0.476920455694198608 -0.289514899253845215 -0.302011430263519287
-0.556746304035186768 0.266154736280441284 -0.0172606799751520157
-0.237323060631752014 0.0981021299958229065 -0.0324883796274662018
0.137808352708816528 -0.280420452356338501 0.149984315037727356
0.296305388212203979 -0.297027856111526489 0.0567345432937145233
-0.285976886749267578 0.257704555988311768 0.000531147466972470284
-0.0210915934294462204 -0.0399303063750267029 0.0889143273234367371
0.204391345381736755 0.0430902764201164246 0.0654993951320648193
-0.143688872456550598 -0.0847109928727149963 0.0916761681437492371
0.372411996126174927 -0.0730866119265556335 0.0312800072133541107
0.521312057971954346 -0.198804572224617004 -0.0988414362072944641
0.487063109874725342 -0.2975139319896698 -0.305666178464889526
0.480376631021499634 -0.314523786306381226 0.122051678597927094
0.513561725616455078 -0.306881904602050781 -0.102709531784057617
0.495985954999923706 -0.309143692255020142 -0.310032278299331665
0.506114423274993896 -0.327513366937637329 -0.00441598054021596909
0.511681258678436279 -0.324224650859832764 0.118079043924808502
0.465847939252853394 -0.288415104150772095 -0.296864837408065796
0.437934577465057373 -0.263108998537063599 -0.194587886333465576
0.134974315762519836 0.117295935750007629 0.336917251348495483
0.396464258432388306 -0.244013011455535889 0.318555861711502075
-0.601522505283355713 0.354695707559585571 0.065560758113861084
-0.505132973194122314 0.357600688934326172 0.178339958190917969
0.542577207088470459 -0.282211989164352417 0.097624070942401886
0.256284743547439575 0.0372685641050338745 -0.0723305866122245789
-0.233156353235244751 0.156442537903785706 -0.00532623380422592163
0.506104946136474609 -0.331679970026016235 -0.0028380535077303648
0.444741666316986084 -0.249696806073188782 -0.228315383195877075
-0.639051854610443115 0.254929870367050171 0.0545689612627029419
0.532547056674957275 -0.262386888265609741 0.0929383113980293274
-0.393086165189743042 -0.0587706491351127625 0.100424483418464661
0.523862063884735107 -0.289349853992462158 -0.0924086719751358032
0.0279629454016685486 -0.273688226938247681 -0.0353973209857940674
0.385059535503387451 -0.305714994668960571 0.118570201098918915
-0.582211613655090332 0.367235869169235229 0.131750509142875671
0.240053087472915649 0.00328758428804576397 0.180918633937835693
-0.113112807273864746 0.165940165519714355 0.347501873970031738
0.48212665319442749 -0.368041872978210449 -0.0223556198179721832
0.412170261144638062 -0.320831239223480225 -0.211312040686607361
0.507184922695159912 -0.155227392911911011 0.123700276017189026
0.528758525848388672 -0.334407329559326172 0.0125161698088049889
-0.584148645401000977 0.336846083402633667 0.0341378599405288696
-0.590785503387451172 0.382332414388656616 0.131310388445854187
0.526267409324645996 -0.244049742817878723 -0.310969054698944092
0.474390387535095215 -0.290436476469039917 -0.299763292074203491
-0.597253561019897461 0.354111164808273315 0.169710144400596619
-0.587375044822692871 0.371869146823883057 0.101151883602142334
-0.212071463465690613 -0.129059821367263794 -0.0577220655977725983
0.23424665629863739 -0.292615592479705811 0.31487467885017395
0.237867474555969238 0.0674930140376091003 0.319891393184661865
0.541808605194091797 -0.313549131155014038 -0.0584231168031692505
-0.444677978754043579 -0.0479038842022418976 0.127079814672470093
0.359475404024124146 -0.388014167547225952 -0.209264606237411499
-0.556564390659332275 0.211625233292579651 -0.113646358251571655
0.520774126052856445 -0.27925524115562439 -0.177429035305976868
0.241731971502304077 0.0351377949118614197 0.314370632171630859
0.242589280009269714 0.000836107356008142233 0.0234223809093236923
0.380503803491592407 0.0392219573259353638 0.0115857413038611412
0.526737987995147705 -0.230349227786064148 -0.310478746891021729
0.3268013596534729 0.0965995341539382935 -0.036207348108291626
-0.374209493398666382 -0.0597601570188999176 -0.132920935750007629
0.5128135085105896 -0.167227119207382202 0.135596618056297302
-0.574525833129882812 0.322450190782546997 0.0495051704347133636
-0.559033095836639404 0.283828198909759521 0.364154249429702759
0.224265322089195251 0.0323802828788757324 -0.0584318637847900391
-0.574322521686553955 0.215090245008468628 -0.221082046627998352
-0.0444488115608692169 0.157061800360679626 0.081117287278175354
0.11389748752117157 0.110515490174293518 0.0252800695598125458
0.342640995979309082 -0.246626943349838257 -0.0971376076340675354
-0.285162657499313354 0.300923585891723633 -0.00283864350058138371
0.153136923909187317 -0.00393662741407752037 -0.00375762628391385078
0.0688661560416221619 0.13930472731590271 0.075521811842918396
-0.270157724618911743 0.280675619840621948 0.0016817533178254962
0.503309428691864014 -0.292301326990127563 -0.15966331958770752
0.136810988187789917 -0.0253588967025279999 0.0129441199824213982
-0.339049458503723145 -0.0314863771200180054 0.0227792076766490936
0.373228400945663452 -0.0914817005395889282 0.0439976267516613007
0.199712783098220825 0.101689860224723816 -0.00204665819182991982
-0.29730457067489624 -0.0245213918387889862 0.0359125733375549316
0.131619676947593689 -0.0173470731824636459 -0.0262650232762098312
0.101217254996299744 0.0165085867047309875 0.0910754278302192688
0.175466373562812805 0.11980815976858139 0.0378297045826911926
-0.230563268065452576 -0.0631582215428352356 0.104633472859859467
0.486047297716140747 -0.296377271413803101 -0.303894907236099243
-0.603226780891418457 0.289929062128067017 0.185157254338264465
0.467095285654067993 -0.308402270078659058 0.119810573756694794
0.378076851367950439 -0.0140985799953341484 0.00606866367161273956
0.514310359954833984 -0.295017421245574951 -0.103803351521492004
0.518806040287017822 -0.23943917453289032 -0.307976126670837402
0.477879971265792847 -0.309441417455673218 -0.300645112991333008
0.483350425958633423 -0.274230211973190308 -0.300280869007110596
0.117030054330825806 0.119198441505432129 0.297492533922195435
-0.584226846694946289 0.356763571500778198 0.0657813921570777893
0.383613616228103638 -0.336993366479873657 0.125269606709480286
-0.574493467807769775 0.318118780851364136 -0.0265935864299535751
-0.604452192783355713 0.21757759153842926 -0.0869473516941070557
0.267556697130203247 0.0396641530096530914 -0.0865342020988464355
-0.356397092342376709 -0.0216702371835708618 -0.131213873624801636
-0.564305424690246582 0.314750552177429199 -0.00795079581439495087
0.190561085939407349 -0.340408205986022949 -0.0749448537826538086
0.404098272323608398 -0.357315570116043091 -0.224360555410385132
-0.50024867057800293 0.146047741174697876 0.354644924402236938
0.509486913681030273 -0.151188597083091736 0.114669844508171082
0.496812731027603149 -0.263639092445373535 -0.304764688014984131
0.457927525043487549 -0.28058779239654541 -0.29011121392250061
0.440880566835403442 -0.264665335416793823 -0.284061074256896973
-0.588042736053466797 0.357867568731307983 0.0616947747766971588
0.505083322525024414 -0.1265086829662323 0.124086938798427582
-0.206343755125999451 0.31289336085319519 0.108707144856452942
0.268054038286209106 -0.283663958311080933 0.319036513566970825
0.23236362636089325 0.00390397547744214535 0.31767997145652771
0.513205051422119141 -0.175387561321258545 -0.282149255275726318
-0.115309834480285645 0.010365564376115799 0.00581609783694148064
0.403830111026763916 -0.359344214200973511 -0.224983781576156616
0.417499780654907227 -0.31294134259223938 0.143512934446334839
-0.555525064468383789 0.376878023147583008 0.186780452728271484
-0.175773277878761292 0.309561669826507568 0.118381574749946594
-0.389772415161132812 0.276485443115234375 -0.0850908085703849792
0.365059554576873779 0.0521619096398353577 0.0242986995726823807
0.129000619053840637 0.116088703274726868 0.318716466426849365
-0.286479949951171875 -0.100087918341159821 -0.0921125710010528564
0.257924020290374756 0.101292923092842102 -0.0623013563454151154
-0.361224919557571411 -0.0593179799616336823 -0.144184529781341553
0.133953407406806946 0.114048019051551819 0.337661713361740112
-0.563088357448577881 0.199750557541847229 -0.229060694575309753
-0.276487559080123901 0.288448333740234375 -0.000946994870901107788
0.454837322235107422 -0.246159464120864868 -0.288656890392303467
0.460191100835800171 -0.275119781494140625 -0.291179776191711426
-0.634880363941192627 0.308551549911499023 0.170361846685409546
0.512426972389221191 -0.31717914342880249 -0.0388905331492424011
0.468896746635437012 -0.265519261360168457 -0.298311680555343628
0.478117525577545166 -0.294737130403518677 -0.300587475299835205
0.458095371723175049 -0.245943531394004822 -0.290229588747024536
0.381059437990188599 -0.360674530267715454 -0.214163482189178467
-0.479385077953338623 -0.0120787778869271278 0.185841619968414307
-0.516502857208251953 0.366171091794967651 0.174041628837585449
-0.618532776832580566 0.202470242977142334 -0.087210632860660553
-0.237315058708190918 0.0192981678992509842 -0.0726105049252510071
-0.382546931505203247 -0.0585458278656005859 0.0236673075705766678
0.474799573421478271 -0.368034273386001587 0.0215209964662790298
-0.649266242980957031 0.237175583839416504 0.0321948304772377014
0.412525385618209839 -0.346416354179382324 -0.221960917115211487
0.525997579097747803 -0.336846530437469482 0.0797754302620887756
0.50599825382232666 -0.238739266991615295 -0.308435887098312378
0.249411538243293762 -0.281838834285736084 0.318103581666946411
0.239021480083465576 0.0669226795434951782 0.314434915781021118
0.539529919624328613 -0.301547020673751831 -0.0939844846725463867
-0.44783356785774231 -0.0409083291888237 0.126511916518211365
-0.0439697727560997009 0.104912281036376953 0.317747026681900024
0.247789621353149414 0.0213809777051210403 0.321998357772827148
-0.2848052978515625 -0.0992212295532226562 -0.0991306006908416748
-0.13780619204044342 -0.014626573771238327 -0.0488926656544208527
-0.277947008609771729 0.338297426700592041 0.0469614714384078979
-0.254784703254699707 0.290347665548324585 -0.00327952788211405277
-0.218999415636062622 0.322317749261856079 0.0698039904236793518
-0.573232293128967285 0.15271429717540741 -0.0745261013507843018
-0.290013581514358521 0.293150246143341064 0.0160028953105211258
0.525572240352630615 -0.320363342761993408 0.0268782712519168854
0.345955371856689453 -0.0301676355302333832 -0.0347776785492897034
0.522184133529663086 -0.362603157758712769 0.0891154780983924866
-0.0833728313446044922 -0.111360952258110046 0.0784018039703369141
-0.404017984867095947 0.326473355293273926 0.121203124523162842
0.504705727100372314 -0.366767644882202148 -0.0047818375751376152
-0.118838056921958923 0.266518831253051758 0.120884768664836884
0.518667280673980713 -0.342652052640914917 0.0355530120432376862
0.130173191428184509 -0.334202051162719727 0.301174193620681763
0.466547757387161255 -0.310747653245925903 0.0721823200583457947
0.482800036668777466 -0.373690605163574219 0.0520489439368247986
0.420938849449157715 -0.0257507879287004471 0.0645409002900123596
0.494098365306854248 -0.363227665424346924 -0.0158304683864116669
-0.233045876026153564 0.287588626146316528 0.0840929225087165833
0.5311737060546875 -0.331460118293762207 -0.00752670317888259888
-0.272027730941772461 0.315828770399093628 0.11393120139837265
0.308065742254257202 0.00292151561006903648 0.0460221767425537109
0.467377632856369019 -0.263127654790878296 -0.296382933855056763
0.473742187023162842 -0.304026812314987183 0.113959409296512604
0.511132895946502686 -0.313344478607177734 -0.104697331786155701
0.509148240089416504 -0.245086774230003357 -0.308753609657287598
0.44790273904800415 -0.292215913534164429 -0.293061971664428711
0.466349750757217407 -0.282985806465148926 -0.29758945107460022
0.138184815645217896 0.113164924085140228 0.336599260568618774
-0.652123987674713135 0.286119610071182251 0.0979879125952720642
-0.638291478157043457 0.245258823037147522 -0.038231242448091507
0.136171847581863403 0.0696553885936737061 0.33772692084312439
-0.577087521553039551 0.304243177175521851 -0.0555916279554367065
0.262333869934082031 0.0308433547616004944 -0.07373848557472229
0.541882693767547607 -0.21644921600818634 0.111255988478660583
-0.360024482011795044 -0.035309232771396637 -0.134391814470291138
-0.574734270572662354 0.327923327684402466 -0.0296005625277757645
-0.361725300550460815 -0.070476144552230835 -0.0340471938252449036
-0.130589023232460022 -0.267103105783462524 0.119027592241764069
0.495067983865737915 -0.365522861480712891 -0.00066660373704507947
0.373748272657394409 -0.359070539474487305 -0.210326448082923889
-0.378334790468215942 -0.106446310877799988 0.101266644895076752
-0.0671475380659103394 -0.263564914464950562 0.296448558568954468
0.519830822944641113 -0.243041425943374634 -0.30977475643157959
0.509398102760314941 -0.330264091491699219 0.0149745801463723183
-0.593356966972351074 0.369406461715698242 0.120566949248313904
-0.655334591865539551 0.176115617156028748 -0.103054426610469818
-0.223007887601852417 -0.143692299723625183 -0.0537994131445884705
-0.191344022750854492 0.317073941230773926 0.100659161806106567
0.256514281034469604 -0.283132463693618774 0.319533765316009521
0.238998010754585266 0.0325696729123592377 0.318909615278244019
-0.120170772075653076 -0.0456530675292015076 0.00721427891403436661
-0.641559302806854248 0.309066444635391235 0.101850427687168121
0.36463242769241333 -0.373611778020858765 -0.207237228751182556
0.537664949893951416 -0.217469707131385803 0.161547496914863586
-0.552747726440429688 0.382890760898590088 0.157962530851364136
-0.122618772089481354 0.25973781943321228 0.115017570555210114
0.119259290397167206 0.10285419225692749 0.0892548859119415283
-0.375444233417510986 0.266331315040588379 -0.0896305814385414124
0.516813397407531738 -0.348755359649658203 0.0984823033213615417
-0.293483078479766846 -0.106698036193847656 -0.109377853572368622
0.274835914373397827 0.103340357542037964 -0.057951025664806366
-0.575058519840240479 0.21999804675579071 -0.212675705552101135
-0.115660496056079865 0.269014149904251099 0.179709658026695251
0.235870376229286194 -0.287602514028549194 0.314232617616653442
0.310006171464920044 -0.18701133131980896 0.240803301334381104
0.541708290576934814 -0.325546920299530029 -0.0212263558059930801
0.0788679420948028564 -0.337276995182037354 0.28214302659034729
-0.00649183290079236031 -0.171420767903327942 0.00413828948512673378
-0.282302051782608032 0.262207716703414917 0.00696959346532821655
0.513081610202789307 -0.23681187629699707 -0.309771567583084106
-0.646919727325439453 0.278690725564956665 0.0795188471674919128
-0.646269023418426514 0.183627843856811523 -0.0909031182527542114
0.514033198356628418 -0.322225302457809448 0.0239848271012306213
-0.406896591186523438 -0.063167281448841095 0.11347140371799469
0.516764044761657715 -0.355408996343612671 -0.020925937220454216
-0.566560566425323486 0.374762237071990967 0.152468711137771606
0.235751405358314514 0.0433826148509979248 0.313457489013671875
-0.664785325527191162 0.22757306694984436 0.0230783410370349884
-0.448042333126068115 -0.038010619580745697 0.127020746469497681
0.502953112125396729 -0.301981896162033081 -0.179191708564758301
-0.589103221893310547 0.361470580101013184 0.086064465343952179
-0.194184526801109314 0.315347939729690552 0.104777388274669647
0.246773317456245422 0.0242849290370941162 0.323592722415924072
0.530859231948852539 -0.323510646820068359 -0.0583907961845397949
-0.182937964797019958 0.30744701623916626 0.128390148282051086
0.2470225989818573 0.00736075360327959061 0.323726505041122437
0.0585064105689525604 0.140070453286170959 0.345593154430389404
-0.505672812461853027 0.149846568703651428 0.356846719980239868
0.270574599504470825 -0.310878217220306396 0.326075434684753418
-0.253740698099136353 0.0240379683673381805 -0.070821613073348999
0.240920379757881165 -0.294915765523910522 0.322334438562393188
0.248802229762077332 0.0441634953022003174 0.314177513122558594
0.46825718879699707 -0.10167238861322403 0.0342686846852302551
-0.124870456755161285 0.195554986596107483 0.115286059677600861
0.239815980195999146 -0.326228111982345581 0.317790806293487549
0.500166594982147217 -0.366295218467712402 0.0743569880723953247
0.523365318775177002 -0.324429780244827271 0.0259024761617183685
0.444500744342803955 -0.252970486879348755 0.332092106342315674
0.321374416351318359 -0.131113752722740173 -0.106969594955444336
0.0632243826985359192 -0.0103390496224164963 0.321560829877853394
0.511225581169128418 -0.360597670078277588 0.0472129955887794495
0.135546833276748657 -0.100297704339027405 0.0403240956366062164
0.0494076870381832123 0.0119648873805999756 0.0295311138033866882
0.0206667836755514145 0.048658762127161026 0.0424047894775867462
0.0879906117916107178 -0.0656619295477867126 0.289491981267929077
-0.162117347121238708 -0.265186488628387451 0.147928044199943542
0.264784514904022217 -0.0198276042938232422 0.0612556338310241699
-0.0290226340293884277 -0.0285937711596488953 0.295456171035766602
0.502148985862731934 -0.240055277943611145 -0.302353799343109131
0.475916594266891479 -0.314673393964767456 -0.302278310060501099
-0.630860626697540283 0.306702673435211182 0.167345598340034485
0.475384533405303955 -0.320537596940994263 0.120728142559528351
0.509042978286743164 -0.300571948289871216 -0.105861268937587738
0.528204798698425293 -0.274633318185806274 -0.317527681589126587
0.493533015251159668 -0.332142442464828491 -0.311030268669128418
0.503437280654907227 -0.31986159086227417 0.0977140143513679504
0.47416415810585022 -0.305507838726043701 -0.298433303833007812
-0.559268832206726074 0.268486261367797852 0.364480376243591309
0.124864973127841949 0.11722160130739212 0.314019501209259033
-0.633505702018737793 0.282667279243469238 0.0542519912123680115
-0.587292194366455078 0.363222599029541016 0.102404028177261353
0.371472954750061035 -0.373766154050827026 -0.213017046451568604
0.438371241092681885 -0.347697943449020386 0.154074668884277344
0.0579928122460842133 0.121699005365371704 0.320969045162200928
-0.57450568675994873 0.369228094816207886 0.215528994798660278
0.264590203762054443 0.0249485466629266739 -0.0589414238929748535
0.368699014186859131 -0.336499601602554321 0.160379797220230103
0.510486960411071777 -0.301291495561599731 -0.112310051918029785
0.133611395955085754 -0.320240706205368042 -0.0979424118995666504
0.516541719436645508 -0.348534852266311646 -0.0205831956118345261
0.38926774263381958 -0.346498847007751465 -0.214382559061050415
-0.576948642730712891 0.319512784481048584 0.040760822594165802
0.536023437976837158 -0.27760469913482666 -0.320931583642959595
0.467873036861419678 -0.310642480850219727 -0.299566894769668579
0.507154285907745361 -0.346873044967651367 0.017640288919210434
-0.555847704410552979 0.310152769088745117 0.102226875722408295
0.19386717677116394 -0.33902740478515625 -0.0593550391495227814
0.0701124146580696106 -0.28185880184173584 -0.0780393034219741821
0.252383112907409668 -0.249993264675140381 0.319993644952774048
0.239792242646217346 0.0312117245048284531 0.316687017679214478
-0.121031217277050018 -0.0474515184760093689 0.00806903280317783356
0.178681135177612305 -0.0998715609312057495 -0.0150186512619256973
0.532436549663543701 -0.33206668496131897 -0.01346590556204319
0.370337814092636108 -0.349219083786010742 -0.209155037999153137
0.534923076629638672 -0.245626941323280334 0.17696988582611084
0.561159372329711914 -0.31556016206741333 -0.331259042024612427
0.554498493671417236 -0.211516827344894409 0.133608028292655945
-0.543211936950683594 0.381193011999130249 0.164501309394836426
0.122758485376834869 0.117508620023727417 0.132933542132377625
-0.582173645496368408 0.352346330881118774 0.0977937653660774231
-0.481482148170471191 0.186416164040565491 -0.0915673896670341492
0.515606820583343506 -0.338949501514434814 0.0385462269186973572
0.253395050764083862 -0.278907448053359985 0.321819543838500977
0.278503388166427612 -0.355683326721191406 -0.126283779740333557
0.507927060127258301 -0.286412149667739868 -0.313996970653533936
-0.432028055191040039 -0.0568474382162094116 0.116698496043682098
0.201844692230224609 0.0907685905694961548 0.223151683807373047
0.244180783629417419 0.104849010705947876 -0.0575017556548118591
-0.195706963539123535 0.201918408274650574 0.349250137805938721
0.250354647636413574 0.0251708347350358963 0.323114663362503052
