ply
format ascii 1.0
element vertex 738
property float x
property float y
property float z
end_header
0.505977869033813477 -0.239157885313034058 -0.307964056730270386
0.249616920948028564 -0.282367944717407227 0.31843075156211853
0.239317074418067932 0.0665425807237625122 0.314972192049026489
0.539533495903015137 -0.301913022994995117 -0.0934808552265167236
-0.448720991611480713 -0.0415956750512123108 0.126356199383735657
-0.044132821261882782 0.104360423982143402 0.317977488040924072
0.248085469007492065 0.0209948401898145676 0.322522103786468506
-0.28559643030166626 -0.0999595597386360168 -0.0991448536515235901
-0.138246223330497742 -0.0152733437716960907 -0.0487710647284984589
-0.278588950634002686 0.337751150131225586 0.0470026656985282898
-0.255395889282226562 0.289771854877471924 -0.00320449681021273136
-0.219543665647506714 0.321786701679229736 0.0699065849184989929
-0.574135720729827881 0.152101948857307434 -0.0747587159276008606
-0.290680348873138428 0.292568236589431763 0.0160501506179571152
0.525633037090301514 -0.320724129676818848 0.0273987036198377609
0.346256613731384277 -0.0305558573454618454 -0.0341363660991191864
0.52225196361541748 -0.362977683544158936 0.0896063446998596191
-0.0836802572011947632 -0.112006224691867828 0.0785555094480514526
-0.404818832874298096 0.325918644666671753 0.121119171380996704
0.504762172698974609 -0.367154210805892944 -0.00429221708327531815
-0.119178600609302521 0.26600414514541626 0.121096789836883545
0.51873016357421875 -0.343022793531417847 0.0360583998262882233
0.130235046148300171 -0.334849357604980469 0.301332741975784302
0.466687917709350586 -0.311126828193664551 0.0727122724056243896
0.482893884181976318 -0.374086618423461914 0.0525356195867061615
0.421257227659225464 -0.0260704793035984039 0.0652326270937919617
0.494163155555725098 -0.363618940114974976 -0.0153394723311066628
-0.233608543872833252 0.287039428949356079 0.0841904431581497192
0.531212329864501953 -0.331825375556945801 -0.00701866578310728073
-0.272658050060272217 0.315288543701171875 0.113981395959854126
0.308405488729476929 0.00254286127164959908 0.0466566234827041626
0.467386454343795776 -0.263570725917816162 -0.29592210054397583
0.473891407251358032 -0.304396599531173706 0.114495471119880676
0.511158645153045654 -0.313727766275405884 -0.104201085865497589
0.509122014045715332 -0.245505392551422119 -0.308288156986236572
0.447917550802230835 -0.292675882577896118 -0.292627096176147461
0.466352581977844238 -0.283434450626373291 -0.297140240669250488
0.138348892331123352 0.112729214131832123 0.337034314870834351
-0.652970373630523682 0.285672754049301147 0.0976925864815711975
-0.639165401458740234 0.244725167751312256 -0.0384911932051181793
0.136332482099533081 0.0692045092582702637 0.338140547275543213
-0.577962934970855713 0.303703486919403076 -0.0558220446109771729
0.26261410117149353 0.0304036829620599747 -0.0731388404965400696
0.541986286640167236 -0.216755509376525879 0.111852444708347321
-0.360874056816101074 -0.036037147045135498 -0.13450583815574646
-0.575604736804962158 0.327396959066390991 -0.0298310276120901108
-0.362561464309692383 -0.0711976662278175354 -0.0341437384486198425
-0.131017819046974182 -0.267855226993560791 0.119032368063926697
0.495139509439468384 -0.365912020206451416 -0.000171907187905162573
0.373820841312408447 -0.359564721584320068 -0.209935516119003296
-0.379182726144790649 -0.107154235243797302 0.101151764392852783
-0.0673902630805969238 -0.264286220073699951 0.296465605497360229
0.519794821739196777 -0.243453621864318848 -0.30931013822555542
0.509467959403991699 -0.330636352300643921 0.0154885770753026009
-0.594224512577056885 0.368939518928527832 0.120310045778751373
-0.656225621700286865 0.175550296902656555 -0.103337317705154419
-0.22364361584186554 -0.144429028034210205 -0.0538209863007068634
-0.191839039325714111 0.316556632518768311 0.100791342556476593
0.256724804639816284 -0.283656001091003418 0.319867789745330811
0.23928755521774292 0.032180003821849823 0.319429665803909302
-0.120564974844455719 -0.0462923794984817505 0.00735116424039006233
-0.642415821552276611 0.308596521615982056 0.101577475666999817
0.364707499742507935 -0.374113291501998901 -0.206858709454536438
0.537778675556182861 -0.217778325080871582 0.16213691234588623
-0.55362546443939209 0.382414281368255615 0.157727748155593872
-0.122965529561042786 0.25921747088432312 0.115227244794368744
0.119432441890239716 0.102389447391033173 0.0897282063961029053
-0.376244902610778809 0.265702992677688599 -0.0896926149725914001
0.516894817352294922 -0.349127471446990967 0.0989823564887046814
-0.29425281286239624 -0.107440941035747528 -0.109449848532676697
0.275154620409011841 0.10292372852563858 -0.0573139935731887817
-0.575982749462127686 0.219408571720123291 -0.212939128279685974
-0.116000428795814514 0.26850464940071106 0.179916918277740479
0.236063361167907715 -0.288146615028381348 0.314540892839431763
0.310272663831710815 -0.187437400221824646 0.241294890642166138
0.541733264923095703 -0.325907498598098755 -0.0207181964069604874
0.0788543224334716797 -0.337960481643676758 0.282250136137008667
-0.00669259345158934593 -0.172076299786567688 0.00432894565165042877
-0.282955646514892578 0.261611372232437134 0.00702578620985150337
0.51305466890335083 -0.237226203083992004 -0.309299975633621216
-0.647774398326873779 0.278211891651153564 0.0792433843016624451
-0.647157251834869385 0.183063328266143799 -0.0911786407232284546
0.514104247093200684 -0.322592049837112427 0.024504857137799263
-0.407751560211181641 -0.0638667494058609009 0.113343812525272369
0.5168038010597229 -0.355789244174957275 -0.0204354859888553619
-0.567437589168548584 0.374288827180862427 0.152225032448768616
0.236040279269218445 0.0429932400584220886 0.313980460166931152
-0.66565018892288208 0.227054283022880554 0.0228075534105300903
-0.448929369449615479 -0.0386969149112701416 0.126866012811660767
0.502961933612823486 -0.302380681037902832 -0.178713247179985046
-0.589970111846923828 0.360994130373001099 0.0858106091618537903
-0.19468437135219574 0.314829587936401367 0.104907125234603882
0.247068271040916443 0.0238990150392055511 0.324116259813308716
0.530881166458129883 -0.323880970478057861 -0.0578904114663600922
-0.183416962623596191 0.3069305419921875 0.128529652953147888
0.247315198183059692 0.00696990685537457466 0.324242174625396729
0.0585323423147201538 0.139593109488487244 0.345943331718444824
-0.506528615951538086 0.14925093948841095 0.35671764612197876
0.270784378051757812 -0.311403989791870117 0.326403141021728516
-0.254400432109832764 0.0233545843511819839 -0.0707911625504493713
0.241114765405654907 -0.295458734035491943 0.322640806436538696
0.249103382229804993 0.043784014880657196 0.314715027809143066
0.468490958213806152 -0.101989410817623138 0.0349441021680831909
-0.125207871198654175 0.195000797510147095 0.115499541163444519
0.239998564124107361 -0.326787054538726807 0.318075597286224365
0.500256001949310303 -0.36667943000793457 0.0748497918248176575
0.523426651954650879 -0.324793010950088501 0.026420077309012413
0.444694578647613525 -0.253341704607009888 0.332608044147491455
0.321585357189178467 -0.131561145186424255 -0.106409206986427307
0.0632583945989608765 -0.0108661679551005363 0.321850866079330444
0.511293232440948486 -0.360977053642272949 0.0477069579064846039
0.135654270648956299 -0.100827552378177643 0.040727909654378891
0.0494004823267459869 0.0114291142672300339 0.0298824086785316467
0.0206152573227882385 0.0481206364929676056 0.0427362807095050812
0.0880599245429039001 -0.0661982074379920959 0.289790183305740356
-0.162598103284835815 -0.26595228910446167 0.147897973656654358
0.265094667673110962 -0.020233767107129097 0.0618436820805072784
-0.0291601493954658508 -0.0291818566620349884 0.295640468597412109
0.502134263515472412 -0.240474715828895569 -0.301879674196243286
0.475898534059524536 -0.315126270055770874 -0.301863878965377808
-0.631726920604705811 0.306231826543807983 0.167077884078025818
0.475522994995117188 -0.320916712284088135 0.121246308088302612
0.50907444953918457 -0.30095258355140686 -0.105354882776737213
0.528145194053649902 -0.27505183219909668 -0.317095845937728882
0.493491530418395996 -0.332592606544494629 -0.310635834932327271
0.503544032573699951 -0.320227295160293579 0.0982366353273391724
0.474152266979217529 -0.305958181619644165 -0.29800724983215332
-0.560141265392303467 0.267999380826950073 0.364313989877700806
0.125011682510375977 0.116774529218673706 0.314445346593856812
-0.634365737438201904 0.28216901421546936 0.0539919398725032806
-0.588161289691925049 0.362750619649887085 0.102147884666919708
0.371543467044830322 -0.374265104532241821 -0.212637603282928467
0.43853306770324707 -0.348112016916275024 0.154556781053543091
0.0580224841833114624 0.121211551129817963 0.321316689252853394
-0.575395882129669189 0.36877015233039856 0.215275436639785767
0.264874756336212158 0.0245140641927719116 -0.0583402737975120544
0.368906259536743164 -0.33694949746131897 0.160836681723594666
0.510514318943023682 -0.30167311429977417 -0.111807122826576233
0.133569672703742981 -0.320884793996810913 -0.0977216735482215881
0.516584277153015137 -0.348913282155990601 -0.0200881604105234146
0.389333337545394897 -0.346982449293136597 -0.213977962732315063
-0.577812373638153076 0.318997979164123535 0.0405321046710014343
0.535953879356384277 -0.278020769357681274 -0.320505797863006592
0.467863857746124268 -0.311097919940948486 -0.299147635698318481
0.507221758365631104 -0.347251355648040771 0.0181432720273733139
-0.556711852550506592 0.309636473655700684 0.102009765803813934
0.193912222981452942 -0.339623421430587769 -0.0590615198016166687
0.0699918046593666077 -0.282530874013900757 -0.077860705554485321
0.252597779035568237 -0.250502556562423706 0.320347428321838379
0.240082815289497375 0.0308220610022544861 0.317207902669906616
-0.121427424252033234 -0.048091936856508255 0.00820450950413942337
0.178845763206481934 -0.100381508469581604 -0.0145506467670202255
0.532471537590026855 -0.332432299852371216 -0.0129596209153532982
0.370411545038223267 -0.349713712930679321 -0.208759918808937073
0.535030245780944824 -0.245950356125831604 0.177534475922584534
0.561053156852722168 -0.31597629189491272 -0.330873966217041016
0.554595112800598145 -0.211816176772117615 0.134204059839248657
-0.544090569019317627 0.380712032318115234 0.164274081587791443
0.122929684817790985 0.11705220490694046 0.13340228796005249
-0.583041489124298096 0.351864397525787354 0.0975458770990371704
-0.482386350631713867 0.185724586248397827 -0.0917044058442115784
0.515675246715545654 -0.339320182800292969 0.0390544943511486053
0.253603994846343994 -0.279431432485580444 0.322152286767959595
0.278592020273208618 -0.356226980686187744 -0.125932440161705017
0.507884323596954346 -0.286843925714492798 -0.313568353652954102
-0.432905793190002441 -0.0575430020689964294 0.116550713777542114
0.202125862240791321 0.0903629064559936523 0.223683059215545654
0.244469255208969116 0.10441550612449646 -0.0568947233259677887
-0.196183308959007263 0.201345682144165039 0.349376708269119263
0.250653117895126343 0.0247878227382898331 0.323642700910568237
0.240003153681755066 0.0188741069287061691 0.321327656507492065
-0.0316369496285915375 0.162546873092651367 0.382826626300811768
-0.483304619789123535 -0.0159657280892133713 0.180017516016960144
0.483891695737838745 -0.369254112243652344 0.0462914146482944489
-0.644297003746032715 0.287029147148132324 0.0859592780470848083
0.276101738214492798 -0.166053473949432373 -0.0702283456921577454
-0.41255834698677063 -0.0572168454527854919 0.0787788182497024536
-0.643816888332366943 0.1755257248878479 -0.082259446382522583
-0.226486846804618835 -0.134319484233856201 -0.052275974303483963
0.255109339952468872 -0.265838891267776489 0.321322530508041382
-0.346039772033691406 0.0169726535677909851 -0.117015741765499115
-0.287770241498947144 -0.0919435769319534302 -0.10659094899892807
-0.585883080959320068 0.209620550274848938 -0.218253821134567261
0.26777079701423645 -0.29730069637298584 0.315391421318054199
-0.0258324276655912399 -0.187641143798828125 -0.0434120148420333862
-0.618848562240600586 0.276798486709594727 0.0311771351844072342
-0.609630405902862549 0.298128962516784668 0.0922544747591018677
-0.398286521434783936 -0.0632189735770225525 0.118772111833095551
-0.452468633651733398 -0.0385258905589580536 0.119346551597118378
0.431277990341186523 -0.271981596946716309 0.32947152853012085
-0.0526701658964157104 0.140588641166687012 0.0918957963585853577
-0.503794729709625244 0.15087457001209259 0.355334848165512085
0.240962207317352295 -0.319609403610229492 0.322977066040039062
0.497262626886367798 -0.371070623397827148 0.0576075352728366852
0.399490773677825928 -0.2571067214012146 0.322751551866531372
-0.158732429146766663 -0.263940185308456421 0.181534513831138611
-0.499965310096740723 0.0136992381885647774 0.157932654023170471
0.417761176824569702 -0.297621965408325195 0.329003840684890747
0.535390317440032959 -0.340423345565795898 -0.0181961450725793839
0.344439327716827393 -0.267702877521514893 -0.127618983387947083
-0.497266918420791626 0.0716695636510848999 0.203850209712982178
0.443813532590866089 -0.272422730922698975 0.333699911832809448
0.522149324417114258 -0.335631877183914185 0.0330570973455905914
0.453433871269226074 -0.320237696170806885 -0.292891770601272583
0.474407762289047241 -0.311926960945129395 0.116991996765136719
0.517258822917938232 -0.278726667165756226 -0.312676995992660522
0.502695381641387939 -0.326273351907730103 -0.314201533794403076
0.518252134323120117 -0.32734990119934082 0.102191224694252014
0.479374885559082031 -0.311760038137435913 -0.302032381296157837
0.114597171545028687 0.118372231721878052 0.289302915334701538
-0.122321434319019318 0.268445521593093872 0.158927753567695618
-0.615600049495697021 0.26526939868927002 0.051881738007068634
-0.480207741260528564 0.00270332186482846737 0.181202709674835205
0.426873862743377686 -0.355309724807739258 0.158833518624305725
-0.292947769165039062 -0.111025281250476837 -0.105873174965381622
0.13057398796081543 0.0652774497866630554 0.321503013372421265
0.253931313753128052 0.0384334102272987366 -0.0774572491645812988
0.23568609356880188 0.0936370864510536194 -0.0527237914502620697
0.417816877365112305 -0.261869966983795166 -0.202124208211898804
0.521790087223052979 -0.354911118745803833 -0.0192182529717683792
-0.609681129455566406 0.380955934524536133 0.181024715304374695
0.517608821392059326 -0.279627889394760132 -0.31460118293762207
0.499251782894134521 -0.350264549255371094 0.0243365876376628876
-0.588645517826080322 0.369126617908477783 0.112833388149738312
0.506184875965118408 -0.104916661977767944 0.147661134600639343
-0.1985493004322052 0.311361849308013916 0.113022543489933014
0.264218777418136597 -0.286886155605316162 0.319983065128326416
0.237113147974014282 0.0619370155036449432 0.310880720615386963
-0.144907519221305847 -0.0438380949199199677 0.00425531994551420212
-0.658561348915100098 0.214447736740112305 -0.0464154481887817383
-0.289223283529281616 -0.076384320855140686 -0.0686837285757064819
0.227430731058120728 0.0419088117778301239 -0.047815520316362381
0.551699638366699219 -0.144678428769111633 0.132385283708572388
0.519901633262634277 -0.295609623193740845 0.0751797929406166077
0.517663478851318359 -0.284347712993621826 -0.180970668792724609
-0.358775436878204346 -0.0174955092370510101 -0.0280305966734886169
0.0915224850177764893 0.0879608169198036194 0.0860716104507446289
0.466791540384292603 -0.362179309129714966 -0.0104185575619339943
-0.433689415454864502 0.157402992248535156 -0.0665917843580245972
0.523917853832244873 -0.33589896559715271 0.0691605135798454285
0.263078153133392334 -0.286255478858947754 0.318706244230270386
0.00919750705361366272 -0.0913286358118057251 -0.0259703285992145538
0.0324234738945960999 -0.130734905600547791 0.0220233369618654251
-0.631508708000183105 0.264784574508666992 0.0288343280553817749
0.24232056736946106 0.074112720787525177 0.319153845310211182
0.24039064347743988 0.0293468926101922989 0.319220364093780518
-0.175306722521781921 0.300641417503356934 0.116418793797492981
0.304835706949234009 -0.151562273502349854 0.308096259832382202
0.262110650539398193 -0.291058093309402466 0.321187973022460938
-0.477005988359451294 -0.00856276601552963257 0.166076630353927612
0.242956966161727905 0.0815514624118804932 0.31251642107963562
0.520340800285339355 -0.351556152105331421 0.0821886956691741943
-0.0351408049464225769 -0.237999409437179565 0.124153099954128265
-0.639114677906036377 0.28980863094329834 0.0985910147428512573
-0.234813958406448364 -0.13329489529132843 -0.0580690428614616394
-0.380026340484619141 -0.10923902690410614 0.105415552854537964
-0.237026840448379517 -0.148324772715568542 -0.0579264312982559204
-0.658772468566894531 0.214144051074981689 -0.034119732677936554
0.528971374034881592 -0.352886348962783813 0.0781278237700462341
-0.62195664644241333 0.270049363374710083 0.0522746182978153229
-0.404912561178207397 -0.0647633448243141174 0.111940078437328339
-0.447124779224395752 -0.0419146716594696045 0.121854215860366821
0.26818355917930603 -0.28594556450843811 0.323668897151947021
0.127654343843460083 -0.327006071805953979 0.312665075063705444
0.152336776256561279 -0.343490481376647949 0.317946195602416992
0.447761952877044678 -0.336002439260482788 -0.292875289916992188
0.51581418514251709 -0.303249269723892212 -0.107728227972984314
0.515232324600219727 -0.280599743127822876 -0.312695950269699097
0.484875202178955078 -0.32804599404335022 -0.309678822755813599
0.464363455772399902 -0.346264779567718506 -0.302559316158294678
0.549586117267608643 -0.210534676909446716 -0.315814435482025146
0.524083077907562256 -0.300390273332595825 -0.322366952896118164
0.51795428991317749 -0.301202654838562012 -0.318259716033935547
0.247044980525970459 0.056829206645488739 0.316744357347488403
0.241524055600166321 0.0873060226440429688 0.313084781169891357
-0.292403161525726318 -0.101024918258190155 -0.101983003318309784
-0.454387515783309937 -0.0523990094661712646 0.116939276456832886
0.404957026243209839 -0.272531211376190186 0.322788625955581665
-0.503231704235076904 0.00339318043552339077 0.18897402286529541
0.401247948408126831 -0.28751567006111145 0.325095057487487793
0.39939957857131958 -0.273828774690628052 0.32358214259147644
0.342416703701019287 -0.259256452322006226 0.0903927162289619446
-0.0190161522477865219 -0.244790017604827881 0.128733068704605103
-0.46531340479850769 0.0356053933501243591 0.189430266618728638
-0.194926932454109192 0.221327975392341614 0.172154724597930908
0.366976320743560791 -0.329584449529647827 -0.0232727881520986557
0.323481500148773193 -0.390471100807189941 -0.158742964267730713
0.535471141338348389 -0.323887348175048828 -0.0579928644001483917
-0.442560702562332153 -0.00512515241280198097 0.152582049369812012
-0.0193369891494512558 -0.0598399229347705841 0.141884386539459229
-0.000436212169006466866 -0.236517384648323059 0.106472991406917572
0.526286542415618896 -0.20203864574432373 -0.0797410085797309875
0.449826180934906006 -0.30868065357208252 -0.292741239070892334
0.526818573474884033 -0.275754541158676147 -0.315549910068511963
0.499893546104431152 -0.325223594903945923 -0.312569111585617065
0.475231975317001343 -0.305387020111083984 -0.297259002923965454
-0.127886727452278137 0.246398627758026123 0.139110982418060303
-0.6498146653175354 0.281842321157455444 0.0939608290791511536
-0.199506476521492004 0.286437153816223145 0.335993558168411255
0.498179793357849121 -0.0869282633066177368 0.137038305401802063
0.200770676136016846 -0.35955280065536499 -0.0906989127397537231
0.505472421646118164 -0.36794242262840271 -0.0224807001650333405
0.52735590934753418 -0.242897152900695801 0.173242419958114624
-0.586813390254974365 0.379166573286056519 0.170416608452796936
0.445045173168182373 -0.315275013446807861 -0.287618130445480347
0.498750448226928711 -0.111296974122524261 0.112544067203998566
-0.656604528427124023 0.175234183669090271 -0.104034513235092163
-0.202526658773422241 0.308556169271469116 0.0892369747161865234
0.201450154185295105 -0.0138407433405518532 0.295560538768768311
0.160082042217254639 -0.0624549388885498047 -0.0437933690845966339
-0.580373525619506836 0.302069574594497681 0.368507415056228638
0.275260895490646362 0.0981620997190475464 -0.0287362281233072281
-0.436063230037689209 0.155102893710136414 -0.0861222073435783386
0.534502089023590088 -0.333285272121429443 0.0129873361438512802
-0.569601714611053467 0.197064131498336792 -0.229338720440864563
-0.498471826314926147 0.0446617677807807922 -0.0870308652520179749
0.0312900654971599579 -0.104326076805591583 0.0331887677311897278
0.534068644046783447 -0.264788538217544556 -0.316190958023071289
0.00961717311292886734 0.197445809841156006 0.0278275385499000549
0.302362740039825439 0.0386529117822647095 -0.0841142386198043823
-0.332863092422485352 -0.0163504984229803085 -0.107776209712028503
0.236661404371261597 0.0142288170754909515 0.322129279375076294
0.12510932981967926 0.0127428313717246056 0.299213528633117676
0.527588486671447754 -0.355405509471893311 0.0665732100605964661
0.4671345055103302 -0.310144215822219849 -0.232956334948539734
-0.652794539928436279 0.285186231136322021 0.104065291583538055
0.546683609485626221 -0.220162227749824524 0.163810178637504578
0.528101921081542969 -0.323613762855529785 -0.0157992858439683914
-0.383712947368621826 -0.0567533709108829498 0.0761361867189407349
0.456943422555923462 -0.311160087585449219 -0.292440295219421387
0.504961371421813965 -0.340148657560348511 -0.317819088697433472
0.478843927383422852 -0.314635723829269409 -0.299391984939575195
0.520360350608825684 -0.301606327295303345 -0.317224621772766113
-0.00245667784474790096 -0.140333682298660278 -0.0246760807931423187
0.397734344005584717 -0.27338719367980957 0.323757082223892212
0.401403546333312988 -0.271812528371810913 0.324063628911972046
0.506205201148986816 -0.332212090492248535 0.106119006872177124
-0.468308568000793457 0.0421454533934593201 0.170541346073150635
0.410216659307479858 -0.346132189035415649 0.156858757138252258
-0.361488044261932373 -0.0356480963528156281 -0.148215398192405701
-0.128549844026565552 -0.268093764781951904 0.11239730566740036
0.512686669826507568 -0.369277298450469971 -0.0144250607118010521
-0.214166224002838135 0.312356501817703247 0.0977577865123748779
0.250772058963775635 -0.2874031662940979 0.323121070861816406
0.209120586514472961 0.00918747764080762863 -0.0457649640738964081
0.0699335038661956787 -0.151845023036003113 -0.017040228471159935
-0.17014060914516449 0.304596692323684692 0.118984729051589966
0.471250951290130615 -0.364593267440795898 0.0073099103756248951
-0.291522413492202759 -0.09981498122215271 -0.103239260613918304
0.0363715030252933502 -0.15001361072063446 -0.0215326622128486633
0.232405230402946472 0.0560509264469146729 0.309560835361480713
0.253580182790756226 -0.28896409273147583 0.320904195308685303
-0.472423464059829712 0.000831945799291133881 0.168546825647354126
0.241231992840766907 0.0625121220946311951 0.313465982675552368
0.509083330631256104 -0.352252811193466187 0.064229331910610199
0.227582424879074097 -0.315128743648529053 0.31477847695350647
-0.376024872064590454 -0.093488059937953949 0.0861092209815979004
-0.0628697946667671204 -0.241999909281730652 0.302596390247344971
-0.2231484055519104 -0.128029599785804749 -0.0531159117817878723
-0.410533398389816284 -0.0657780766487121582 0.0984284654259681702
-0.44566771388053894 -0.0450381189584732056 0.132628217339515686
0.239155203104019165 -0.294355064630508423 0.314669132232666016
0.154013976454734802 -0.324692070484161377 0.320268720388412476
0.425532102584838867 -0.2562846839427948 0.328921318054199219
0.438318312168121338 -0.343233555555343628 -0.292532920837402344
0.506380438804626465 -0.334848999977111816 -0.317961126565933228
0.445165544748306274 -0.35257837176322937 -0.286593198776245117
0.238495901226997375 0.0655751973390579224 0.312745004892349243
0.403474241495132446 -0.287743628025054932 0.326219409704208374
-0.495455831289291382 0.00642398698255419731 0.188264936208724976
0.486043810844421387 -0.0633601173758506775 0.132176712155342102
0.0124542461708188057 -0.171062827110290527 0.0100153461098670959
0.531675636768341064 -0.307819277048110962 -0.0619491562247276306
0.31499183177947998 -0.302552163600921631 -0.126580432057380676
0.446020185947418213 -0.291608601808547974 -0.285461634397506714
-0.337416231632232666 0.224463298916816711 0.125748008489608765
-0.401450246572494507 -0.0284872446209192276 -0.00197449466213583946
0.403388381004333496 -0.271954715251922607 0.324447214603424072
-0.133524447679519653 0.195578545331954956 0.167941004037857056
0.399439781904220581 -0.271892786026000977 0.324259847402572632
-0.447136253118515015 -0.0252552852034568787 0.0213156603276729584
-0.138221830129623413 0.244658187031745911 0.191887825727462769
-0.613373696804046631 0.293892621994018555 0.183557480573654175
0.124725043773651123 0.11590663343667984 0.317033469676971436
-0.121132597327232361 0.250403553247451782 0.162036508321762085
-0.583862483501434326 0.348022431135177612 0.0579704828560352325
0.427116990089416504 -0.348299950361251831 0.153342321515083313
-0.567294418811798096 0.294906765222549438 -0.0691381916403770447
0.252188712358474731 0.0265583675354719162 -0.0791874006390571594
0.247995555400848389 0.100263126194477081 -0.0479350127279758453
-0.35796046257019043 -0.056004844605922699 -0.141956239938735962
0.199015885591506958 0.120093107223510742 0.0361731313169002533
0.545837879180908203 -0.131616115570068359 0.112393967807292938
-0.582176327705383301 0.321620255708694458 -0.0230045504868030548
0.206470534205436707 0.0245316736400127411 0.177238404750823975
-0.595896661281585693 0.375043243169784546 0.171829625964164734
0.445090055465698242 -0.319373846054077148 0.127693668007850647
0.255385994911193848 -0.278926372528076172 0.316756159067153931
0.235878109931945801 0.0236679520457983017 0.31697845458984375
-0.363393962383270264 -0.0500106066465377808 -0.0238205771893262863
-0.182893797755241394 0.117956884205341339 0.0424653254449367523
0.2550983726978302 -0.288367718458175659 0.31956636905670166
0.242319107055664062 0.033048972487449646 0.322248369455337524
0.400263458490371704 0.0232901349663734436 0.11563999205827713
-0.340981602668762207 -0.0663613379001617432 -0.147396981716156006
0.0759109854698181152 -0.33320888876914978 0.299083679914474487
-0.387240558862686157 -0.0610041543841362 0.0937652140855789185
-0.448702394962310791 -0.0415112823247909546 0.127636715769767761
0.439666539430618286 -0.279412269592285156 0.333982318639755249
0.034526236355304718 -0.123056240379810333 -0.0254300292581319809
0.41464531421661377 -0.28087317943572998 0.327323228120803833
0.433340638875961304 -0.296167731285095215 0.333475381135940552
0.368201792240142822 -0.278824120759963989 -0.13001549243927002
-0.477992892265319824 0.00126663851551711559 0.188230201601982117
-0.291935056447982788 -0.0965229272842407227 -0.104571342468261719
0.241705596446990967 -0.313146591186523438 0.309908241033554077
0.473471969366073608 -0.354314625263214111 0.00732004363089799881
-0.296768546104431152 -0.0967719629406929016 -0.107035070657730103
0.245068326592445374 -0.288721263408660889 0.320312827825546265
0.0624293871223926544 -0.32991403341293335 0.297161489725112915
0.158206865191459656 -0.267938762903213501 -0.105359166860580444
0.250536024570465088 0.0633261650800704956 0.315896213054656982
-0.483038008213043213 -0.00808050762861967087 0.177839547395706177
0.236665248870849609 0.0664910823106765747 0.315245479345321655
0.23903849720954895 -0.331957161426544189 0.321622550487518311
-0.382706403732299805 -0.0921798795461654663 0.0366590358316898346
-0.216405153274536133 -0.140269145369529724 -0.0543530061841011047
-0.383141428232192993 -0.0638132020831108093 0.0834826380014419556
0.150220081210136414 -0.331804722547531128 0.332049012184143066
0.446183562278747559 -0.27994239330291748 0.3339061439037323
0.407760918140411377 -0.280586749315261841 0.325435370206832886
-0.502541899681091309 0.00640808884054422379 0.188573986291885376
-0.322301179170608521 0.0970608368515968323 -0.0702429264783859253
0.532792031764984131 -0.207567170262336731 -0.0523154065012931824
0.451208561658859253 -0.294047355651855469 -0.290354073047637939
0.487633973360061646 -0.32539704442024231 -0.310808330774307251
0.446649938821792603 -0.309895724058151245 -0.290730178356170654
-0.578226208686828613 0.269059360027313232 0.365704149007797241
-0.46194121241569519 0.105603069067001343 -0.231160640716552734
0.375204950571060181 -0.318796992301940918 0.199379101395606995
-0.590255916118621826 0.366791486740112305 0.13105928897857666
0.392832487821578979 -0.353603988885879517 -0.217354774475097656
0.441349297761917114 -0.310439497232437134 -0.288939088582992554
-0.200908169150352478 0.305283248424530029 0.0951001271605491638
-0.155690371990203857 0.267770946025848389 0.151825204491615295
0.530074059963226318 -0.338528335094451904 0.0720737501978874207
0.464083999395370483 -0.266264915466308594 -0.217485696077346802
-0.633980631828308105 0.27556881308555603 0.106846816837787628
0.438673138618469238 -0.30873185396194458 -0.287107914686203003
0.515673041343688965 -0.277343660593032837 -0.316747277975082397
0.516775012016296387 -0.340500503778457642 -0.32070457935333252
0.454608559608459473 -0.30720868706703186 -0.293164819478988647
0.491204380989074707 -0.322018146514892578 0.0946577712893486023
0.0206529125571250916 -0.276036977767944336 -0.018480909988284111
-0.654539227485656738 0.171769186854362488 -0.108313843607902527
-0.224976852536201477 0.318378567695617676 0.121469348669052124
0.465648472309112549 -0.36420142650604248 0.00614726822823286057
0.481371790170669556 -0.33690980076789856 0.0505339689552783966
0.511681556701660156 -0.339561343193054199 -0.319361209869384766
0.440422087907791138 -0.356735706329345703 -0.297555297613143921
-0.270336121320724487 0.321835905313491821 0.041964896023273468
0.424402058124542236 -0.3134574294090271 -0.281802922487258911
0.415841728448867798 -0.295332819223403931 0.328761458396911621
-0.326485395431518555 -0.0756287723779678345 0.123455382883548737
-0.367312610149383545 -0.0669500753283500671 0.154635682702064514
-0.338670611381530762 0.214626029133796692 0.132883742451667786
0.0101687163114547729 0.119245976209640503 0.105424270033836365
0.542275726795196533 -0.309284508228302002 -0.045979771763086319
0.0136846555396914482 -0.262017369270324707 0.0396204181015491486
-0.00351038062945008278 -0.236793473362922668 0.094381280243396759
0.000253658421570435166 -0.219827726483345032 0.0816540494561195374
0.465227276086807251 -0.36105722188949585 0.0305498726665973663
-0.269710153341293335 -0.138273775577545166 0.177482962608337402
-0.345493525266647339 -0.0661217570304870605 0.141241416335105896
0.123678870499134064 -0.276896953582763672 0.129160866141319275
-0.134005293250083923 0.0786140710115432739 0.0904571041464805603
0.463882952928543091 -0.054476667195558548 0.0179675500839948654
-0.014105609618127346 -0.217142850160598755 0.0804860144853591919
-0.555234551429748535 0.391491591930389404 0.147595524787902832
0.496890932321548462 -0.36692163348197937 0.00546854455024003983
-0.611203253269195557 0.293889641761779785 0.186362311244010925
0.53019636869430542 -0.275403231382369995 -0.317587792873382568
0.370728254318237305 -0.26474800705909729 0.181830286979675293
0.420675456523895264 -0.344617068767547607 0.151110947132110596
0.252331346273422241 0.0390619449317455292 -0.0663129687309265137
0.549727678298950195 -0.150012969970703125 0.124570615589618683
-0.571019232273101807 0.283889800310134888 -0.00650687050074338913
0.501155316829681396 -0.362772941589355469 -0.00106390914879739285
0.208551898598670959 0.115546755492687225 -0.0100693674758076668
-0.289571523666381836 -0.0858943089842796326 -0.0664131715893745422
0.159461155533790588 -0.0834248289465904236 -0.0358832292258739471
-0.340358316898345947 -0.105702929198741913 0.141267836093902588
0.511217415332794189 -0.281572729349136353 -0.313099801540374756
-0.339692145586013794 -0.0798846930265426636 0.0385988838970661163
-0.369786322116851807 0.280541092157363892 -0.0625595301389694214
0.510109663009643555 -0.341104596853256226 0.0653596743941307068
0.302626997232437134 -0.206085309386253357 0.248201325535774231
0.543011128902435303 -0.312173187732696533 -0.0605355836451053619
0.1417560875415802 0.0693499520421028137 0.336680620908737183
-0.595352888107299805 0.267363637685775757 0.0120562296360731125
0.222294434905052185 -0.00723476847633719444 0.295906573534011841
0.23115462064743042 0.0342009216547012329 0.313113749027252197
0.533735990524291992 -0.319776237010955811 -0.0125656584277749062
-0.389775216579437256 -0.0642160698771476746 0.105727531015872955
-0.44804498553276062 -0.0403631776571273804 0.126489192247390747
0.496283650398254395 -0.0914381593465805054 0.154831483960151672
0.251203685998916626 0.0630035325884819031 0.317014157772064209
-0.291652023792266846 -0.0930060446262359619 0.307724595069885254
-0.366987466812133789 -0.115004196763038635 0.104016959667205811
-0.563921928405761719 0.127089336514472961 -0.0785618871450424194
-0.502001285552978516 0.023257160559296608 0.186624333262443542
0.518265902996063232 -0.297594964504241943 -0.313949227333068848
0.472750812768936157 -0.328510940074920654 -0.299805879592895508
-0.574759721755981445 0.268723785877227783 0.362631738185882568
-0.571679651737213135 0.354773908853530884 0.166920319199562073
-0.191979408264160156 0.304536670446395874 0.10146784782409668
-0.662542641162872314 0.239637717604637146 0.0415189452469348907
-0.505370557308197021 0.144216626882553101 0.353319227695465088
0.507266581058502197 -0.347431689500808716 -0.318261533975601196
-0.200818419456481934 0.304866880178451538 0.102120205760002136
0.475370407104492188 -0.357841849327087402 0.00490498030558228493
0.509999215602874756 -0.330920130014419556 0.0666412189602851868
-0.611193180084228516 0.367476403713226318 0.087655872106552124
-0.562991976737976074 0.288126945495605469 -0.0560344904661178589
0.220224887132644653 0.0101305451244115829 0.30943608283996582
0.240803912281990051 0.00497090816497802734 0.321903824806213379
-0.360013067722320557 -0.0571494288742542267 -0.137952357530593872
0.399574577808380127 -0.252957940101623535 0.322199016809463501
0.399875253438949585 -0.263332873582839966 0.324945151805877686
0.22429974377155304 -0.324419647455215454 0.320847064256668091
0.411353707313537598 -0.268071532249450684 0.325364261865615845
-0.509634852409362793 0.0492302924394607544 0.195217281579971313
-0.63170856237411499 0.156329572200775146 -0.0527716539800167084
-0.502343833446502686 0.146781638264656067 0.345292747020721436
0.521058559417724609 -0.350989937782287598 -0.323012977838516235
0.495534390211105347 -0.34856143593788147 0.000421943521359935403
-0.198154032230377197 0.0159097742289304733 -0.0498597733676433563
-0.558233559131622314 0.341637611389160156 -0.00581448432058095932
0.488754332065582275 -0.360692858695983887 0.0412456616759300232
0.449484318494796753 -0.0744097456336021423 0.00228001526556909084
-0.556769669055938721 0.385099261999130249 0.15771232545375824
0.374913275241851807 -0.0814149826765060425 -0.119637325406074524
-0.390149950981140137 0.319424182176589966 0.168815165758132935
-0.385110229253768921 0.327991127967834473 0.197512879967689514
-0.364580243825912476 0.237794786691665649 -0.0834637880325317383
-0.407741248607635498 0.199300587177276611 0.0409137047827243805
-0.644924581050872803 0.286709725856781006 0.0934764519333839417
0.408844918012619019 -0.347494393587112427 0.136630818247795105
0.22263413667678833 0.0826923474669456482 -0.0332123860716819763
0.498834758996963501 -0.161471396684646606 0.124110020697116852
0.500616610050201416 -0.093046627938747406 0.135062158107757568
0.215634629130363464 0.0016814075643196702 0.299766063690185547
-0.353579282760620117 -0.0684272795915603638 -0.00911466032266616821
-0.385837852954864502 0.265792161226272583 -0.0716605111956596375
0.506674885749816895 -0.347328305244445801 0.0551087185740470886
-0.357432276010513306 -0.0566136278212070465 -0.145545348525047302
0.132373318076133728 0.0724065080285072327 0.322404801845550537
-0.0997492745518684387 -0.265917479991912842 0.00611864496022462845
0.242717638611793518 0.0231162775307893753 0.322216898202896118
-0.480906248092651367 -0.012006816454231739 0.185222327709197998
0.242753759026527405 0.048108372837305069 0.317407071590423584
-0.278510838747024536 0.332509398460388184 0.0407409779727458954
0.370152860879898071 -0.0310950968414545059 -0.0396464094519615173
0.520337283611297607 -0.348248779773712158 -0.0361636169254779816
0.293629735708236694 -0.0121953925117850304 0.0373261235654354095
-0.644611716270446777 0.284627199172973633 0.0923245176672935486
0.0357959307730197906 0.136474847793579102 0.0853523984551429749
-0.397905021905899048 -0.0579229556024074554 0.125822752714157104
-0.441898316144943237 -0.0385163873434066772 0.131236448884010315
0.524006962776184082 -0.317837119102478027 -0.0653017163276672363
0.422701478004455566 -0.280260652303695679 0.331423699855804443
0.509838402271270752 -0.345222145318984985 0.0572771541774272919
0.404129564762115479 -0.259135246276855469 0.323843091726303101
-0.480799704790115356 0.0177554264664649963 0.176617905497550964
0.235791772603988647 0.0682935789227485657 0.314807653427124023
-0.479957222938537598 -0.00865894928574562073 0.167256265878677368
0.239419221878051758 0.067303776741027832 0.315211027860641479
0.388514310121536255 0.0257526542991399765 0.106324553489685059
0.219821274280548096 -0.316420853137969971 0.310508012771606445
0.383332580327987671 0.0426592901349067688 0.0693642199039459229
0.463010013103485107 0.0105056595057249069 0.17538924515247345
0.399755477905273438 -0.258927971124649048 0.327415943145751953
-0.500112831592559814 0.0208356622606515884 0.180826857686042786
-0.573952078819274902 0.265997469425201416 0.359854936599731445
-0.665007531642913818 0.229696705937385559 0.021665133535861969
-0.149448215961456299 0.275119245052337646 0.079194582998752594
0.52210235595703125 -0.335409432649612427 -0.322618871927261353
-0.220658093690872192 0.315426141023635864 0.0968261435627937317
0.500070869922637939 -0.346817433834075928 0.0671702325344085693
-0.189971745014190674 0.302514731884002686 0.114866502583026886
0.313933789730072021 -0.130454480648040771 0.300963222980499268
0.225361436605453491 -0.0355290845036506653 0.305396705865859985
0.0574715770781040192 -0.331188112497329712 0.291405320167541504
0.435489147901535034 -0.280292481184005737 0.332937180995941162
0.4092254638671875 -0.286098569631576538 0.331098020076751709
0.385946989059448242 -0.266133934259414673 0.318985819816589355
0.397565156221389771 -0.385053068399429321 -0.225670814514160156
-0.162448391318321228 0.278139621019363403 0.12873096764087677
0.380974918603897095 0.043682146817445755 0.077307187020778656
0.39107215404510498 -0.256087750196456909 0.318999767303466797
-0.500831425189971924 0.0241181664168834686 0.185664504766464233
0.49967542290687561 -0.326293081045150757 -0.313231825828552246
0.380756139755249023 -0.376345127820968628 -0.216273233294487
0.521164536476135254 -0.34963652491569519 -0.325029522180557251
0.520725846290588379 -0.348774701356887817 -0.321966350078582764
0.51335906982421875 -0.320017427206039429 -0.318572878837585449
0.255208492279052734 -0.22272123396396637 0.057647261768579483
0.186141490936279297 -0.142671525478363037 -0.105493441224098206
0.507961928844451904 -0.320511430501937866 0.0293348748236894608
-0.469992905855178833 -0.0122618405148386955 0.180923357605934143
0.496264100074768066 -0.349335819482803345 -0.309911996126174927
0.521510958671569824 -0.327891945838928223 -0.322087198495864868
0.476090818643569946 -0.320617258548736572 -0.303168416023254395
-0.341582208871841431 0.229574084281921387 -0.0443412326276302338
0.201947152614593506 0.132546067237854004 0.112469933927059174
-0.172833919525146484 0.0218851976096630096 0.0256359856575727463
0.265835672616958618 -0.166157901287078857 0.00620829500257968903
0.544818222522735596 -0.328598946332931519 -0.047793954610824585
-0.456819593906402588 -0.0534660369157791138 0.162030547857284546
0.469780236482620239 -0.356441110372543335 -0.30724671483039856
0.478544116020202637 -0.270163118839263916 -0.301618963479995728
0.467392951250076294 -0.362251549959182739 -0.308339834213256836
-0.320563316345214844 0.26638108491897583 0.0114937126636505127
0.0331761017441749573 0.0982831642031669617 0.12867504358291626
-0.284997284412384033 -0.100464403629302979 -0.0874318256974220276
-0.617251098155975342 0.216742724180221558 -0.104980431497097015
0.244645118713378906 0.104225367307662964 -0.0295087732374668121
0.466396242380142212 -0.235443994402885437 -0.228523328900337219
-0.294251203536987305 -0.0889170467853546143 -0.0959971323609352112
0.249337643384933472 -0.276274234056472778 0.322657585144042969
0.222255334258079529 0.0665834918618202209 -0.0276825502514839172
-0.251209676265716553 -0.130603000521659851 -0.0555809326469898224
-0.211881175637245178 0.301754206418991089 0.1487530916929245
0.340074092149734497 -0.140890464186668396 0.318514764308929443
0.529823660850524902 -0.356856226921081543 0.0697394832968711853
-0.600320398807525635 0.356434047222137451 0.060244344174861908
-0.34673646092414856 -0.0561396665871143341 -0.143774956464767456
-0.433225572109222412 0.157263711094856262 -0.0847259610891342163
0.526718974113464355 -0.33198198676109314 0.0204527322202920914
0.528281092643737793 -0.288237988948822021 -0.0700867101550102234
-0.499357998371124268 0.142369970679283142 -0.254076868295669556
0.146664053201675415 0.156492263078689575 0.0590271539986133575
0.253491014242172241 -0.00794406794011592865 0.327879995107650757
0.350216776132583618 -0.14747309684753418 0.32075124979019165
0.442399352788925171 -0.322835713624954224 -0.229385912418365479
-0.224406823515892029 -0.140415400266647339 -0.053882986307144165
0.522657275199890137 -0.350493520498275757 0.0970147177577018738
-0.646513462066650391 0.253259599208831787 0.0237056966871023178
0.393434405326843262 -0.280404180288314819 0.322430402040481567
-0.475161820650100708 -0.0102041987702250481 0.164704248309135437
0.224587857723236084 -0.32542186975479126 0.319103837013244629
-0.364074617624282837 -0.121569201350212097 0.130249232053756714
-0.238870546221733093 -0.141043141484260559 -0.054022662341594696
-0.114148281514644623 -0.00948550272732973099 -0.0166169498115777969
0.389661997556686401 -0.278676241636276245 0.320761680603027344
-0.507477402687072754 0.010938677005469799 0.201780512928962708
0.462723374366760254 -0.297217100858688354 -0.294347584247589111
0.351560086011886597 -0.148430734872817993 0.321607440710067749
0.457992851734161377 -0.303998500108718872 -0.228840991854667664
0.0244620088487863541 -0.14411434531211853 -0.0200923867523670197
0.369208037853240967 -0.328080654144287109 0.318874567747116089
0.391887754201889038 -0.281829088926315308 0.317023009061813354
0.128622159361839294 -0.319556981325149536 -0.0970972776412963867
-0.13469359278678894 0.278213143348693848 0.11761108785867691
-0.333714663982391357 0.0942029580473899841 -0.102431803941726685
0.374193638563156128 -0.376210182905197144 -0.214826717972755432
0.519944310188293457 -0.346024364233016968 -0.322642773389816284
0.523504018783569336 -0.358290374279022217 -0.326511234045028687
-0.0684568285942077637 -0.255189239978790283 0.0988952293992042542
0.326013952493667603 -0.131136655807495117 0.314936071634292603
0.424545735120773315 -0.260052144527435303 0.328447699546813965
-0.480410337448120117 0.0315817557275295258 0.196555197238922119
0.526696383953094482 -0.299877077341079712 -0.322081148624420166
0.538125157356262207 -0.292722880840301514 -0.324494868516921997
0.377990365028381348 -0.37444603443145752 -0.213534757494926453
0.371497690677642822 -0.357385367155075073 -0.21353304386138916
0.524128198623657227 -0.351887553930282593 -0.324889063835144043
0.52543175220489502 -0.363665014505386353 -0.322983056306838989
0.515612781047821045 -0.327434629201889038 -0.319950610399246216
0.479578524827957153 -0.352596819400787354 -0.312090396881103516
0.478542923927307129 -0.365868955850601196 -0.31281358003616333
-0.362268507480621338 0.310207456350326538 0.239727973937988281
-0.321231752634048462 0.103819847106933594 0.0222212132066488266
-0.448096036911010742 0.204018816351890564 -0.0404220111668109894
-0.378194123506546021 0.279133379459381104 -0.00729393353685736656
-0.022632477805018425 -0.261100739240646362 0.14388236403465271
-0.592428088188171387 0.361304879188537598 0.0640437602996826172
0.367695838212966919 -0.373777419328689575 -0.212328523397445679
-0.124299585819244385 -0.0109347430989146233 0.00807326193898916245
0.396762222051620483 -0.353652805089950562 -0.218138262629508972
0.507588684558868408 -0.159725740551948547 0.125495567917823792
0.195664480328559875 0.124562457203865051 0.00673174811527132988
-0.0269938856363296509 0.166637599468231201 0.38318905234336853
-0.334533423185348511 -0.121410369873046875 0.100267075002193451
-0.32565733790397644 0.302705347537994385 -0.0366948358714580536
0.534253835678100586 -0.347014516592025757 0.038028910756111145
0.525511860847473145 -0.332047075033187866 0.0347103141248226166
-0.596256434917449951 0.381962805986404419 0.113213323056697845
-0.0111878961324691772 -0.144542545080184937 -0.0267406683415174484
-0.235610082745552063 0.171809002757072449 -0.00156489689834415913
-0.486059516668319702 -0.0108908331021666527 0.177118584513664246
-0.278431564569473267 0.335922509431838989 0.042290419340133667
0.513617873191833496 -0.349283576011657715 0.0972806885838508606
-0.449149668216705322 -0.0360461361706256866 0.117331050336360931
0.434622675180435181 -0.253495246171951294 0.332051753997802734
0.415113359689712524 -0.278617799282073975 0.327508270740509033
-0.469446480274200439 0.0341949351131916046 0.19349949061870575
0.502445220947265625 -0.339779794216156006 0.00816545542329549789
-0.482027739286422729 -0.0030518602579832077 0.177452996373176575
-0.377977341413497925 -0.106976836919784546 0.0928473472595214844
-0.501580595970153809 0.0219700653105974197 0.18422485888004303
0.360841542482376099 -0.287176966667175293 -0.14159412682056427
0.00150562811177223921 -0.231694936752319336 0.0901711583137512207
-0.140482872724533081 0.264915198087692261 0.0885861217975616455
-0.129780754446983337 0.254233449697494507 0.0715872645378112793
0.312792152166366577 -0.293557852506637573 -0.130964860320091248
0.428458750247955322 -0.255737185478210449 0.330549538135528564
-0.61588519811630249 0.306493788957595825 0.392115473747253418
0.410910934209823608 -0.358236342668533325 -0.226214766502380371
0.505207538604736328 -0.346754789352416992 -0.319734692573547363
0.507899045944213867 -0.352791696786880493 -0.322447896003723145
0.523683130741119385 -0.29873773455619812 -0.318499118089675903
0.509860455989837646 -0.347099870443344116 -0.320061355829238892
0.270248055458068848 -0.169658169150352478 -0.0792723223567008972
0.133921876549720764 0.120162636041641235 0.329423666000366211
0.252067238092422485 -0.285299718379974365 0.328394234180450439
0.324770092964172363 -0.120427466928958893 0.310976177453994751
0.302711725234985352 -0.204656332731246948 0.251468926668167114
0.250371754169464111 -0.00395681103691458702 0.3254355788230896
0.507475435733795166 -0.343320697546005249 0.0878228098154067993
0.242030933499336243 0.0897323042154312134 0.310376167297363281
0.463044852018356323 -0.284302413463592529 -0.230949237942695618
-0.26257026195526123 0.313800036907196045 0.0459347441792488098
0.344412952661514282 -0.1401834636926651 0.329776644706726074
0.374045461416244507 -0.364132523536682129 -0.208525910973548889
0.337961465120315552 -0.129451721906661987 0.321023672819137573
0.526588737964630127 -0.347436100244522095 -0.323888808488845825
0.524353981018066406 -0.352294504642486572 -0.326446235179901123
