ply
format ascii 1.0
element vertex 737
property float x
property float y
property float z
end_header
0.418653637170791626 -0.252941131591796875 0.0982136130332946777
-0.579918205738067627 0.207921892404556274 -0.214904516935348511
0.278624624013900757 -0.0854745209217071533 0.190680131316184998
-0.129477888345718384 0.224084898829460144 0.12649962306022644
-0.3820018470287323 0.103530384600162506 -0.0633159428834915161
0.551579415798187256 -0.2204122394323349 0.114509858191013336
0.383777797222137451 -0.242833137512207031 0.314051628112792969
-0.552534520626068115 0.162672922015190125 0.0797950625419616699
-0.134162649512290955 0.200995162129402161 0.168396875262260437
0.242566168308258057 0.109685204923152924 -0.0488246046006679535
0.116756744682788849 0.0393911302089691162 0.328245818614959717
-0.558906018733978271 0.277596414089202881 0.00249358778819441795
0.320095032453536987 -0.133032366633415222 -0.0795530751347541809
-0.57476729154586792 0.199949547648429871 -0.225851640105247498
0.208155900239944458 0.11767856776714325 0.0453368350863456726
0.463879704475402832 -0.30856478214263916 0.134985491633415222
-0.585077166557312012 0.319333583116531372 -0.0248010475188493729
0.530557870864868164 -0.253737419843673706 0.0984623730182647705
-0.309512346982955933 0.0820474028587341309 -0.0722488313913345337
-0.449284106492996216 0.00800570938736200333 -0.140122026205062866
-0.300862103700637817 0.290271103382110596 0.146313637495040894
-0.526180267333984375 0.181213244795799255 -0.215172111988067627
-0.391418993473052979 -0.0591645613312721252 0.100792400538921356
-0.545058667659759521 0.262394368648529053 -0.1646270751953125
0.313862115144729614 -0.33447110652923584 0.19794812798500061
-0.0595106631517410278 0.0935138538479804993 0.321244210004806519
-0.101332142949104309 0.14334435760974884 0.0935767292976379395
0.49989694356918335 -0.363121360540390015 0.0766039043664932251
0.349131017923355103 -0.28311493992805481 -0.134755492210388184
-0.412041187286376953 0.197617575526237488 0.0364000946283340454
-0.344817757606506348 0.251249819993972778 -0.0134327122941613197
-0.267154037952423096 0.0784809663891792297 -0.0145998038351535797
-0.180447399616241455 0.0181719027459621429 0.0396684147417545319
-0.553061246871948242 0.212216794490814209 -0.0473278313875198364
0.407977938652038574 -0.401088029146194458 -0.215352103114128113
0.517773568630218506 -0.285410672426223755 -0.0999659448862075806
0.395423531532287598 -0.264641910791397095 -0.193395793437957764
0.498014271259307861 -0.274459570646286011 -0.300403952598571777
0.434676378965377808 -0.257504016160964966 -0.00157241849228739738
-0.154192283749580383 -0.244626015424728394 0.148922070860862732
-0.629795491695404053 0.194006592035293579 -0.0476127192378044128
-0.354656398296356201 -6.30839058430865407e-05 -0.151086673140525818
-0.500827491283416748 0.145796358585357666 0.346215128898620605
-0.331283688545227051 0.29929119348526001 0.191034555435180664
-0.334287405014038086 -0.0320696718990802765 -0.132233470678329468
0.113461993634700775 0.0951276049017906189 0.0294433236122131348
0.470222055912017822 -0.135172262787818909 0.0997487455606460571
0.399144202470779419 -0.305219262838363647 0.145441189408302307
-0.456909984350204468 0.167141720652580261 0.116827234625816345
-0.53594595193862915 0.286889910697937012 0.0421714968979358673
-0.276010334491729736 -0.128153339028358459 0.0819695219397544861
-0.482657968997955322 0.248695194721221924 -0.102846048772335052
0.171400383114814758 -0.272357285022735596 0.0368169397115707397
-0.344308614730834961 0.102992899715900421 0.0066075492650270462
-0.365602582693099976 0.282496988773345947 0.0870425328612327576
0.386727452278137207 -0.230186477303504944 -0.121420703828334808
-0.352765738964080811 0.00195836066268384457 0.0353492163121700287
-0.517695367336273193 0.201553642749786377 0.0492445304989814758
-0.384597659111022949 0.18234550952911377 0.0922063067555427551
-0.571413993835449219 0.327759057283401489 -0.0115216998383402824
-0.338767647743225098 -0.0882390588521957397 -0.0538667254149913788
-0.136664986610412598 -0.269515246152877808 0.130455821752548218
0.275265693664550781 -0.166074663400650024 0.055276673287153244
0.313362777233123779 -0.302816599607467651 -0.128044039011001587
-0.380895137786865234 0.249846994876861572 0.233426854014396667
0.310931682586669922 -0.217398673295974731 0.201478719711303711
0.496507138013839722 -0.255140691995620728 -0.105076462030410767
-0.118638768792152405 0.0721693485975265503 0.173725739121437073
0.512681961059570312 -0.362197995185852051 -0.0303577519953250885
-0.508778154850006104 0.268600910902023315 -0.00481842039152979851
-0.594819009304046631 0.243511855602264404 -0.00255305389873683453
-0.585964202880859375 0.250583291053771973 0.19439561665058136
-0.54742276668548584 0.120854206383228302 -0.133982449769973755
-0.244649499654769897 0.182312756776809692 0.356995254755020142
0.462620347738265991 -0.264384746551513672 -0.289959520101547241
0.456336796283721924 -0.256137281656265259 -0.186512231826782227
0.519571363925933838 -0.303066462278366089 0.0448753722012042999
-0.625329434871673584 0.199826762080192566 0.0450902990996837616
-0.255469292402267456 -0.00511964689940214157 -0.0620106086134910583
0.245818585157394409 0.0987956821918487549 -0.0686606243252754211
0.505120515823364258 -0.160181805491447449 0.131211280822753906
0.343403160572052002 -0.0702473297715187073 0.162369027733802795
0.400063395500183105 -0.237351447343826294 0.130676046013832092
-0.359377682209014893 -0.119340807199478149 0.116614788770675659
-0.478686362504959106 0.189137518405914307 0.064106963574886322
-0.574303209781646729 0.341588228940963745 0.0254559312015771866
-0.358727902173995972 -0.063869088888168335 0.0909970551729202271
-0.342448115348815918 0.0111544216051697731 -0.114231035113334656
0.303243458271026611 -0.296159982681274414 0.162388727068901062
-0.504303872585296631 0.220492973923683167 0.142033994197845459
-0.484872192144393921 0.0279397498816251755 -0.0466976873576641083
0.033589828759431839 0.0875954329967498779 0.0880295112729072571
-0.231111675500869751 0.346794456243515015 0.148917585611343384
0.0322812199592590332 0.0101410644128918648 0.0422750413417816162
-0.36542239785194397 -0.0372416414320468903 -0.0325794965028762817
-0.0479348078370094299 -0.234684228897094727 0.301879167556762695
0.186157301068305969 -0.293204814195632935 0.0039746379479765892
0.235008090734481812 -0.0118975285440683365 0.230501338839530945
-0.526142477989196777 0.140194222331047058 0.0682006105780601501
-0.519953131675720215 0.200980722904205322 -0.0671543329954147339
-0.551898062229156494 0.285291820764541626 0.10769277811050415
0.144099384546279907 0.00742756389081478119 0.307978570461273193
0.0682227164506912231 -0.286581456661224365 -0.0812258049845695496
-0.361679434776306152 0.0347986631095409393 -0.160961806774139404
0.307600617408752441 -0.29397234320640564 0.0298787299543619156
-0.338918060064315796 0.212950393557548523 0.159334287047386169
-0.18784564733505249 0.199630990624427795 0.367864668369293213
-0.539717018604278564 0.254455327987670898 -0.0838685557246208191
0.522771894931793213 -0.199931323528289795 -0.0922812372446060181
-0.51872563362121582 0.184862613677978516 0.13665771484375
-0.54331815242767334 0.269560724496841431 -0.00220196601003408432
0.471274405717849731 -0.326599001884460449 0.0449608415365219116
0.289192020893096924 0.0307244714349508286 0.0540620870888233185
0.433454245328903198 -0.306373655796051025 -0.284654557704925537
-0.518320620059967041 0.0895821154117584229 -0.134832009673118591
-0.600278019905090332 0.28489115834236145 0.184150412678718567
0.467801898717880249 -0.321537226438522339 0.127723827958106995
0.467782348394393921 -0.260894536972045898 -0.293223261833190918
-0.403677791357040405 0.300077199935913086 0.142971545457839966
-0.453950375318527222 0.119021967053413391 -0.223653525114059448
0.481701582670211792 -0.31219184398651123 -0.30204010009765625
0.468357712030410767 -0.331072688102722168 -0.00263041071593761444
0.457439571619033813 -0.305623710155487061 -0.291979342699050903
0.524408042430877686 -0.262301325798034668 -0.101656526327133179
-0.408437877893447876 0.31818544864654541 0.162826254963874817
-0.560543239116668701 0.267123430967330933 0.365377813577651978
-0.575856328010559082 0.210176289081573486 -0.200494006276130676
0.447585254907608032 -0.29693177342414856 -0.222624108195304871
0.310672968626022339 -0.076575644314289093 0.149118199944496155
0.534803986549377441 -0.24864526093006134 0.101507887244224548
-0.562316060066223145 0.119380131363868713 -0.232953280210494995
-0.40791204571723938 0.0762022361159324646 -0.116320699453353882
-0.579385161399841309 0.355962544679641724 0.0828374326229095459
0.0416961498558521271 0.114089347422122955 0.31244736909866333
-0.456426948308944702 0.0083433445543050766 0.181792587041854858
0.409603983163833618 -0.344336599111557007 0.16023571789264679
-0.554418981075286865 0.288089126348495483 -0.0489818565547466278
0.543306171894073486 -0.256307721138000488 0.113940693438053131
0.024195939302444458 -0.25028875470161438 0.205190882086753845
0.195860356092453003 0.129728257656097412 0.0351150296628475189
0.315718561410903931 -0.370871275663375854 -0.156648218631744385
0.110888630151748657 0.0591380111873149872 0.319181650876998901
-0.314611375331878662 0.305997490882873535 0.28423115611076355
-0.254250109195709229 -0.13322196900844574 -0.0729988366365432739
-0.38630908727645874 -0.060748610645532608 0.106568202376365662
0.453352272510528564 -0.0730157941579818726 -0.116065226495265961
0.316036760807037354 -0.333502620458602905 0.196080282330513
0.298037827014923096 0.0378726758062839508 0.0503700003027915955
0.476049661636352539 -0.331358850002288818 0.136694788932800293
0.439987450838088989 -0.267805695533752441 -0.281842201948165894
0.461604028940200806 -0.273436367511749268 0.138252779841423035
0.504226446151733398 -0.346763253211975098 0.0177757833153009415
0.519139468669891357 -0.26989474892616272 -0.0867909342050552368
0.498875230550765991 -0.0883984491229057312 0.162095174193382263
0.542458295822143555 -0.215605601668357849 0.111129254102706909
-0.576812207698822021 0.326474040746688843 0.0806445851922035217
0.246961534023284912 0.111039496958255768 -0.0541134700179100037
0.0338829904794692993 0.0679452791810035706 0.272640883922576904
-0.561782598495483398 0.274841338396072388 0.0241786614060401917
-0.613713085651397705 0.271631926298141479 0.038783736526966095
0.535819649696350098 -0.239589020609855652 0.103163458406925201
-0.575799822807312012 0.212317004799842834 -0.116440169513225555
-0.424826204776763916 0.0302050504833459854 -0.188299402594566345
0.304730981588363647 -0.126718521118164062 -0.108001947402954102
-0.384921818971633911 -0.0562614649534225464 0.100810542702674866
-0.603014469146728516 0.259165138006210327 0.0176876988261938095
-0.460420906543731689 0.305870413780212402 0.081390678882598877
0.505092322826385498 -0.264256894588470459 -0.108897574245929718
0.534813880920410156 -0.192677780985832214 0.0289972107857465744
-0.615956962108612061 0.210087358951568604 -0.0558597929775714874
0.452783197164535522 -0.123905636370182037 0.0896630734205245972
0.0338641852140426636 -0.279949039220809937 -0.0356220044195652008
0.402179181575775146 -0.319168120622634888 0.131208375096321106
-0.0935986712574958801 0.0735517367720603943 0.293303012847900391
0.243475720286369324 -0.137099742889404297 0.0113809872418642044
0.161605209112167358 -0.271916359663009644 0.0441108234226703644
-0.5903281569480896 0.36875644326210022 0.0904392078518867493
0.0273579712957143784 -0.012096719816327095 0.0281419120728969574
0.196082264184951782 0.0336774289608001709 0.178363040089607239
-0.30599328875541687 -0.0919594913721084595 0.305574238300323486
0.493906766176223755 -0.367188990116119385 0.0201600771397352219
0.52180105447769165 -0.311742544174194336 0.0463608168065547943
0.502833783626556396 -0.153802633285522461 0.119268283247947693
0.0811010599136352539 -0.272450476884841919 -0.0593143664300441742
-0.325230836868286133 -0.103779077529907227 0.0885616093873977661
-0.585937201976776123 0.33442312479019165 0.0188251342624425888
-0.0737137123942375183 -0.236251175403594971 0.301741451025009155
0.19459165632724762 -0.340249389410018921 -0.0620673112571239471
-0.398585110902786255 0.271625757217407227 -0.0543996654450893402
-0.521521508693695068 0.0436535514891147614 -0.0574893876910209656
-0.257531493902206421 0.14175906777381897 0.0914661139249801636
-0.213304176926612854 -0.136244237422943115 -0.0630788356065750122
0.508712112903594971 -0.10496809333562851 0.144585743546485901
0.214379087090492249 -0.280000150203704834 -0.00902213063091039658
0.238398328423500061 -0.0763810053467750549 0.127120330929756165
-0.140092551708221436 0.296155959367752075 0.147968962788581848
-0.655747890472412109 0.171078294515609741 -0.112179495394229889
0.253591328859329224 -0.00976722408086061478 0.250167042016983032
0.25043642520904541 -0.179183587431907654 0.302898496389389038
-0.262830942869186401 -0.137517109513282776 -0.06748228520154953
-0.200472310185432434 0.313963890075683594 0.0991180017590522766
0.257931679487228394 -0.278404742479324341 0.323227405548095703
0.17912311851978302 -0.0543566793203353882 -0.0507123582065105438
-0.443103611469268799 -0.0672143995761871338 0.129242256283760071
-0.503596186637878418 0.0295341182500123978 0.247312471270561218
-0.496807873249053955 0.0360107198357582092 -0.0114540774375200272
0.232905313372612 0.0225113518536090851 0.314243316650390625
-0.371185928583145142 -0.046309296041727066 0.143515869975090027
-0.348663121461868286 0.106062158942222595 0.0661597698926925659
0.307778745889663696 -0.199130475521087646 0.243140801787376404
0.308639764785766602 -0.00580205069854855537 0.2198142409324646
-0.44249531626701355 0.266143918037414551 -0.0370389074087142944
0.517300903797149658 -0.326846331357955933 -0.0809419900178909302
-0.538516581058502197 0.138013526797294617 -0.0969076603651046753
0.465954124927520752 -0.124676153063774109 0.00233117793686687946
-0.385049492120742798 0.254879295825958252 0.0329596810042858124
0.494095146656036377 -0.30222812294960022 0.121421575546264648
0.465497285127639771 -0.106427252292633057 0.0599114559590816498
0.204026132822036743 0.0149276293814182281 -0.0419196821749210358
-0.224248513579368591 0.295326411724090576 0.158825099468231201
-0.124837473034858704 -0.0494165681302547455 0.0111024761572480202
-0.231456935405731201 0.227941945195198059 0.34824448823928833
-0.380579471588134766 -0.0548719838261604309 0.145629122853279114
0.341438621282577515 -0.0740164071321487427 0.0480070486664772034
-0.435705691576004028 -0.0127580668777227402 0.0342575386166572571
0.205679193139076233 0.0163370836526155472 0.0706793665885925293
0.0564781017601490021 -0.0863677039742469788 0.23946024477481842
-0.383662611246109009 -0.0600601322948932648 0.1167449951171875
-0.136515766382217407 -0.265317738056182861 -0.00100135896354913712
-0.243505373597145081 0.0630700215697288513 0.244967550039291382
-0.541836798191070557 0.210383772850036621 0.162946462631225586
-0.590423345565795898 0.286747008562088013 -0.00699220085516571999
0.307223230600357056 0.0173794757574796677 0.0432020872831344604
0.478698998689651489 -0.315013140439987183 -0.304917842149734497
0.503952503204345703 -0.345808357000350952 -0.0633549317717552185
0.471837490797042847 -0.305442601442337036 0.115439869463443756
0.527314960956573486 -0.303160518407821655 -0.108929470181465149
-0.402553170919418335 0.311022341251373291 0.134877234697341919
0.518128275871276855 -0.251509249210357666 -0.30690494179725647
0.507812201976776123 -0.329299390316009521 -0.314278393983840942
0.51901543140411377 -0.331655800342559814 0.0919903889298439026
0.477581620216369629 -0.304482012987136841 -0.30255359411239624
0.527771830558776855 -0.285898596048355103 -0.107544668018817902
-0.559659421443939209 0.266738921403884888 0.365763604640960693
-0.639838874340057373 0.289149761199951172 0.0854500606656074524
0.371657788753509521 -0.401413232088088989 -0.217063888907432556
-0.449508160352706909 -0.00157309859059751034 0.175280541181564331
0.17676272988319397 0.072678692638874054 0.00695498380810022354
-0.453241437673568726 0.13424953818321228 -0.213357642292976379
0.403330087661743164 -0.336175680160522461 0.129350721836090088
-0.598590075969696045 0.206945344805717468 0.0011047654552385211
0.247833624482154846 -0.114785484969615936 -0.0704406872391700745
-0.482835322618484497 0.182303249835968018 -0.209755599498748779
-0.375829935073852539 -0.0636058151721954346 0.0918828099966049194
0.523124575614929199 -0.321240991353988647 0.0362962968647480011
0.542600691318511963 -0.217671722173690796 0.108656734228134155
0.525932669639587402 -0.273804664611816406 0.055728912353515625
0.111497312784194946 0.0837002173066139221 0.317476421594619751
-0.350581556558609009 -0.0483979322016239166 0.0452021211385726929
0.105418644845485687 0.0718413516879081726 0.295717328786849976
-0.16493988037109375 0.132590785622596741 0.151537254452705383
0.502994179725646973 -0.256730437278747559 -0.102015875279903412
0.429152458906173706 -0.304159760475158691 0.136326313018798828
-0.355427145957946777 -0.101939812302589417 0.159215033054351807
0.498852849006652832 -0.201856747269630432 -0.107472464442253113
-0.578095972537994385 0.347622513771057129 0.152375206351280212
0.105390578508377075 -0.0118408491834998131 0.0214685741811990738
-0.340910613536834717 -0.123875439167022705 0.104772567749023438
-0.120429269969463348 -0.276110529899597168 0.174233794212341309
-0.160812392830848694 0.166840106248855591 0.32531324028968811
0.515237510204315186 -0.358877390623092651 0.0272305142134428024
0.521277010440826416 -0.287844032049179077 -0.0112383384257555008
0.479099959135055542 -0.140225261449813843 0.108046755194664001
-0.180489629507064819 0.0288643445819616318 0.0261474289000034332
-0.34162604808807373 -0.122096583247184753 0.103915996849536896
-0.599800705909729004 0.37633398175239563 0.188625767827033997
-0.119436100125312805 -0.267222046852111816 0.218476444482803345
0.523691654205322266 -0.309083074331283569 -0.0743312910199165344
0.516574740409851074 -0.252322882413864136 -0.309028118848800659
0.455242395401000977 -0.308432817459106445 -0.293969333171844482
0.240899160504341125 -0.0962752476334571838 0.158974424004554749
-0.619802296161651611 0.271821439266204834 0.0374762155115604401
-0.429587125778198242 -0.00431389873847365379 0.177515625953674316
-0.250034064054489136 -0.137285590171813965 -0.0708620324730873108
0.317577093839645386 -0.319283902645111084 0.122919164597988129
0.539531588554382324 -0.249995708465576172 0.107039988040924072
0.452957212924957275 -0.140014514327049255 0.0158736687153577805
0.42959025502204895 -0.321308910846710205 0.124118179082870483
0.413570255041122437 -0.331027299165725708 -0.209318682551383972
0.474039822816848755 -0.128800347447395325 0.109932363033294678
-0.548546016216278076 0.378121227025985718 0.172827884554862976
0.190843284130096436 -0.340110450983047485 -0.0129668591544032097
-0.201314955949783325 -0.13579675555229187 -0.0681990087032318115
-0.185111969709396362 0.311684638261795044 0.118104405701160431
0.103704378008842468 0.107412591576576233 0.17473854124546051
-0.443944483995437622 -0.0547761879861354828 0.0920670107007026672
-0.48896375298500061 0.0296336635947227478 0.0171186123043298721
0.231675624847412109 0.0107127269729971886 0.315319359302520752
-0.0243497602641582489 0.112789615988731384 0.312665224075317383
0.243551388382911682 -0.0389110483229160309 0.204992011189460754
-0.384399622678756714 0.244894608855247498 0.0345506370067596436
-0.65363013744354248 0.21635088324546814 -0.0388955585658550262
0.4832267165184021 -0.116456694900989532 0.0238987337797880173
0.122550427913665771 0.0792181193828582764 0.13887631893157959
-0.381536036729812622 -0.0730427652597427368 0.095826663076877594
0.319980472326278687 -0.0725851953029632568 0.0628229305148124695
-0.440244376659393311 -0.0120795788243412971 0.00711343390867114067
-0.501730024814605713 0.233286798000335693 -0.0707839131355285645
-0.546798825263977051 0.203052759170532227 -0.0681726932525634766
0.0889688730239868164 0.0914038941264152527 0.080364815890789032
-0.519430339336395264 0.20414501428604126 -0.046842820942401886
-0.167854472994804382 0.0719808861613273621 0.232700496912002563
-0.0569537431001663208 -0.187187314033508301 0.0270787402987480164
-0.212056204676628113 0.290374636650085449 0.10935666412115097
0.249963730573654175 -0.00563957635313272476 0.0227641016244888306
-0.555368185043334961 0.203924089670181274 0.118625737726688385
-0.456877857446670532 0.216000646352767944 0.0248118136078119278
-0.462158322334289551 0.266049861907958984 -0.00243581831455230713
-0.574984133243560791 0.247208595275878906 -0.0760857537388801575
-0.388870716094970703 0.274722874164581299 -0.083822593092918396
0.344022244215011597 -0.134961217641830444 0.319153755903244019
-0.498153448104858398 0.206412836909294128 -0.0113078486174345016
-0.345510423183441162 0.292428314685821533 -0.049843568354845047
0.526235580444335938 -0.361307024955749512 0.0421278886497020721
-0.539540946483612061 0.214670762419700623 0.201299965381622314
-0.568841338157653809 0.293970495462417603 -0.00279908417724072933
0.316894739866256714 0.0235050711780786514 0.0491881445050239563
0.482316166162490845 -0.307157754898071289 -0.303223937749862671
0.479944676160812378 -0.326568394899368286 0.125712186098098755
0.523462891578674316 -0.307214736938476562 -0.098318934440612793
0.490669488906860352 -0.310926824808120728 -0.306986302137374878
0.51645958423614502 -0.32529112696647644 0.120175406336784363
0.444849938154220581 -0.300351262092590332 -0.29020807147026062
0.52347952127456665 -0.304765641689300537 -0.0969817712903022766
0.134575039148330688 0.116022340953350067 0.337327510118484497
-0.641970694065093994 0.242201924324035645 -0.00909461081027984619
-0.292222380638122559 -0.114262908697128296 -0.105430334806442261
0.539470076560974121 -0.255731821060180664 0.0925422236323356628
0.129440262913703918 0.0972341150045394897 0.317605048418045044
-0.234834983944892883 -0.143923208117485046 -0.0710937902331352234
0.252777338027954102 0.0298461373895406723 -0.0854940041899681091
0.531212091445922852 -0.323380470275878906 0.00719058746472001076
-0.598936915397644043 0.306911587715148926 0.104787841439247131
0.53232651948928833 -0.244902417063713074 0.0868983864784240723
-0.373715221881866455 -0.0613021180033683777 0.0925430506467819214
0.52682793140411377 -0.275521159172058105 -0.122851923108100891
-0.500820934772491455 0.148228913545608521 0.353221327066421509
0.385420501232147217 -0.297907620668411255 0.13216853141784668
0.1330738365650177 -0.332273304462432861 -0.100118756294250488
0.523019254207611084 -0.35510331392288208 -0.0145702902227640152
-0.436053037643432617 0.150094136595726013 -0.0846982598304748535
0.516006290912628174 -0.300354927778244019 0.0650569424033164978
0.393408298492431641 -0.368070334196090698 -0.213272601366043091
0.500754952430725098 -0.171709403395652771 0.130393430590629578
0.533480584621429443 -0.334254860877990723 0.028742542490363121
-0.579493343830108643 0.34842643141746521 0.0406128615140914917
0.520254731178283691 -0.241080582141876221 -0.308270066976547241
-0.600603282451629639 0.370191901922225952 0.104956232011318207
-0.500323235988616943 0.146599888801574707 0.355425417423248291
0.234210267663002014 -0.278191417455673218 0.317615389823913574
-0.180960759520530701 -0.137418597936630249 -0.0553588569164276123
-0.227997913956642151 -0.138386860489845276 -0.0532632097601890564
-0.203864738345146179 0.297976374626159668 0.126932188868522644
0.262762576341629028 -0.289995729923248291 0.323915362358093262
-0.361937969923019409 -0.0310089904814958572 0.119759194552898407
-0.499746024608612061 0.0189731679856777191 0.032152082771062851
0.243151947855949402 -0.000208008845220319927 0.322561323642730713
0.141590505838394165 -0.290792614221572876 0.311925649642944336
0.308353453874588013 -0.207846835255622864 0.248475983738899231
-0.385708361864089966 0.254419088363647461 0.0346038937568664551
0.531341969966888428 -0.262524038553237915 0.103265866637229919
0.224379315972328186 0.0224337950348854065 0.305719345808029175
0.530857384204864502 -0.147537484765052795 -0.307776421308517456
-0.644479453563690186 0.230996102094650269 -0.0471274405717849731
0.541523575782775879 -0.311167508363723755 -0.044076915830373764
0.508095920085906982 -0.267902404069900513 -0.311053216457366943
0.514581978321075439 -0.316261738538742065 -0.294656872749328613
0.459137231111526489 -0.291027098894119263 -0.296135872602462769
-0.542693257331848145 0.267808496952056885 -0.188972428441047668
-0.621043086051940918 0.288565099239349365 0.0669830963015556335
0.363786190748214722 -0.384404867887496948 -0.20569397509098053
-0.0920770168304443359 0.266886591911315918 0.18955191969871521
-0.44805598258972168 0.130962163209915161 -0.208464711904525757
-0.575050234794616699 0.203432634472846985 -0.126725375652313232
-0.629691720008850098 0.191344678401947021 -0.0395604036748409271
-0.469362586736679077 0.138620585203170776 -0.23076176643371582
0.257996946573257446 -0.017239641398191452 -0.0717004761099815369
0.230869337916374207 0.053683742880821228 -0.0447793751955032349
0.11340600997209549 0.109434820711612701 0.301867753267288208
-0.583711564540863037 0.218086913228034973 -0.221072688698768616
-0.597826242446899414 0.234858423471450806 -0.0104493405669927597
-0.366691410541534424 -0.0921763107180595398 0.122998245060443878
-0.329689353704452515 -0.125800043344497681 0.137437701225280762
-0.634221136569976807 0.199264004826545715 -0.0379757359623908997
-0.425356209278106689 -0.0553479529917240143 0.0994237810373306274
-0.477712750434875488 0.0197528358548879623 -0.0362874716520309448
0.208968266844749451 0.00830170512199401855 0.301091611385345459
-0.633798480033874512 0.247727826237678528 -0.00566887762397527695
-0.127640947699546814 0.269545406103134155 0.132448926568031311
0.271337747573852539 -0.330550163984298706 0.18036988377571106
0.533287227153778076 -0.21027962863445282 -0.0984737426042556763
-0.12609843909740448 -0.112963072955608368 -0.0545598454773426056
0.454452276229858398 -0.339002341032028198 -0.297665894031524658
-0.212225660681724548 0.0359095931053161621 -0.0594245195388793945
-0.552821576595306396 0.175397202372550964 0.0130905322730541229
-0.198136240243911743 0.139297649264335632 0.0213821940124034882
-0.012187417596578598 -0.102780595421791077 -0.0426865629851818085
0.265010714530944824 -0.275165736675262451 0.202710971236228943
0.348964333534240723 -0.321279823780059814 0.000305914843920618296
-0.155565068125724792 0.0694711878895759583 0.0277744214981794357
-0.248814851045608521 0.130461037158966064 -0.034188050776720047
0.199470534920692444 0.001488305046223104 0.019408009946346283
0.0767332836985588074 0.080647297203540802 0.0242477413266897202
-0.283014774322509766 0.287937581539154053 -0.00569953909143805504
0.477209270000457764 -0.289913982152938843 -0.30129539966583252
-0.556493580341339111 0.265405535697937012 -0.0169431548565626144
-0.237008243799209595 0.0973083376884460449 -0.0322049632668495178
0.138142004609107971 -0.281130164861679077 0.150291681289672852
0.296658635139465332 -0.297581911087036133 0.0572316497564315796
-0.28563457727432251 0.256918758153915405 0.000785507727414369583
-0.0207108091562986374 -0.0406472161412239075 0.0892251431941986084
0.204844892024993896 0.0425713099539279938 0.0660227015614509583
-0.143391638994216919 -0.0855288207530975342 0.0919010043144226074
0.372784823179244995 -0.0735199302434921265 0.0319209694862365723
0.521590769290924072 -0.199215784668922424 -0.0981614664196968079
0.48735344409942627 -0.297916531562805176 -0.304956376552581787
0.480666041374206543 -0.315026462078094482 0.122610345482826233
0.513842225074768066 -0.307324647903442383 -0.102065242826938629
0.496276944875717163 -0.309549838304519653 -0.309327900409698486
0.506397068500518799 -0.3279857337474823 -0.00380429206416010857
0.511961460113525391 -0.324726730585098267 0.118640124797821045
0.466138899326324463 -0.288814365863800049 -0.296148568391799927
0.43824353814125061 -0.263528287410736084 -0.1939096599817276
0.13538244366645813 0.116670094430446625 0.33724367618560791
0.396758228540420532 -0.244570940732955933 0.31899946928024292
-0.601270735263824463 0.353964358568191528 0.0658517107367515564
-0.504872322082519531 0.356807231903076172 0.178525343537330627
0.542845964431762695 -0.282689034938812256 0.098206058144569397
0.256719648838043213 0.0368043705821037292 -0.0716969519853591919
-0.232819467782974243 0.155657559633255005 -0.00504798069596290588
0.506387829780578613 -0.33215409517288208 -0.00222774222493171692
0.445048928260803223 -0.250105977058410645 -0.22762085497379303
-0.638814687728881836 0.254197090864181519 0.0548766031861305237
0.532820761203765869 -0.262856513261795044 0.093528062105178833
-0.392897158861160278 -0.0596774183213710785 0.10060235857963562
0.524138212203979492 -0.289789706468582153 -0.0917640700936317444
0.0282984171062707901 -0.274434566497802734 -0.0350861102342605591
0.385387450456619263 -0.30623936653137207 0.119098395109176636
-0.581960737705230713 0.366487592458724976 0.131998464465141296
0.240483596920967102 0.00275803054682910442 0.181397691369056702
-0.112778037786483765 0.165161743760108948 0.347650468349456787
0.482419192790985107 -0.368523240089416504 -0.0217420496046543121
0.41249433159828186 -0.321268290281295776 -0.210653126239776611
0.507477521896362305 -0.155668184161186218 0.124312914907932281
0.529034435749053955 -0.334884941577911377 0.0131198056042194366
-0.583894610404968262 0.336110442876815796 0.0344388298690319061
-0.590535342693328857 0.381589323282241821 0.131560951471328735
0.526546716690063477 -0.244440093636512756 -0.310246646404266357
0.474678337574005127 -0.290835350751876831 -0.299046218395233154
-0.597010254859924316 0.353361666202545166 0.169942468404769897
-0.587121486663818359 0.371132731437683105 0.101423516869544983
-0.211809679865837097 -0.129891082644462585 -0.0574831068515777588
0.234540149569511414 -0.293285667896270752 0.315184265375137329
0.238275319337844849 0.0669383928179740906 0.320316165685653687
0.542080879211425781 -0.314003795385360718 -0.0577954910695552826
-0.444503456354141235 -0.0488098859786987305 0.127256914973258972
0.359826266765594482 -0.388482868671417236 -0.20864085853099823
-0.556326091289520264 0.210887208580970764 -0.113304071128368378
0.521051406860351562 -0.279675662517547607 -0.176754996180534363
0.242132395505905151 0.0345791615545749664 0.314793854951858521
0.24302460253238678 0.000344503525411710143 0.0239918045699596405
0.380899310111999512 0.0388097390532493591 0.0122785754501819611
0.527017116546630859 -0.230735823512077332 -0.309750795364379883
0.327231258153915405 0.0961728841066360474 -0.0355169586837291718
-0.374002903699874878 -0.0605957917869091034 -0.132665544748306274
0.513102293014526367 -0.167674541473388672 0.136198818683624268
-0.574271321296691895 0.321705162525177002 0.0497954636812210083
-0.558839499950408936 0.283054262399673462 0.364302605390548706
0.224705025553703308 0.031892385333776474 -0.0578340739011764526
-0.574097871780395508 0.214401081204414368 -0.220710590481758118
-0.0440134666860103607 0.156376421451568604 0.0814536437392234802
0.114366061985492706 0.109943635761737823 0.0257599819451570511
0.342988193035125732 -0.24709676206111908 -0.0965321063995361328
-0.284809321165084839 0.300146609544754028 -0.00258814962580800056
0.153574123978614807 -0.00448935059830546379 -0.00325596216134727001
0.0693340227007865906 0.13869573175907135 0.0759391635656356812
-0.26980021595954895 0.279898613691329956 0.00193585921078920364
0.503592967987060547 -0.292728453874588013 -0.158996999263763428
0.137239351868629456 -0.0259338673204183578 0.0134154139086604118
-0.338826775550842285 -0.0323582254350185394 0.0229966267943382263
0.373596668243408203 -0.0919211804866790771 0.0446262545883655548
0.200196042656898499 0.101192839443683624 -0.00146783236414194107
-0.297063529491424561 -0.0253821853548288345 0.0361309461295604706
0.132048219442367554 -0.0179166551679372787 -0.0257780160754919052
0.101665347814559937 0.0158995781093835831 0.0914920717477798462
0.175939545035362244 0.119283229112625122 0.0383569188416004181
-0.230309769511222839 -0.0640199556946754456 0.104825705289840698
0.486336976289749146 -0.296779423952102661 -0.303184211254119873
-0.602991461753845215 0.289169400930404663 0.185387641191482544
0.467389076948165894 -0.308903694152832031 0.120369710028171539
0.378465026617050171 -0.0145047558471560478 0.00676108663901686668
0.514589786529541016 -0.295456230640411377 -0.103155650198459625
0.519087851047515869 -0.239828497171401978 -0.307251513004302979
0.47817501425743103 -0.309848368167877197 -0.299940615892410278
0.483638375997543335 -0.274626642465591431 -0.299562394618988037
0.11745346337556839 0.118564657866954803 0.297815918922424316
-0.583972454071044922 0.356025487184524536 0.0660666078329086304
0.3839397132396698 -0.337534993886947632 0.125784829258918762
-0.574237942695617676 0.317389816045761108 -0.026269376277923584
-0.604216814041137695 0.216853141784667969 -0.086596757173538208
0.267989099025726318 0.0392097160220146179 -0.0858836472034454346
-0.356173485517501831 -0.0224982332438230515 -0.130948275327682495
-0.564048290252685547 0.314012736082077026 -0.00763474591076374054
0.190918192267417908 -0.341024070978164673 -0.0745010897517204285
0.404430389404296875 -0.357760876417160034 -0.223707512021064758
-0.500072062015533447 0.145183771848678589 0.354769259691238403
0.509779155254364014 -0.151625528931617737 0.115288935601711273
0.497100532054901123 -0.264034271240234375 -0.304046660661697388
0.458223938941955566 -0.280988335609436035 -0.289398431777954102
0.441189944744110107 -0.265067994594573975 -0.283355087041854858
-0.587788820266723633 0.357131749391555786 0.0619831718504428864
0.505382061004638672 -0.126940935850143433 0.124711133539676666
-0.205960825085639954 0.312143415212631226 0.108924396336078644
0.268352478742599487 -0.284306734800338745 0.319376945495605469
0.23275361955165863 0.0033300379291176796 0.318084269762039185
0.51348876953125 -0.175763353705406189 -0.281399160623550415
-0.114954560995101929 0.00961980130523443222 0.00613041548058390617
0.404162675142288208 -0.359789878129959106 -0.224330946803092957
0.417812824249267578 -0.313467919826507568 0.144039183855056763
-0.555276632308959961 0.376118004322052002 0.186985358595848083
-0.175376608967781067 0.308824896812438965 0.118606626987457275
-0.389466404914855957 0.275694549083709717 -0.0848238095641136169
0.365466415882110596 0.0517422854900360107 0.0249779820442199707
0.12941528856754303 0.115460783243179321 0.319043338298797607
-0.286254942417144775 -0.100941263139247894 -0.0918895676732063293
0.258375048637390137 0.100833393633365631 -0.0616546645760536194
-0.361013233661651611 -0.0601478666067123413 -0.143926411867141724
0.134360358119010925 0.11342032253742218 0.337986528873443604
-0.562867283821105957 0.199056625366210938 -0.228692933917045593
-0.276127099990844727 0.287665992975234985 -0.000697950832545757294
0.455141663551330566 -0.246555328369140625 -0.287940293550491333
0.460486948490142822 -0.275518834590911865 -0.290465116500854492
-0.634645164012908936 0.307809442281723022 0.170610666275024414
0.512708127498626709 -0.317639976739883423 -0.0382668152451515198
0.469192087650299072 -0.265915513038635254 -0.297594070434570312
0.478406637907028198 -0.295138001441955566 -0.29987373948097229
0.458398371934890747 -0.246338710188865662 -0.289511770009994507
0.381400644779205322 -0.361127793788909912 -0.213522240519523621
-0.479217767715454102 -0.0129926865920424461 0.18600057065486908
-0.516244292259216309 0.365384906530380249 0.174234434962272644
-0.618301331996917725 0.201747238636016846 -0.0868559330701828003
-0.237024977803230286 0.0184991192072629929 -0.0723291784524917603
-0.382348716259002686 -0.0594324767589569092 0.0238781478255987167
0.475093245506286621 -0.36852794885635376 0.0221193563193082809
-0.649032294750213623 0.23644593358039856 0.0325140021741390228
0.41285252571105957 -0.346857905387878418 -0.221304014325141907
0.526274561882019043 -0.337341547012329102 0.0803521499037742615
0.506284773349761963 -0.23912811279296875 -0.307709574699401855
0.249708056449890137 -0.282494157552719116 0.318428307771682739
0.239431232213973999 0.0663700252771377563 0.314862728118896484
0.539801597595214844 -0.301990628242492676 -0.0933453887701034546
-0.447657674551010132 -0.041811671108007431 0.126691505312919617
-0.0436096079647541046 0.104157038033008575 0.317943453788757324
0.248183086514472961 0.0208215359598398209 0.322421103715896606
-0.284578472375869751 -0.100070558488368988 -0.0989041179418563843
-0.137472629547119141 -0.0153809404000639915 -0.0485824309289455414
-0.277591556310653687 0.337525933980941772 0.047187361866235733
-0.25442090630531311 0.289583772420883179 -0.00301626464352011681
-0.218618318438529968 0.321567058563232422 0.0700391083955764771
-0.573009371757507324 0.151955902576446533 -0.0741947218775749207
-0.28966483473777771 0.292367011308670044 0.0162450429052114487
0.525848507881164551 -0.320839762687683105 0.027479659765958786
0.346347540616989136 -0.0305963791906833649 -0.0341108404099941254
0.522462725639343262 -0.363110065460205078 0.0896838903427124023
-0.0830471515655517578 -0.112145580351352692 0.0786530449986457825
-0.40372130274772644 0.32566109299659729 0.121390014886856079
0.504990518093109131 -0.367251694202423096 -0.00417442107573151588
-0.118417270481586456 0.265805065631866455 0.121145576238632202
0.518946945667266846 -0.343138575553894043 0.036146700382232666
0.130439475178718567 -0.33496856689453125 0.3013896644115448
0.466842949390411377 -0.311236649751663208 0.0727637112140655518
0.483092695474624634 -0.374194830656051636 0.0526298098266124725
0.421300023794174194 -0.0261668004095554352 0.0652074292302131653
0.494386613368988037 -0.363708406686782837 -0.0152185298502445221
-0.232677653431892395 0.286823481321334839 0.0843186527490615845
0.531448781490325928 -0.331931978464126587 -0.00691597582772374153
-0.271677553653717041 0.315048128366470337 0.114122867584228516
0.308486759662628174 0.00246666301973164082 0.0466358363628387451
0.467673957347869873 -0.263523966073989868 -0.295665651559829712
0.474032431840896606 -0.304521560668945312 0.114526212215423584
0.511414945125579834 -0.313788801431655884 -0.104053899645805359
0.509433448314666748 -0.245477303862571716 -0.308030068874359131
0.448208421468734741 -0.29262205958366394 -0.292358875274658203
0.466640651226043701 -0.283383786678314209 -0.296871721744537354
0.138592585921287537 0.112540699541568756 0.336928337812423706
-0.651880085468292236 0.28541293740272522 0.0983007326722145081
-0.638053596019744873 0.244542106986045837 -0.0378867872059345245
0.136566638946533203 0.0690179616212844849 0.338047027587890625
-0.576833665370941162 0.303521096706390381 -0.0552571453154087067
0.262766391038894653 0.0303830560296773911 -0.0731003284454345703
0.542155444622039795 -0.216904520988464355 0.111853308975696564
-0.359805911779403687 -0.0361384153366088867 -0.13412909209728241
-0.574478268623352051 0.327196419239044189 -0.0292762722820043564
-0.361519575119018555 -0.0713465288281440735 -0.0338206104934215546
-0.130344659090042114 -0.268005937337875366 0.119191721081733704
0.495354771614074707 -0.366007357835769653 -5.76786733290646225e-05
0.374091535806655884 -0.359526664018630981 -0.209689751267433167
-0.378157138824462891 -0.107375063002109528 0.101424001157283783
-0.0669418796896934509 -0.264447689056396484 0.296548277139663696
0.520112395286560059 -0.24343147873878479 -0.309051364660263062
0.509679794311523438 -0.330741912126541138 0.0155787579715251923
-0.593106508255004883 0.368665426969528198 0.120826065540313721
-0.655106723308563232 0.175405725836753845 -0.102675817906856537
-0.222755968570709229 -0.144535690546035767 -0.0535699576139450073
-0.190951496362686157 0.316333204507827759 0.100887283682823181
0.25681111216545105 -0.283783286809921265 0.319864004850387573
0.239396139979362488 0.0320073328912258148 0.319327801465988159
-0.119838535785675049 -0.0464183948934078217 0.00750377727672457695
-0.641317188739776611 0.308341085910797119 0.10213964432477951
0.364980787038803101 -0.374073892831802368 -0.2066069096326828
0.537939667701721191 -0.217940285801887512 0.162118688225746155
-0.552494466304779053 0.382127106189727783 0.158180743455886841
-0.122200720012187958 0.259021282196044922 0.115280874073505402
0.119731761515140533 0.102275334298610687 0.0897012874484062195
-0.37513616681098938 0.265542268753051758 -0.0893606096506118774
0.517093122005462646 -0.349260449409484863 0.0990485101938247681
-0.293255448341369629 -0.107539154589176178 -0.109140299260616302
0.275284409523010254 0.102890625596046448 -0.0572904609143733978
-0.574831604957580566 0.219307050108909607 -0.212304934859275818
-0.115246884524822235 0.268291682004928589 0.179929852485656738
0.2361651211977005 -0.288269460201263428 0.314545005559921265
0.310347229242324829 -0.187573537230491638 0.241243377327919006
0.541980147361755371 -0.326013475656509399 -0.0206110347062349319
0.07912483811378479 -0.338085651397705078 0.282325595617294312
-0.00614492222666740417 -0.172160819172859192 0.00444380706176161766
-0.281956642866134644 0.261422842741012573 0.00722136767581105232
0.513365685939788818 -0.237200111150741577 -0.309044867753982544
-0.646679282188415527 0.277969121932983398 0.079824402928352356
-0.646039128303527832 0.182913944125175476 -0.0905296355485916138
0.514313042163848877 -0.322702318429946899 0.0245871879160404205
-0.40671461820602417 -0.0640781298279762268 0.11364428699016571
0.51704561710357666 -0.355885565280914307 -0.0203144531697034836
-0.56630939245223999 0.37400481104850769 0.152696892619132996
0.236154794692993164 0.042821880429983139 0.3138771653175354
-0.664554297924041748 0.226847752928733826 0.0234040990471839905
-0.447865694761276245 -0.0389132201671600342 0.127200767397880554
0.503236472606658936 -0.302407264709472656 -0.178521141409873962
-0.588849902153015137 0.360733628273010254 0.0863425582647323608
-0.193794175982475281 0.314605057239532471 0.105001844465732574
0.247167065739631653 0.0237250681966543198 0.324014663696289062
0.531135618686676025 -0.323968410491943359 -0.0577642954885959625
-0.182547152042388916 0.306704670190811157 0.128605499863624573
0.247411191463470459 0.00679691648110747337 0.324143946170806885
0.0589015260338783264 0.139390259981155396 0.34585234522819519
-0.505496621131896973 0.148986339569091797 0.356972545385360718
0.270867586135864258 -0.311530470848083496 0.326409786939620972
-0.253457754850387573 0.0232310239225625992 -0.0705454200506210327
0.241212233901023865 -0.295582711696624756 0.322647035121917725
0.249204888939857483 0.0436121858656406403 0.314609915018081665
0.468572825193405151 -0.102084450423717499 0.0349396392703056335
-0.124467067420482635 0.194819971919059753 0.115552686154842377
0.24010506272315979 -0.326906651258468628 0.318098217248916626
0.500452578067779541 -0.366800516843795776 0.074931800365447998
0.523642480373382568 -0.324907511472702026 0.0265034027397632599
0.444779068231582642 -0.253517448902130127 0.332548826932907104
0.321746677160263062 -0.131559580564498901 -0.106331057846546173
0.0635756924748420715 -0.0110507076606154442 0.321803241968154907
0.511508464813232422 -0.361093640327453613 0.0477990061044692993
0.135947868227958679 -0.100902996957302094 0.0407510958611965179
0.0498336255550384521 0.0113280266523361206 0.0299376845359802246
0.0210963897407054901 0.0480055734515190125 0.0427938476204872131
0.0883381068706512451 -0.0663629248738288879 0.289748936891555786
-0.161898642778396606 -0.266112089157104492 0.148066714406013489
0.265211433172225952 -0.0203148368746042252 0.061818588525056839
-0.0287054441869258881 -0.0293695610016584396 0.295640051364898682
0.502436220645904541 -0.240445271134376526 -0.301628738641738892
0.476214140653610229 -0.315082073211669922 -0.301576286554336548
-0.630624890327453613 0.305958956480026245 0.167594462633132935
0.475676000118255615 -0.32104337215423584 0.121284827589988708
0.509324193000793457 -0.301011860370635986 -0.105213910341262817
0.528483986854553223 -0.275031119585037231 -0.316815465688705444
0.493828475475311279 -0.332554548978805542 -0.310332149267196655
0.503719925880432129 -0.320356279611587524 0.0982861444354057312
0.474458575248718262 -0.30591350793838501 -0.29772678017616272
-0.559077024459838867 0.267703771591186523 0.364627838134765625
0.125281423330307007 0.116591289639472961 0.314344197511672974
-0.633263647556304932 0.281939834356307983 0.0545599386096000671
-0.587039351463317871 0.362483233213424683 0.102673448622226715
0.371819406747817993 -0.374224722385406494 -0.212381571531295776
0.438675194978713989 -0.34823530912399292 0.154596254229545593
0.0583929978311061859 0.121017150580883026 0.321235537528991699
-0.574265897274017334 0.368467777967453003 0.215727522969245911
0.265021860599517822 0.0244866367429494858 -0.058309357613325119
0.369025200605392456 -0.337060809135437012 0.160866409540176392
0.510768234729766846 -0.301730543375015259 -0.111661255359649658
0.133963361382484436 -0.320893377065658569 -0.0975385978817939758
0.516822934150695801 -0.349009513854980469 -0.0199707821011543274
0.389603763818740845 -0.346947371959686279 -0.213736608624458313
-0.576694488525390625 0.318770080804824829 0.0410567224025726318
0.536300361156463623 -0.27800324559211731 -0.320220857858657837
0.468172311782836914 -0.311050564050674438 -0.29886433482170105
0.507437646389007568 -0.347357094287872314 0.0182407088577747345
-0.555592477321624756 0.309391021728515625 0.102485157549381256
0.194223880767822266 -0.339644759893417358 -0.0589128471910953522
0.0704578608274459839 -0.282559394836425781 -0.0776879489421844482
0.252684354782104492 -0.250635057687759399 0.320328027009963989
0.240190774202346802 0.030650164932012558 0.317106485366821289
-0.12070009857416153 -0.0482182018458843231 0.00835700333118438721
0.179089859127998352 -0.100422993302345276 -0.0145225785672664642
0.532711505889892578 -0.332537323236465454 -0.0128535619005560875
0.370680302381515503 -0.349675595760345459 -0.208520397543907166
0.535196244716644287 -0.246113017201423645 0.177523508667945862
0.561432361602783203 -0.31596788763999939 -0.330561578273773193
0.554768860340118408 -0.211975857615470886 0.134196147322654724
-0.542957723140716553 0.380423784255981445 0.164711475372314453
0.123226761817932129 0.116923905909061432 0.13335593044757843
-0.581920385360717773 0.351603060960769653 0.0980629697442054749
-0.481234729290008545 0.185599103569984436 -0.0912656038999557495
0.515887260437011719 -0.339435726404190063 0.0391393974423408508
0.253691315650939941 -0.279559344053268433 0.322147101163864136
0.278863221406936646 -0.356215238571166992 -0.125745072960853577
0.508212804794311523 -0.286812305450439453 -0.31328621506690979
-0.431851685047149658 -0.0577554218471050262 0.116875939071178436
0.202296540141105652 0.0902182012796401978 0.223587408661842346
0.244634941220283508 0.104380324482917786 -0.0568695142865180969
-0.195407971739768982 0.201110929250717163 0.349359810352325439
0.250748693943023682 0.0246138758957386017 0.323540478944778442
0.240108489990234375 0.0187015477567911148 0.321228295564651489
-0.0311288107186555862 0.162323310971260071 0.382751137018203735
-0.482215136289596558 -0.0161995198577642441 0.180359199643135071
0.48409155011177063 -0.369360685348510742 0.0463860370218753815
-0.643200933933258057 0.286781579256057739 0.0865380242466926575
0.276290088891983032 -0.166062802076339722 -0.0701617896556854248
-0.411508291959762573 -0.0574180185794830322 0.0790971666574478149
-0.642699122428894043 0.175372987985610962 -0.0816251710057258606
-0.225595295429229736 -0.134428754448890686 -0.0520271696150302887
0.255194872617721558 -0.265969187021255493 0.321310102939605713
