ply
format ascii 1.0
element vertex 738
property float x
property float y
property float z
end_header
0.506384015083312988 -0.332127034664154053 -0.00209872657433152199
0.445071190595626831 -0.250139087438583374 -0.227626845240592957
-0.639053702354431152 0.254651784896850586 0.0548486039042472839
0.532796800136566162 -0.262819826602935791 0.0937258303165435791
-0.393022537231445312 -0.0592583715915679932 0.100867874920368195
0.524116992950439453 -0.289785951375961304 -0.0916740521788597107
0.0283576585352420807 -0.274224430322647095 -0.034879244863986969
0.385459303855895996 -0.306174248456954956 0.119284212589263916
-0.582250833511352539 0.367001593112945557 0.132060632109642029
0.240421473979949951 0.0028225448913872242 0.181634023785591125
-0.112894073128700256 0.165504872798919678 0.348068207502365112
0.482435047626495361 -0.368497073650360107 -0.0216361731290817261
0.412536650896072388 -0.321284323930740356 -0.210653185844421387
0.507448315620422363 -0.155657991766929626 0.124513454735279083
0.529014945030212402 -0.334851235151290894 0.013264775276184082
-0.584170699119567871 0.336588174104690552 0.0344297848641872406
-0.590827345848083496 0.382106781005859375 0.13161487877368927
0.526525735855102539 -0.244466051459312439 -0.310275495052337646
0.474701374769210815 -0.290870547294616699 -0.299090832471847534
-0.597289860248565674 0.353879779577255249 0.170022189617156982
-0.587412893772125244 0.371642380952835083 0.1014423668384552
-0.211867451667785645 -0.129588127136230469 -0.0572549924254417419
0.234723910689353943 -0.293086916208267212 0.315503627061843872
0.238225206732749939 0.0670463964343070984 0.320611655712127686
0.542048811912536621 -0.313985645771026611 -0.057682529091835022
-0.444631308317184448 -0.048376668244600296 0.127495303750038147
0.359889805316925049 -0.388482958078384399 -0.208646461367607117
-0.556547582149505615 0.211286038160324097 -0.113351374864578247
0.521032392978668213 -0.279686063528060913 -0.176712915301322937
0.242105677723884583 0.0346850492060184479 0.315085798501968384
0.242947518825531006 0.000359162950189784169 0.0241274349391460419
0.380812317132949829 0.0387559421360492706 0.0123603967949748039
0.526994705200195312 -0.23076494038105011 -0.30978083610534668
0.327114105224609375 0.0961264222860336304 -0.03545345738530159
-0.374128222465515137 -0.0602647885680198669 -0.132506087422370911
0.513075709342956543 -0.167655125260353088 0.136410877108573914
-0.574547052383422852 0.322181940078735352 0.0498088076710700989
-0.559037744998931885 0.283587753772735596 0.364533960819244385
0.224616825580596924 0.0318937264382839203 -0.0577440075576305389
-0.57429039478302002 0.214766308665275574 -0.220814168453216553
-0.0442358627915382385 0.156593069434165955 0.0816909819841384888
0.114197872579097748 0.110030181705951691 0.025927053764462471
0.343039184808731079 -0.247092396020889282 -0.0964637994766235352
-0.285128235816955566 0.300553023815155029 -0.00236976006999611855
0.153489872813224792 -0.00442955410107970238 -0.00310843531042337418
0.0691384449601173401 0.13883015513420105 0.0761515647172927856
-0.270111799240112305 0.28029024600982666 0.00216158060356974602
0.503587126731872559 -0.292737364768981934 -0.158951520919799805
0.137168020009994507 -0.0258534383028745651 0.0135794663801789284
-0.338969945907592773 -0.0319866538047790527 0.0232388339936733246
0.373584270477294922 -0.0919378921389579773 0.044749915599822998
0.200042188167572021 0.101204968988895416 -0.00133842229843139648
-0.297202050685882568 -0.0250239148736000061 0.0363888628780841827
0.131973698735237122 -0.0178445819765329361 -0.025638282299041748
0.101552985608577728 0.0160121098160743713 0.091713733971118927
0.175773367285728455 0.119335055351257324 0.0385180488228797913
-0.230392351746559143 -0.06366700679063797 0.105132393538951874
0.486348420381546021 -0.296807855367660522 -0.303223013877868652
-0.603247880935668945 0.289671540260314941 0.185475319623947144
0.467423826456069946 -0.308851420879364014 0.120564334094524384
0.37841331958770752 -0.0145627511665225029 0.00682741729542613029
0.514576375484466553 -0.295454680919647217 -0.103075511753559113
0.519071221351623535 -0.2398577481508255 -0.30728188157081604
0.478190124034881592 -0.309874802827835083 -0.299978762865066528
0.483651697635650635 -0.274660885334014893 -0.299602210521697998
0.117352187633514404 0.1187424436211586 0.298156857490539551
-0.584257364273071289 0.356518775224685669 0.0660765320062637329
0.38401716947555542 -0.337459951639175415 0.125974193215370178
-0.574504375457763672 0.317845553159713745 -0.0263077858835458755
-0.604437053203582764 0.217261806130409241 -0.0866736918687820435
0.267908394336700439 0.039180118590593338 -0.0858270302414894104
-0.356318533420562744 -0.0221736505627632141 -0.130787402391433716
-0.564318597316741943 0.314472109079360962 -0.00765694072470068932
0.191002190113067627 -0.340917497873306274 -0.0743660032749176025
0.404477238655090332 -0.357772558927536011 -0.223718062043190002
-0.500218331813812256 0.145682305097579956 0.355064213275909424
0.509745657444000244 -0.151620164513587952 0.115483418107032776
0.497100859880447388 -0.264064997434616089 -0.304081499576568604
0.458251774311065674 -0.281025499105453491 -0.289439529180526733
0.441217899322509766 -0.265105575323104858 -0.283390581607818604
-0.588072597980499268 0.357623904943466187 0.0619873888790607452
0.50534290075302124 -0.126942947506904602 0.124906383454799652
-0.206284001469612122 0.312535673379898071 0.109221570193767548
0.268525749444961548 -0.284126400947570801 0.319686442613601685
0.232754752039909363 0.00344573752954602242 0.318382024765014648
0.513468086719512939 -0.175811246037483215 -0.28142973780632019
-0.115096569061279297 0.00985748600214719772 0.00632562488317489624
0.404209673404693604 -0.359801352024078369 -0.224342092871665955
0.417877644300460815 -0.313397705554962158 0.144243419170379639
-0.555580615997314453 0.376658529043197632 0.187103718519210815
-0.175697878003120422 0.309198379516601562 0.118907667696475983
-0.389762192964553833 0.276116281747817993 -0.0846863016486167908
0.365370571613311768 0.0516965128481388092 0.0250718202441930771
0.129328101873397827 0.11563698947429657 0.31938585638999939
-0.286345988512039185 -0.100599907338619232 -0.0916283130645751953
0.258251011371612549 0.100812748074531555 -0.0615852288901805878
-0.361135870218276978 -0.0598246119916439056 -0.143766492605209351
0.134285122156143188 0.113598570227622986 0.33833274245262146
-0.56305396556854248 0.199414417147636414 -0.228787004947662354
-0.27645111083984375 0.288066118955612183 -0.000463551928987726569
0.455161452293395996 -0.246595844626426697 -0.28797680139541626
0.460512876510620117 -0.275556594133377075 -0.290506064891815186
-0.634900510311126709 0.308309793472290039 0.170658886432647705
0.512697219848632812 -0.317622005939483643 -0.0381538979709148407
0.469210416078567505 -0.265952855348587036 -0.297634661197662354
0.47842562198638916 -0.295170247554779053 -0.299915850162506104
0.458416759967803955 -0.246379107236862183 -0.289548665285110474
0.38145744800567627 -0.361136853694915771 -0.213529199361801147
-0.479375600814819336 -0.0125365816056728363 0.186249732971191406
-0.516552090644836426 0.365915149450302124 0.174409300088882446
-0.618515074253082275 0.202152177691459656 -0.0869423970580101013
-0.237177923321723938 0.0187914185225963593 -0.0721390172839164734
-0.382481396198272705 -0.0590434931218624115 0.0241058692336082458
0.475117146968841553 -0.368493050336837769 0.0222470499575138092
-0.649262309074401855 0.236889690160751343 0.0324685461819171906
0.412895530462265015 -0.346870869398117065 -0.221311435103416443
0.5262642502784729 -0.337292581796646118 0.0805354490876197815
0.506276130676269531 -0.239161297678947449 -0.307744145393371582
0.249885305762290955 -0.282304823398590088 0.318743497133255005
0.239378899335861206 0.0664755702018737793 0.315156012773513794
0.539769530296325684 -0.301981300115585327 -0.0932496041059494019
-0.447790592908859253 -0.0413788855075836182 0.126925811171531677
-0.0436889976263046265 0.104443483054637909 0.318324416875839233
0.248170778155326843 0.020927945151925087 0.322713196277618408
-0.284669220447540283 -0.0997339487075805664 -0.098649732768535614
-0.137592896819114685 -0.0151392212137579918 -0.0484015941619873047
-0.277923852205276489 0.337956666946411133 0.0474333316087722778
-0.254730314016342163 0.289967775344848633 -0.00280384416691958904
-0.218946337699890137 0.321961790323257446 0.070302136242389679
-0.573216140270233154 0.152352795004844666 -0.074231073260307312
-0.289981245994567871 0.292777031660079956 0.0164758022874593735
0.525831222534179688 -0.320806294679641724 0.0276327077299356461
0.346304655075073242 -0.030636979267001152 -0.0340396836400032043
0.522458732128143311 -0.363054752349853516 0.0898690670728683472
-0.083078920841217041 -0.111880898475646973 0.07892598956823349
-0.404044479131698608 0.326153963804244995 0.121640622615814209
0.50499117374420166 -0.36721956729888916 -0.0040515935979783535
-0.118715807795524597 0.266121000051498413 0.121434256434440613
0.518937408924102783 -0.343099385499954224 0.0363006852567195892
0.130653977394104004 -0.334701269865036011 0.301742315292358398
0.466869562864303589 -0.311198413372039795 0.0729277133941650391
0.483112573623657227 -0.374148935079574585 0.0527798794209957123
0.421241194009780884 -0.0262072812765836716 0.0653331652283668518
0.494394183158874512 -0.363680481910705566 -0.0151048172265291214
-0.232988432049751282 0.287215203046798706 0.0845971331000328064
0.531426310539245605 -0.331902533769607544 -0.00678089726716279984
-0.272000014781951904 0.315484493970870972 0.114426121115684509
0.308414638042449951 0.00245514768175780773 0.0467630326747894287
0.467692315578460693 -0.26356157660484314 -0.295705288648605347
0.474062651395797729 -0.30447426438331604 0.114717379212379456
0.511404871940612793 -0.313783466815948486 -0.103975720703601837
0.509423434734344482 -0.245508119463920593 -0.308063268661499023
0.448237299919128418 -0.292655497789382935 -0.292398780584335327
0.466667085886001587 -0.283421486616134644 -0.296916872262954712
0.138517364859580994 0.112715788185596466 0.337272554636001587
-0.652133524417877197 0.285888552665710449 0.0982421934604644775
-0.638282716274261475 0.244970276951789856 -0.0379653796553611755
0.136529833078384399 0.0691934674978256226 0.338389158248901367
-0.577091395854949951 0.303964555263519287 -0.0553108640015125275
0.262687444686889648 0.0303597822785377502 -0.0730331316590309143
0.542118489742279053 -0.216874763369560242 0.112064078450202942
-0.359943121671676636 -0.0358134731650352478 -0.133969038724899292
-0.574747085571289062 0.327655106782913208 -0.0293163526803255081
-0.361643046140670776 -0.0709820017218589783 -0.0336093045771121979
-0.130277052521705627 -0.267649829387664795 0.119523085653781891
0.495363891124725342 -0.365977019071578979 6.29777059657499194e-05
0.374150753021240234 -0.359534382820129395 -0.209694132208824158
-0.378261834383010864 -0.106940619647502899 0.101722724735736847
-0.0667500123381614685 -0.26407352089881897 0.296965271234512329
0.520095407962799072 -0.243459641933441162 -0.309081822633743286
0.509674549102783203 -0.330710947513580322 0.0157189387828111649
-0.593394339084625244 0.369176238775253296 0.120867334306240082
-0.655308544635772705 0.175800725817680359 -0.102807231247425079
-0.222807064652442932 -0.144222557544708252 -0.0533352009952068329
-0.191278859972953796 0.316715270280838013 0.101175561547279358
0.256987452507019043 -0.28359714150428772 0.320177286863327026
0.239373847842216492 0.0321164913475513458 0.319622308015823364
-0.119936041533946991 -0.0461673997342586517 0.0077187633141875267
-0.641574621200561523 0.308823078870773315 0.102129220962524414
0.365044534206390381 -0.374078661203384399 -0.206611886620521545
0.537917256355285645 -0.21789298951625824 0.162361562252044678
-0.55279773473739624 0.382656008005142212 0.15829603374004364
-0.122495159506797791 0.259335368871688843 0.115565352141857147
0.119565762579441071 0.102375462651252747 0.0899140685796737671
-0.375425219535827637 0.265953242778778076 -0.0892193391919136047
0.517094194889068604 -0.349205523729324341 0.0992393791675567627
-0.293342024087905884 -0.107217088341712952 -0.108928516507148743
0.27516058087348938 0.102861762046813965 -0.0572243630886077881
-0.575028002262115479 0.219676464796066284 -0.212407216429710388
-0.11553647369146347 0.268626987934112549 0.180270761251449585
0.236346572637557983 -0.288072586059570312 0.314863651990890503
0.310436785221099854 -0.187458038330078125 0.241506695747375488
0.541949033737182617 -0.325986206531524658 -0.0204793084412813187
0.0793370306491851807 -0.337788224220275879 0.282689511775970459
-0.00613664230331778526 -0.171944454312324524 0.00466302875429391861
-0.282254934310913086 0.26181367039680481 0.00744611257687211037
0.513352513313293457 -0.237231746315956116 -0.309078067541122437
-0.646926999092102051 0.278436988592147827 0.0797892957925796509
-0.646245658397674561 0.183313623070716858 -0.0906509906053543091
0.514304280281066895 -0.322670489549636841 0.0247346255928277969
-0.406834602355957031 -0.0636521726846694946 0.113907702267169952
0.517034769058227539 -0.355856031179428101 -0.0201936829835176468
-0.566606223583221436 0.374528497457504272 0.152792245149612427
0.236121252179145813 0.0429301969707012177 0.31417122483253479
-0.664777576923370361 0.227286010980606079 0.0233462024480104446
-0.448000490665435791 -0.0384804867208003998 0.127434760332107544
0.503232836723327637 -0.30241730809211731 -0.178487077355384827
-0.589136481285095215 0.361234277486801147 0.0863573625683784485
-0.194120153784751892 0.314989298582077026 0.105294309556484222
0.247153222560882568 0.0238322950899600983 0.324307560920715332
0.531111955642700195 -0.323949813842773438 -0.0576556548476219177
-0.182864978909492493 0.307085216045379639 0.12891639769077301
0.247411161661148071 0.00690619507804512978 0.324437350034713745
0.0588085167109966278 0.139622166752815247 0.346227139234542847
-0.505643665790557861 0.149486050009727478 0.357263237237930298
0.271050095558166504 -0.311346352100372314 0.326719850301742554
-0.253616094589233398 0.023532843217253685 -0.0703515484929084778
0.241397812962532043 -0.295385688543319702 0.322966247797012329
0.249170348048210144 0.0437134802341461182 0.314898878335952759
0.468538850545883179 -0.102121107280254364 0.0350628234446048737
-0.124717600643634796 0.195112481713294983 0.115839548408985138
0.240297004580497742 -0.326705604791641235 0.318414747714996338
0.500463664531707764 -0.366750508546829224 0.075100630521774292
0.523627221584320068 -0.324873656034469604 0.0266548655927181244
0.444878667593002319 -0.253402352333068848 0.332858175039291382
0.321763902902603149 -0.13158203661441803 -0.106276541948318481
0.0636081919074058533 -0.0108266500756144524 0.322163790464401245
0.511506915092468262 -0.361049175262451172 0.047955688089132309
0.135933429002761841 -0.100793279707431793 0.0409464128315448761
0.0497215390205383301 0.0114642037078738213 0.0301203522831201553
0.0209544934332370758 0.0481609739363193512 0.0429868064820766449
0.0884017348289489746 -0.0661502853035926819 0.290098100900650024
-0.161824345588684082 -0.265730500221252441 0.148419648408889771
0.265150099992752075 -0.0202974490821361542 0.0619721114635467529
-0.0286727063357830048 -0.0290900226682424545 0.296011567115783691
0.502430200576782227 -0.240479052066802979 -0.30166172981262207
0.476229339838027954 -0.315107285976409912 -0.301614642143249512
-0.630880773067474365 0.306458353996276855 0.167644530534744263
0.475707262754440308 -0.320988178253173828 0.121481545269489288
0.509315252304077148 -0.301010251045227051 -0.105136848986148834
0.528463840484619141 -0.275049775838851929 -0.316844046115875244
0.493832111358642578 -0.332572102546691895 -0.310368537902832031
0.503727912902832031 -0.320308208465576172 0.0984748825430870056
0.474477082490921021 -0.305942237377166748 -0.29776608943939209
-0.559269845485687256 0.268232047557830811 0.364862322807312012
0.125190779566764832 0.116768904030323029 0.314687013626098633
-0.633512914180755615 0.282402276992797852 0.0545306093990802765
-0.587327659130096436 0.362989306449890137 0.102699637413024902
0.371880710124969482 -0.374231427907943726 -0.212390050292015076
0.438738495111465454 -0.348160088062286377 0.154806703329086304
0.0583025142550468445 0.121240995824337006 0.321599900722503662
-0.574551045894622803 0.36900600790977478 0.215857625007629395
0.264943718910217285 0.0244665239006280899 -0.0582334734499454498
0.369117677211761475 -0.336968332529067993 0.161078780889511108
0.510757923126220703 -0.301729351282119751 -0.11158713698387146
0.134045809507369995 -0.320761591196060181 -0.0973925143480300903
0.516811847686767578 -0.348981231451034546 -0.0198492221534252167
0.389656037092208862 -0.346958369016647339 -0.21374116837978363
-0.576967895030975342 0.319243401288986206 0.0410610437393188477
0.536275207996368408 -0.278018772602081299 -0.320248007774353027
0.468192398548126221 -0.311078280210494995 -0.298903822898864746
0.50743556022644043 -0.347322583198547363 0.0183800738304853439
-0.55587303638458252 0.309877157211303711 0.10255567729473114
0.19430716335773468 -0.339535385370254517 -0.058771282434463501
0.0705287009477615356 -0.28238794207572937 -0.0775090903043746948
0.252849996089935303 -0.250452995300292969 0.320643216371536255
0.240168482065200806 0.0307582318782806396 0.317399978637695312
-0.120796255767345428 -0.0479660369455814362 0.00857333838939666748
0.179077640175819397 -0.10036265105009079 -0.0143733341246843338
0.532687842845916748 -0.332508683204650879 -0.0127213140949606895
0.370739012956619263 -0.349682927131652832 -0.208521649241447449
0.535187125205993652 -0.246053308248519897 0.177776187658309937
0.561392009258270264 -0.315968096256256104 -0.330582737922668457
0.554726719856262207 -0.211939290165901184 0.134424492716789246
-0.543262898921966553 0.380954563617706299 0.164843395352363586
0.123059466481208801 0.117039777338504791 0.133599430322647095
-0.582206368446350098 0.352103948593139648 0.0980950742959976196
-0.481475383043289185 0.186004474759101868 -0.091195233166217804
0.515879929065704346 -0.339396893978118896 0.0392945148050785065
0.253868043422698975 -0.279371798038482666 0.322462290525436401
0.278940051794052124 -0.356170773506164551 -0.125677540898323059
0.50820690393447876 -0.286835193634033203 -0.313320040702819824
-0.431975662708282471 -0.0573260039091110229 0.117120295763015747
0.20218011736869812 0.0903131216764450073 0.223861426115036011
0.244505494832992554 0.104368932545185089 -0.0567923299968242645
-0.195547938346862793 0.201509922742843628 0.349794894456863403
0.250733643770217896 0.0247188732028007507 0.323831766843795776
0.240097939968109131 0.0188122391700744629 0.321523368358612061
-0.0312239881604909897 0.162621766328811646 0.38316306471824646
-0.482362747192382812 -0.0157464463263750076 0.18059675395488739
0.484109699726104736 -0.369317114353179932 0.0465330630540847778
-0.643452703952789307 0.287253826856613159 0.0865064561367034912
0.276322782039642334 -0.16604769229888916 -0.0700690001249313354
-0.411638945341110229 -0.0570037327706813812 0.0793357416987419128
-0.642903625965118408 0.175773665308952332 -0.0817281082272529602
-0.225652992725372314 -0.134115725755691528 -0.0517937541007995605
0.255366057157516479 -0.265785098075866699 0.321624755859375
-0.345150768756866455 0.0171862281858921051 -0.116509988903999329
-0.286866307258605957 -0.0917240753769874573 -0.106085591018199921
-0.58492279052734375 0.209886506199836731 -0.217718556523323059
0.268028914928436279 -0.297244876623153687 0.315699756145477295
-0.0252261292189359665 -0.187491551041603088 -0.0430486612021923065
-0.617990791797637939 0.277036935091018677 0.0317078493535518646
-0.608785092830657959 0.298362493515014648 0.0928012877702713013
-0.397376805543899536 -0.0630055591464042664 0.119333580136299133
-0.451537817716598511 -0.0383098162710666656 0.119914770126342773
0.431470960378646851 -0.272030651569366455 0.329729080200195312
-0.0522714518010616302 0.140658676624298096 0.0921880379319190979
-0.50291067361831665 0.151109993457794189 0.355880051851272583
0.241256937384605408 -0.319529980421066284 0.323313862085342407
0.497478395700454712 -0.371138095855712891 0.0578564554452896118
0.399677306413650513 -0.257148087024688721 0.322998642921447754
-0.157969102263450623 -0.263712525367736816 0.182063251733779907
-0.49903830885887146 0.0139173390343785286 0.158501386642456055
0.417967468500137329 -0.297657132148742676 0.329273015260696411
0.535612225532531738 -0.340498208999633789 -0.0179533828049898148
0.344707340002059937 -0.267695844173431396 -0.1274280846118927
-0.496362566947937012 0.0718954205513000488 0.204411700367927551
0.444007366895675659 -0.272476077079772949 0.333959907293319702
0.522353529930114746 -0.3357105553150177 0.0332971103489398956
0.453765362501144409 -0.320213735103607178 -0.292646348476409912
0.474585533142089844 -0.31200137734413147 0.117220215499401093
0.517577111721038818 -0.278722643852233887 -0.312429100275039673
0.503034532070159912 -0.326255202293395996 -0.313933312892913818
0.518441081047058105 -0.327432602643966675 0.102440372109413147
0.479703903198242188 -0.311742722988128662 -0.301784247159957886
0.114782415330410004 0.118372067809104919 0.289545804262161255
-0.121849499642848969 0.268568605184555054 0.159279927611351013
-0.61474299430847168 0.265504896640777588 0.0524179935455322266
-0.479268968105316162 0.00291887251660227776 0.181780055165290833
0.427084535360336304 -0.355351030826568604 0.159085541963577271
-0.292037159204483032 -0.110801137983798981 -0.10535188764333725
0.130777671933174133 0.0652698278427124023 0.321752876043319702
0.254010200500488281 0.0383939370512962341 -0.0773491188883781433
0.235735625028610229 0.0935946553945541382 -0.0526160076260566711
0.418087929487228394 -0.261876851320266724 -0.201931565999984741
0.52201998233795166 -0.354979634284973145 -0.0189748033881187439
-0.608848869800567627 0.381186306476593018 0.181601181626319885
0.517928481101989746 -0.279622942209243774 -0.314352184534072876
0.499465286731719971 -0.350333720445632935 0.024572327733039856
-0.587814211845397949 0.369364649057388306 0.113388441503047943
0.506226181983947754 -0.105067051947116852 0.147815406322479248
-0.197979152202606201 0.311523169279098511 0.11341463029384613
0.264476120471954346 -0.286831080913543701 0.320289790630340576
0.237179189920425415 0.0618715919554233551 0.311065882444381714
-0.144244879484176636 -0.0437026359140872955 0.00463918969035148621
-0.657668709754943848 0.214690402150154114 -0.0458839759230613708
-0.288349956274032593 -0.0761769786477088928 -0.0681860968470573425
0.227520689368247986 0.0418749451637268066 -0.047694813460111618
0.551777780055999756 -0.144826814532279968 0.132571056485176086
0.520075976848602295 -0.295700132846832275 0.07540883868932724
0.517925918102264404 -0.284391433000564575 -0.180746451020240784
-0.357890278100967407 -0.0172906313091516495 -0.0275180302560329437
0.0916823670268058777 0.0879514962434768677 0.0862679034471511841
0.467019528150558472 -0.362234681844711304 -0.0101941926404833794
-0.432815790176391602 0.157644674181938171 -0.0660890042781829834
0.524114429950714111 -0.335980653762817383 0.0694080367684364319
0.263335913419723511 -0.286199867725372314 0.319012939929962158
0.00967798661440610886 -0.0912332013249397278 -0.0256818924099206924
0.032882343977689743 -0.130639567971229553 0.0223184637725353241
-0.630647420883178711 0.265020966529846191 0.0293665938079357147
0.242375388741493225 0.0740434601902961731 0.319335311651229858
0.240477576851844788 0.0292831305414438248 0.319413036108016968
-0.174766108393669128 0.300789922475814819 0.116794727742671967
0.304993152618408203 -0.151591673493385315 0.30831262469291687
0.262372136116027832 -0.2910003662109375 0.321498304605484009
-0.476073741912841797 -0.00834494363516569138 0.166649818420410156
0.243003889918327332 0.0814813822507858276 0.312694519758224487
0.52054286003112793 -0.351634562015533447 0.0824441537261009216
-0.034541543573141098 -0.237837359309196472 0.124562755227088928
-0.63827049732208252 0.290034085512161255 0.0991410091519355774
-0.233970239758491516 -0.133088022470474243 -0.0575806349515914917
-0.37910383939743042 -0.109021857380867004 0.105987593531608582
-0.236173391342163086 -0.148112326860427856 -0.0574284642934799194
-0.65788346529006958 0.214384257793426514 -0.0335875675082206726
0.529174864292144775 -0.352966576814651489 0.0783866569399833679
-0.621100664138793945 0.270284175872802734 0.0528116337954998016
-0.403997033834457397 -0.0645491853356361389 0.11250314861536026
-0.446195095777511597 -0.0416983515024185181 0.122422769665718079
0.268437951803207397 -0.28589332103729248 0.323974013328552246
0.128073722124099731 -0.326856881380081177 0.313076645135879517
0.152733951807022095 -0.343350827693939209 0.318349540233612061
0.448100745677947998 -0.335973769426345825 -0.292622178792953491
0.516056656837463379 -0.303307533264160156 -0.10750560462474823
0.515551507472991943 -0.280594706535339355 -0.312447965145111084
0.485214293003082275 -0.328024178743362427 -0.309417188167572021
0.464708209037780762 -0.346236377954483032 -0.30229562520980835
0.549873948097229004 -0.210555911064147949 -0.315591722726821899
0.524414956569671631 -0.300379574298858643 -0.322101861238479614
0.51828467845916748 -0.301191866397857666 -0.317997872829437256
0.247105866670608521 0.0567586161196231842 0.316926717758178711
0.241568997502326965 0.0872365087270736694 0.313262611627578735
-0.291489481925964355 -0.100801996886730194 -0.101472564041614532
-0.453447520732879639 -0.0521809682250022888 0.117512442171573639
0.405150055885314941 -0.272569507360458374 0.323043346405029297
-0.502294063568115234 0.00361327454447746277 0.189550504088401794
0.401449084281921387 -0.287547141313552856 0.325357645750045776
0.399593889713287354 -0.273864120244979858 0.323837637901306152
0.34259796142578125 -0.259283721446990967 0.0905856415629386902
-0.0184369329363107681 -0.244631513953208923 0.129136234521865845
-0.464408189058303833 0.0358249098062515259 0.189991578459739685
-0.1943340003490448 0.221485868096351624 0.172556176781654358
0.367221713066101074 -0.329598933458328247 -0.0230659730732440948
0.323831528425216675 -0.390424728393554688 -0.158484354615211487
0.53570181131362915 -0.323957324028015137 -0.0577562861144542694
-0.44165194034576416 -0.00491082901135087013 0.153143465518951416
-0.0188715383410453796 -0.0597584880888462067 0.142215043306350708
0.000116047172923572361 -0.236370638012886047 0.10685276985168457
0.526461958885192871 -0.202130809426307678 -0.0795637965202331543
0.450152993202209473 -0.308657705783843994 -0.292503207921981812
0.527136743068695068 -0.275752604007720947 -0.315298676490783691
0.500231683254241943 -0.325205475091934204 -0.312302947044372559
0.475556015968322754 -0.305371880531311035 -0.297018289566040039
-0.127403125166893005 0.246520265936851501 0.139459818601608276
-0.648973643779754639 0.282061666250228882 0.0945097282528877258
-0.198889806866645813 0.286601871252059937 0.336413055658340454
0.498203456401824951 -0.0870833471417427063 0.13718000054359436
0.201175644993782043 -0.359459578990936279 -0.09040118008852005
0.505710184574127197 -0.368004053831100464 -0.0222388617694377899
0.527509570121765137 -0.242999598383903503 0.173477858304977417
-0.585974931716918945 0.379402577877044678 0.170994222164154053
0.445373296737670898 -0.315251022577285767 -0.287377893924713135
0.498791098594665527 -0.11144595593214035 0.112686626613140106
-0.65568697452545166 0.175484567880630493 -0.103504084050655365
-0.201950877904891968 0.308718562126159668 0.0896236822009086609
0.201596304774284363 -0.013878287747502327 0.295778572559356689
0.160329818725585938 -0.0624312460422515869 -0.0436092466115951538
-0.579507827758789062 0.302297025918960571 0.369060426950454712
0.275251150131225586 0.0980933457612991333 -0.028645537793636322
-0.435180008411407471 0.155347734689712524 -0.0856170579791069031
0.534710168838500977 -0.333365797996520996 0.0132285421714186668
-0.568632781505584717 0.197330296039581299 -0.228799432516098022
-0.497518271207809448 0.0449004098773002625 -0.0864866822957992554
0.0317265652120113373 -0.104243092238903046 0.0334743037819862366
0.534382104873657227 -0.264790773391723633 -0.315942585468292236
0.0099028460681438446 0.197492063045501709 0.0280559565871953964
0.302404105663299561 0.0385911092162132263 -0.0840240791440010071
-0.331972479820251465 -0.0161394402384757996 -0.107268154621124268
0.236763074994087219 0.0141697414219379425 0.322328090667724609
0.125348553061485291 0.0127422483637928963 0.299475371837615967
0.527795255184173584 -0.355484306812286377 0.0668299347162246704
0.467434406280517578 -0.310148954391479492 -0.232725366950035095
-0.651955187320709229 0.28540414571762085 0.104616671800613403
0.546824932098388672 -0.220278173685073853 0.164040461182594299
0.528315305709838867 -0.323690265417098999 -0.0155666666105389595
-0.382813781499862671 -0.0565453134477138519 0.0766821950674057007
0.457270205020904541 -0.311139345169067383 -0.292199999094009399
0.505307435989379883 -0.340127229690551758 -0.317541807889938354
0.479172945022583008 -0.314618736505508423 -0.29914286732673645
0.52069014310836792 -0.301596522331237793 -0.316961675882339478
-0.00192260800395160913 -0.140213638544082642 -0.0243546422570943832
0.397928625345230103 -0.273421883583068848 0.324012398719787598
0.401596873998641968 -0.271849453449249268 0.324318230152130127
0.506395816802978516 -0.332290530204772949 0.10636623203754425
-0.467407196760177612 0.042364165186882019 0.171099379658699036
0.410423934459686279 -0.346168845891952515 0.157103821635246277
-0.36055225133895874 -0.0354224182665348053 -0.147674679756164551
-0.127810612320899963 -0.267890036106109619 0.112884461879730225
0.512921750545501709 -0.369342058897018433 -0.0141798164695501328
-0.213576152920722961 0.312525629997253418 0.0981563404202461243
0.251042485237121582 -0.287339061498641968 0.323436915874481201
0.209250688552856445 0.00916683394461870193 -0.0456299595534801483
0.070367567241191864 -0.151750698685646057 -0.0167616512626409531
-0.169607505202293396 0.304743856191635132 0.119359001517295837
0.471468895673751831 -0.364654630422592163 0.00753422966226935387
-0.290609538555145264 -0.099592357873916626 -0.102729767560958862
0.0368547923862934113 -0.149905487895011902 -0.0212322510778903961
0.23247992992401123 0.0559886321425437927 0.309749603271484375
0.253848344087600708 -0.288901448249816895 0.32121846079826355
-0.471496701240539551 0.00104880868457257748 0.169117450714111328
0.241294056177139282 0.0624443292617797852 0.313649415969848633
0.509288489818572998 -0.352327227592468262 0.0644766464829444885
0.22788645327091217 -0.315041691064834595 0.315119147300720215
-0.375112563371658325 -0.0932807102799415588 0.0866709873080253601
-0.0622429586946964264 -0.241796568036079407 0.303082704544067383
-0.222320973873138428 -0.127828836441040039 -0.0526392869651317596
-0.409612566232681274 -0.0655636489391326904 0.0989913418889045715
-0.444737076759338379 -0.0448205359280109406 0.133199393749237061
0.23943839967250824 -0.294281333684921265 0.314992934465408325
0.154401227831840515 -0.324557214975357056 0.320663541555404663
0.425717532634735107 -0.256337285041809082 0.32917022705078125
0.438661307096481323 -0.343200504779815674 -0.292277693748474121
0.50672447681427002 -0.334828823804855347 -0.317685991525650024
0.445508331060409546 -0.352548509836196899 -0.286333769559860229
0.238558545708656311 0.065508715808391571 0.312929034233093262
0.403675585985183716 -0.287776023149490356 0.326482415199279785
-0.494520425796508789 0.00664318446069955826 0.188840419054031372
0.486047357320785522 -0.0635183900594711304 0.132306665182113647
0.0129787083715200424 -0.170940056443214417 0.0103379664942622185
0.531900584697723389 -0.307890802621841431 -0.0617210976779460907
0.315292268991470337 -0.302523344755172729 -0.126364916563034058
0.446336418390274048 -0.291590452194213867 -0.285235583782196045
-0.336671262979507446 0.224672913551330566 0.126231282949447632
-0.400536209344863892 -0.0282760225236415863 -0.00144048442598432302
0.403581708669662476 -0.271992504596710205 0.324701994657516479
-0.133014768362045288 0.195701643824577332 0.168301403522491455
0.399633347988128662 -0.271928787231445312 0.324514567852020264
-0.446201741695404053 -0.0250376034528017044 0.0218633394688367844
-0.137714043259620667 0.24479067325592041 0.192257031798362732
-0.612520992755889893 0.294123262166976929 0.18412625789642334
0.124905861914157867 0.115901090204715729 0.317275941371917725
-0.120657891035079956 0.250524610280990601 0.162387624382972717
-0.58302605152130127 0.348266720771789551 0.0585071630775928497
0.427323460578918457 -0.348343402147293091 0.153589814901351929
-0.566415846347808838 0.295172154903411865 -0.0686317905783653259
0.252277493476867676 0.0265218131244182587 -0.0790767520666122437
0.248026043176651001 0.100213080644607544 -0.0478329472243785858
-0.357019513845443726 -0.0557776056230068207 -0.141410395503044128
0.199051961302757263 0.12005016952753067 0.0363037176430225372
0.545901060104370117 -0.131769895553588867 0.112565837800502777
-0.58131861686706543 0.321875780820846558 -0.0224889703094959259
0.206551387906074524 0.0244798418134450912 0.177414700388908386
-0.595059871673583984 0.375277161598205566 0.17240530252456665
0.445276945829391479 -0.31943356990814209 0.127923518419265747
0.255647122859954834 -0.278868228197097778 0.317063271999359131
0.23597283661365509 0.0236075334250926971 0.317174375057220459
-0.362489640712738037 -0.049800042062997818 -0.0232944339513778687
-0.182276278734207153 0.118090838193893433 0.0428371690213680267
0.255364596843719482 -0.288306295871734619 0.319879025220870972
0.24240247905254364 0.0329836606979370117 0.322439789772033691
0.400204718112945557 0.0231465566903352737 0.115738905966281891
-0.340046882629394531 -0.0661344379186630249 -0.146853819489479065
0.0763960033655166626 -0.33303368091583252 0.29952847957611084
-0.386338591575622559 -0.0607949122786521912 0.0943173840641975403
-0.447772055864334106 -0.0412943996489048004 0.128206521272659302
0.439863979816436768 -0.279461711645126343 0.33424532413482666
0.034993194043636322 -0.122957691550254822 -0.0251412838697433472
0.414842873811721802 -0.280912667512893677 0.327583461999893188
0.433546602725982666 -0.296209335327148438 0.33374592661857605
0.368466109037399292 -0.27882695198059082 -0.12982507050037384
-0.477030277252197266 0.00147500529419630766 0.188820108771324158
-0.29102441668510437 -0.0963012352585792542 -0.104062236845493317
0.24199482798576355 -0.313070148229598999 0.310237735509872437
0.473690569400787354 -0.354375183582305908 0.0075450437143445015
-0.295858860015869141 -0.0965502336621284485 -0.106519326567649841
0.245344206690788269 -0.288653016090393066 0.320631951093673706
0.0629300549626350403 -0.329733997583389282 0.297612637281417847
0.158629238605499268 -0.267835110425949097 -0.1050734743475914
0.250588506460189819 0.0632530152797698975 0.31607508659362793
-0.482098400592803955 -0.0078627346083521843 0.178417190909385681
0.236730054020881653 0.0664255768060684204 0.315430790185928345
0.239340633153915405 -0.331873595714569092 0.321965634822845459
-0.381779730319976807 -0.0919630452990531921 0.0372119955718517303
-0.215578153729438782 -0.140066221356391907 -0.0538745559751987457
-0.382239729166030884 -0.0636042356491088867 0.0840324088931083679
0.15061555802822113 -0.331665128469467163 0.33245319128036499
0.446381181478500366 -0.279993921518325806 0.334170281887054443
0.407958269119262695 -0.280623465776443481 0.325694769620895386
-0.501605987548828125 0.00662804068997502327 0.189149558544158936
-0.321482151746749878 0.0972654223442077637 -0.0697787553071975708
0.532958149909973145 -0.207665696740150452 -0.0521336458623409271
0.451527327299118042 -0.294028878211975098 -0.290125548839569092
0.48797231912612915 -0.325376063585281372 -0.310546964406967163
0.446976840496063232 -0.309872210025787354 -0.290492236614227295
-0.577353179454803467 0.269290119409561157 0.366253584623336792
-0.460969388484954834 0.105858154594898224 -0.230609610676765442
0.375406831502914429 -0.318820923566818237 0.199621871113777161
-0.589424967765808105 0.367028206586837769 0.131619438529014587
0.393158316612243652 -0.353579312562942505 -0.2171144038438797
0.441676408052444458 -0.310414612293243408 -0.288701772689819336
-0.2003345787525177 0.305443465709686279 0.0954864323139190674
-0.155167445540428162 0.267910510301589966 0.152197480201721191
0.530271530151367188 -0.33861127495765686 0.072325579822063446
0.464357107877731323 -0.266283303499221802 -0.217281833291053772
-0.633131861686706543 0.27579537034034729 0.107398338615894318
0.438999027013778687 -0.308706998825073242 -0.286872237920761108
0.515992999076843262 -0.277337789535522461 -0.316499948501586914
0.517121613025665283 -0.340481072664260864 -0.32042163610458374
0.454934209585189819 -0.30718761682510376 -0.29292711615562439
0.491388320922851562 -0.322095572948455811 0.0948907583951950073
0.0212322529405355453 -0.275884777307510376 -0.0181077718734741211
-0.653617441654205322 0.172019228339195251 -0.107780642807483673
-0.224373504519462585 0.318554282188415527 0.121883980929851532
0.465869218111038208 -0.364259690046310425 0.00637130625545978546
0.481572955846786499 -0.336978018283843994 0.0507627241313457489
0.512027561664581299 -0.339541256427764893 -0.319081157445907593
0.440772384405136108 -0.356699466705322266 -0.297292143106460571
-0.269675165414810181 0.322036415338516235 0.0423875562846660614
0.424729734659194946 -0.31342846155166626 -0.281567245721817017
0.416046828031539917 -0.295367956161499023 0.329029262065887451
-0.325626254081726074 -0.075423799455165863 0.123989574611186981
-0.366423696279525757 -0.0667362362146377563 0.155193939805030823
-0.337921351194381714 0.214835479855537415 0.133369371294975281
0.0104680061340332031 0.119281485676765442 0.105681002140045166
0.542494058609008789 -0.309361755847930908 -0.0457476153969764709
0.0142460009083151817 -0.261870503425598145 0.0399930477142333984
-0.00295153167098760605 -0.236646190285682678 0.094760410487651825
0.000801462505478411913 -0.219687342643737793 0.0820184201002120972
0.465445965528488159 -0.361114561557769775 0.030780106782913208
-0.268874078989028931 -0.138051897287368774 0.178023338317871094
-0.344623804092407227 -0.0659135580062866211 0.141785919666290283
0.12407267838716507 -0.276791125535964966 0.12948550283908844
-0.13345038890838623 0.0787191018462181091 0.0908128842711448669
0.463897079229354858 -0.0546169579029083252 0.0180712155997753143
-0.0135384732857346535 -0.216997817158699036 0.0808588862419128418
-0.554413735866546631 0.391733825206756592 0.148159414529800415
0.497114509344100952 -0.366987347602844238 0.00570523552596569061
-0.610349833965301514 0.294120907783508301 0.186931580305099487
0.530515313148498535 -0.275401443243026733 -0.317334741353988647
0.370899170637130737 -0.264788359403610229 0.182040542364120483
0.42088046669960022 -0.344658911228179932 0.151355177164077759
0.252406507730484009 0.0390206091105937958 -0.066203586757183075
0.549809873104095459 -0.150158986449241638 0.124756291508674622
-0.570157408714294434 0.28413921594619751 -0.00602510012686252594
0.501380681991577148 -0.362838685512542725 -0.000826432893518358469
0.208591535687446594 0.115505561232566833 -0.00995229464024305344
-0.288692861795425415 -0.085684560239315033 -0.065911807119846344
0.159722700715065002 -0.0833954215049743652 -0.0356920845806598663
-0.339471429586410522 -0.105483949184417725 0.141825437545776367
0.511537373065948486 -0.281566202640533447 -0.312853008508682251
-0.338806509971618652 -0.0796775072813034058 0.0391269922256469727
-0.368990570306777954 0.280784904956817627 -0.0620922856032848358
0.510309219360351562 -0.341181427240371704 0.0656030178070068359
0.302807629108428955 -0.206092208623886108 0.248426958918571472
0.543237149715423584 -0.312246978282928467 -0.0603010617196559906
0.141945153474807739 0.0693360492587089539 0.3369254469871521
-0.59449005126953125 0.267607271671295166 0.0125770177692174911
0.222417101263999939 -0.00728242890909314156 0.296112596988677979
0.231246352195739746 0.0341416038572788239 0.313308984041213989
0.533946037292480469 -0.319855630397796631 -0.0123324431478977203
-0.388870537281036377 -0.0640052258968353271 0.10628402978181839
-0.447115659713745117 -0.0401466190814971924 0.127058237791061401
0.496312946081161499 -0.0915903002023696899 0.154978469014167786
0.251256048679351807 0.0629300400614738464 0.317193001508712769
-0.290824621915817261 -0.092765413224697113 0.308280497789382935
-0.366071462631225586 -0.114784546196460724 0.104584664106369019
-0.562993228435516357 0.127338394522666931 -0.0780293792486190796
-0.501075208187103271 0.023477284237742424 0.187194883823394775
0.518592596054077148 -0.297586768865585327 -0.313690185546875
0.473086535930633545 -0.328489184379577637 -0.299549967050552368
-0.573887348175048828 0.268955051898956299 0.363181501626968384
-0.570838510990142822 0.355012089014053345 0.167491793632507324
-0.19141794741153717 0.304691821336746216 0.101849272847175598
-0.661676406860351562 0.239868134260177612 0.0420600175857543945
-0.504484355449676514 0.144451528787612915 0.35386541485786438
0.507615387439727783 -0.347409516572952271 -0.317979484796524048
-0.200244992971420288 0.305027037858963013 0.102508604526519775
0.475589483976364136 -0.357903152704238892 0.0051303948275744915
0.510193407535552979 -0.330999106168746948 0.0668803676962852478
-0.61036306619644165 0.367712914943695068 0.0882048308849334717
-0.56211775541305542 0.288388371467590332 -0.0555255897343158722
0.220342576503753662 0.0100806355476379395 0.309641987085342407
0.240907371044158936 0.00491142459213733673 0.322102576494216919
-0.359071284532546997 -0.0569222196936607361 -0.137406125664710999
0.399759024381637573 -0.253000944852828979 0.322443902492523193
0.400065034627914429 -0.263372123241424561 0.325195819139480591
0.224611937999725342 -0.324327826499938965 0.321195751428604126
0.411544829607009888 -0.268114149570465088 0.325617581605911255
-0.508718907833099365 0.0494527071714401245 0.1957835853099823
-0.630796134471893311 0.156571611762046814 -0.0522354096174240112
-0.501458942890167236 0.147017195820808411 0.345839053392410278
0.521409928798675537 -0.35096895694732666 -0.322722256183624268
0.495753616094589233 -0.348627597093582153 0.000652639893814921379
-0.19743812084197998 0.016063222661614418 -0.0494594201445579529
-0.557386279106140137 0.341894805431365967 -0.00529785361140966415
0.488969087600708008 -0.360758394002914429 0.0414846725761890411
0.449521690607070923 -0.0745361372828483582 0.00238368217833340168
-0.555942296981811523 0.385340660810470581 0.158281087875366211
0.375029385089874268 -0.0814754664897918701 -0.119535990059375763
-0.389376461505889893 0.319657951593399048 0.169344156980514526
-0.384337633848190308 0.328224480152130127 0.198045715689659119
-0.363769263029098511 0.23803393542766571 -0.0829963237047195435
-0.406929045915603638 0.199528306722640991 0.0414111986756324768
-0.644081652164459229 0.286932647228240967 0.0940253213047981262
0.409051567316055298 -0.347531884908676147 0.136870443820953369
0.22269342839717865 0.082652457058429718 -0.0330966189503669739
0.498923659324645996 -0.161597296595573425 0.124280340969562531
0.500645279884338379 -0.0932005718350410461 0.135206222534179688
0.215758606791496277 0.00163443677593022585 0.299973994493484497
-0.352676093578338623 -0.0682168975472450256 -0.00858673639595508575
-0.385022133588790894 0.266039848327636719 -0.0711849033832550049
0.506879746913909912 -0.347402304410934448 0.0553514212369918823
-0.356490224599838257 -0.0563858672976493835 -0.144998461008071899
0.132570192217826843 0.0723975226283073425 0.322652071714401245
-0.0990140661597251892 -0.265726238489151001 0.00656952057033777237
0.242807075381278992 0.0230521615594625473 0.322410345077514648
-0.479962259531021118 -0.0117890862748026848 0.185802951455116272
0.242825239896774292 0.0480410493910312653 0.317593812942504883
-0.277843356132507324 0.332714945077896118 0.0411693938076496124
0.370192885398864746 -0.0311864595860242844 -0.0395539291203022003
0.520571112632751465 -0.34831470251083374 -0.0359232015907764435
0.293661296367645264 -0.012271868996322155 0.037437044084072113
-0.643768191337585449 0.284850329160690308 0.0928730741143226624
0.0360524244606494904 0.136503085494041443 0.0855870693922042847
-0.396998614072799683 -0.0577099025249481201 0.126383423805236816
-0.440973550081253052 -0.0383002720773220062 0.131804212927818298
0.524238288402557373 -0.317903876304626465 -0.0650720298290252686
0.422899246215820312 -0.280303537845611572 0.331684976816177368
0.510041773319244385 -0.345297574996948242 0.057520601898431778
0.404316753149032593 -0.259177982807159424 0.324091434478759766
-0.479877442121505737 0.0179733298718929291 0.177186399698257446
0.235856145620346069 0.0682284384965896606 0.314992934465408325
-0.479023337364196777 -0.0084409201517701149 0.16783025860786438
0.239480495452880859 0.0672366544604301453 0.315394699573516846
0.388453155755996704 0.0256126057356595993 0.106420248746871948
0.220132768154144287 -0.316328346729278564 0.310852974653244019
0.383271843194961548 0.0425272919237613678 0.0694542825222015381
0.462955445051193237 0.0103362379595637321 0.175501570105552673
0.399943828582763672 -0.258968770503997803 0.327664941549301147
-0.499186545610427856 0.0210552103817462921 0.181397199630737305
-0.573081135749816895 0.266228586435317993 0.360405415296554565
-0.664135396480560303 0.22992880642414093 0.0222032852470874786
-0.148938044905662537 0.275252342224121094 0.0795409083366394043
0.522447526454925537 -0.33539155125617981 -0.322335898876190186
-0.220060274004936218 0.315599113702774048 0.097229592502117157
0.500272274017333984 -0.346890747547149658 0.0674123167991638184
-0.189411774277687073 0.302670001983642578 0.115251548588275909
0.314070194959640503 -0.130500718951225281 0.301164686679840088
0.225505724549293518 -0.0355669818818569183 0.305611759424209595
0.0579789504408836365 -0.33100658655166626 0.291858166456222534
0.435686856508255005 -0.28034016489982605 0.333199977874755859
0.409426659345626831 -0.28613397479057312 0.331361353397369385
0.386138349771499634 -0.26616552472114563 0.319237053394317627
0.39790770411491394 -0.385022610425949097 -0.225414678454399109
-0.161920532584190369 0.278280884027481079 0.129101067781448364
0.380911856889724731 0.0435496941208839417 0.0773983821272850037
0.391258478164672852 -0.256125569343566895 0.319245815277099609
-0.499906301498413086 0.0243382249027490616 0.186234578490257263
0.500014305114746094 -0.326274454593658447 -0.31296500563621521
0.38109317421913147 -0.376313716173171997 -0.21602456271648407
0.521516382694244385 -0.349615037441253662 -0.324738979339599609
0.521075785160064697 -0.348754435777664185 -0.321677178144454956
0.513697147369384766 -0.320001602172851562 -0.318302690982818604
0.25543627142906189 -0.222705796360969543 0.0578499026596546173
0.186449646949768066 -0.142616838216781616 -0.105290956795215607
0.508159637451171875 -0.320589125156402588 0.0295619592070579529
-0.469056010246276855 -0.0120444083586335182 0.181500658392906189
0.496610313653945923 -0.349313586950302124 -0.309635281562805176
0.521853148937225342 -0.327875435352325439 -0.321808546781539917
0.476424545049667358 -0.320596694946289062 -0.302915364503860474
-0.340803205966949463 0.229799002408981323 -0.0438859947025775909
0.201957911252975464 0.132495701313018799 0.11261458694934845
-0.172178760170936584 0.022014891728758812 0.0260199904441833496
0.266031324863433838 -0.166161522269248962 0.00637101009488105774
0.545046389102935791 -0.328672438859939575 -0.0475521758198738098
-0.45587611198425293 -0.053243294358253479 0.162612587213516235
0.470130056142807007 -0.356411188840866089 -0.306975781917572021
0.478854715824127197 -0.270154237747192383 -0.301395177841186523
