ply
format ascii 1.0
element vertex 738
property float x
property float y
property float z
end_header
-0.191386237740516663 0.317022740840911865 0.10061810165643692
0.256525486707687378 -0.283190369606018066 0.319561898708343506
0.238990217447280884 0.032506108283996582 0.318929433822631836
-0.120178401470184326 -0.0457113832235336304 0.00718220602720975876
-0.641611397266387939 0.30904725193977356 0.101750031113624573
0.364650040864944458 -0.373675912618637085 -0.20722159743309021
0.537639975547790527 -0.217536047101020813 0.161591112613677979
-0.552802681922912598 0.382867276668548584 0.157876163721084595
-0.122656263411045074 0.259681969881057739 0.11498473584651947
0.119249217212200165 0.102781981229782104 0.0892504677176475525
-0.375476241111755371 0.266281723976135254 -0.0897008031606674194
0.516796529293060303 -0.348821043968200684 0.0985193029046058655
-0.293494462966918945 -0.106749877333641052 -0.109419308602809906
0.27482914924621582 0.103260993957519531 -0.0579485446214675903
-0.575094759464263916 0.219969436526298523 -0.212784096598625183
-0.115699015557765961 0.26896059513092041 0.17968316376209259
0.235883444547653198 -0.287660151720046997 0.314259231090545654
0.310008913278579712 -0.187075018882751465 0.240831434726715088
0.541689872741699219 -0.32561194896697998 -0.02119428850710392
0.078889109194278717 -0.337332218885421753 0.282159149646759033
-0.00648532388731837273 -0.171482101082801819 0.00412202859297394753
-0.282336413860321045 0.262155383825302124 0.00691659701988101006
0.513081073760986328 -0.236874386668205261 -0.309752345085144043
-0.646970689296722412 0.278671354055404663 0.0794158950448036194
-0.646311700344085693 0.183604568243026733 -0.0910146012902259827
0.514017462730407715 -0.322291433811187744 0.0240187123417854309
-0.406925797462463379 -0.0632081553339958191 0.113420799374580383
0.516750514507293701 -0.355474352836608887 -0.0208953246474266052
-0.56661534309387207 0.374739706516265869 0.152379795908927917
0.235742613673210144 0.043318726122379303 0.313476741313934326
-0.664832055568695068 0.22755160927772522 0.0229738969355821609
-0.448075771331787109 -0.0380481742322444916 0.126962319016456604
0.502947092056274414 -0.302045941352844238 -0.179167047142982483
-0.589156925678253174 0.361448377370834351 0.0859654843807220459
-0.194226637482643127 0.31529688835144043 0.104736685752868652
0.246765851974487305 0.0242216046899557114 0.32361331582069397
0.53084409236907959 -0.323575198650360107 -0.0583607591688632965
-0.18297964334487915 0.307395964860916138 0.128352746367454529
0.247016876935958862 0.00729762949049472809 0.323747575283050537
0.0584921985864639282 0.14001166820526123 0.345593303442001343
-0.505715310573577881 0.149822741746902466 0.356791585683822632
0.2705860435962677 -0.310935497283935547 0.326105058193206787
-0.253758281469345093 0.0239839069545269012 -0.070871405303478241
0.240933269262313843 -0.294972926378250122 0.32236170768737793
0.24879242479801178 0.044099513441324234 0.314197629690170288
0.468240261077880859 -0.101744666695594788 0.0342978127300739288
-0.124900884926319122 0.195497259497642517 0.115255817770957947
0.239830523729324341 -0.326284497976303101 0.317818313837051392
0.500153422355651855 -0.366361379623413086 0.0743915587663650513
0.523348152637481689 -0.324495702981948853 0.025936586782336235
0.444490373134613037 -0.253032028675079346 0.33213573694229126
0.321383774280548096 -0.131184279918670654 -0.106955721974372864
0.0632269531488418579 -0.0103981150314211845 0.321564823389053345
0.511211037635803223 -0.360663503408432007 0.0472465641796588898
0.135555371642112732 -0.100365027785301208 0.040324382483959198
0.049406539648771286 0.0118971047922968864 0.0295136123895645142
0.0206602159887552261 0.0485916025936603546 0.0423838682472705841
0.087997928261756897 -0.0657227560877799988 0.289501070976257324
-0.162118420004844666 -0.265238255262374878 0.147917896509170532
0.264784306287765503 -0.0199001599103212357 0.061266288161277771
-0.0290216822177171707 -0.0286488942801952362 0.295450121164321899
0.502149701118469238 -0.240118354558944702 -0.302334338426589966
0.475920796394348145 -0.314735472202301025 -0.302261024713516235
-0.630913078784942627 0.306684046983718872 0.167252704501152039
0.475372821092605591 -0.320603787899017334 0.120765745639801025
0.509032785892486572 -0.300636827945709229 -0.105832993984222412
0.528201580047607422 -0.274693876504898071 -0.317509472370147705
0.493535369634628296 -0.332203388214111328 -0.311013907194137573
0.503421366214752197 -0.319927752017974854 0.0977516546845436096
0.474168092012405396 -0.305570423603057861 -0.298415154218673706
-0.55931699275970459 0.268471449613571167 0.364413201808929443
0.124852560460567474 0.117159187793731689 0.314027220010757446
-0.633555293083190918 0.282645761966705322 0.0541497468948364258
-0.587346494197845459 0.363200843334197998 0.102306261658668518
0.371490061283111572 -0.373830288648605347 -0.213001400232315063
0.438366889953613281 -0.347763478755950928 0.154110908508300781
0.0579802989959716797 0.121639125049114227 0.320969045162200928
-0.574560821056365967 0.369208723306655884 0.215444415807723999
0.264592647552490234 0.0248722247779369354 -0.0589392967522144318
0.368703722953796387 -0.336564838886260986 0.160411670804023743
0.510476768016815186 -0.301356226205825806 -0.112282149493694305
0.133633330464363098 -0.320302426815032959 -0.0979413911700248718
0.516528010368347168 -0.348600298166275024 -0.0205523446202278137
0.389281034469604492 -0.346563160419464111 -0.214365676045417786
-0.576997995376586914 0.319487184286117554 0.0406618416309356689
0.53601914644241333 -0.277664750814437866 -0.320913553237915039
0.467878133058547974 -0.310704946517944336 -0.299549460411071777
0.507140636444091797 -0.3469390869140625 0.0176728479564189911
-0.555898606777191162 0.310127019882202148 0.102135278284549713
0.193887799978256226 -0.339089751243591309 -0.0593464486300945282
0.0701310262084007263 -0.281919747591018677 -0.0780449807643890381
0.252392768859863281 -0.250051736831665039 0.320020884275436401
0.239784553647041321 0.0311480443924665451 0.31670689582824707
-0.121038801968097687 -0.0475097633898258209 0.00803710613399744034
0.178692266345024109 -0.0999399870634078979 -0.0150151345878839493
0.532419502735137939 -0.33213198184967041 -0.0134338187053799629
0.370353102684020996 -0.349283307790756226 -0.209138959646224976
0.534899413585662842 -0.245692551136016846 0.177014127373695374
0.56115192174911499 -0.315618246793746948 -0.331242591142654419
0.554471373558044434 -0.211583405733108521 0.133650526404380798
-0.543266534805297852 0.381168782711029053 0.164417311549186707
0.122745156288146973 0.117437988519668579 0.132931992411613464
-0.582226932048797607 0.352323651313781738 0.0976970791816711426
-0.481518268585205078 0.186372756958007812 -0.0916510000824928284
0.515591025352478027 -0.339015424251556396 0.0385802499949932098
0.253406226634979248 -0.278965294361114502 0.321847438812255859
0.278522789478302002 -0.355745553970336914 -0.126270473003387451
0.507926881313323975 -0.286473363637924194 -0.313978970050811768
-0.432059258222579956 -0.0568862892687320709 0.116643145680427551
0.201832950115203857 0.0906999409198760986 0.223164349794387817
0.244174674153327942 0.104770764708518982 -0.0575020052492618561
-0.195735007524490356 0.201872766017913818 0.349231481552124023
0.250346839427947998 0.0251074470579624176 0.323135465383529663
0.239708557724952698 0.0192037094384431839 0.320833832025527954
-0.031505536288022995 0.163007065653800964 0.382560372352600098
-0.482422143220901489 -0.0153269907459616661 0.180134907364845276
0.483789563179016113 -0.368925988674163818 0.0458340905606746674
-0.64349442720413208 0.287483453750610352 0.0861326009035110474
0.275925397872924805 -0.165640696883201599 -0.0707240030169487
-0.411723792552947998 -0.0565593726933002472 0.0788512527942657471
-0.642967641353607178 0.176070615649223328 -0.0820960849523544312
-0.225856989622116089 -0.133640199899673462 -0.0522937551140785217
0.25490647554397583 -0.26538163423538208 0.321005433797836304
-0.345246106386184692 0.0176337733864784241 -0.117006264626979828
-0.287014752626419067 -0.0912613049149513245 -0.106584921479225159
-0.584991157054901123 0.210181206464767456 -0.218091428279876709
0.267566412687301636 -0.296837329864501953 0.315082371234893799
-0.0255658943206071854 -0.187022149562835693 -0.0435758903622627258
-0.61803358793258667 0.277288824319839478 0.031323511153459549
-0.608819901943206787 0.298602581024169922 0.092406734824180603
-0.397471308708190918 -0.0625609755516052246 0.118842907249927521
-0.451611071825027466 -0.0378777086734771729 0.119443930685520172
0.43107113242149353 -0.271654009819030762 0.329018652439117432
-0.0525084845721721649 0.141068518161773682 0.0915907323360443115
-0.502982020378112793 0.151446998119354248 0.355406969785690308
0.240790367126464844 -0.319111108779907227 0.322715491056442261
0.497168004512786865 -0.370748370885848999 0.0571521855890750885
0.399261713027954102 -0.256770908832550049 0.322300106287002563
-0.158272832632064819 -0.263223886489868164 0.181561022996902466
-0.499096691608428955 0.0143202394247055054 0.158049806952476501
0.417555093765258789 -0.297271668910980225 0.328576952219009399
0.535345911979675293 -0.340121179819107056 -0.0186638403683900833
0.344317257404327393 -0.267295956611633301 -0.128071025013923645
-0.49641728401184082 0.0722807273268699646 0.20395292341709137
0.443614751100540161 -0.27210119366645813 0.333243429660797119
0.522071480751037598 -0.335330754518508911 0.032580941915512085
0.453439176082611084 -0.319836527109146118 -0.293286412954330444
0.474251806735992432 -0.3116188645362854 0.116502568125724792
0.517305612564086914 -0.278363496065139771 -0.313092261552810669
0.502746105194091797 -0.325889289379119873 -0.31458166241645813
0.518146097660064697 -0.327052682638168335 0.101714156568050385
0.479398429393768311 -0.311371922492980957 -0.302432388067245483
0.114448688924312592 0.118766307830810547 0.288888901472091675
-0.122008748352527618 0.268904805183410645 0.158695727586746216
-0.614785671234130859 0.265762984752655029 0.052028261125087738
-0.479308605194091797 0.00333917816169559956 0.181309744715690613
0.426703155040740967 -0.354950934648513794 0.158396616578102112
-0.292191118001937866 -0.110333368182182312 -0.105842933058738708
0.130414515733718872 0.0656734257936477661 0.321103513240814209
0.253661781549453735 0.0388017185032367706 -0.078049786388874054
0.235402211546897888 0.0939985290169715881 -0.0533208474516868591
0.417740911245346069 -0.261494368314743042 -0.202591270208358765
0.521740376949310303 -0.354598790407180786 -0.0196782331913709641
-0.608863174915313721 0.381382942199707031 0.181204125285148621
0.517657160758972168 -0.279264003038406372 -0.315014809370040894
0.499162465333938599 -0.349948346614837646 0.0238671954721212387
-0.58783113956451416 0.369573414325714111 0.112993516027927399
0.505943179130554199 -0.104702435433864594 0.147026091814041138
-0.198084861040115356 0.31183132529258728 0.112856470048427582
0.264014214277267456 -0.286425262689590454 0.319671601057052612
0.236808508634567261 0.06225629523396492 0.310365796089172363
-0.144470691680908203 -0.0432454496622085571 0.00410624174401164055
-0.657728016376495361 0.214966639876365662 -0.046252712607383728
-0.288496255874633789 -0.0757138505578041077 -0.0686879456043243408
0.227175012230873108 0.0422841534018516541 -0.0483881905674934387
0.551530063152313232 -0.144468963146209717 0.131781026721000671
0.519791066646575928 -0.295326352119445801 0.0746766328811645508
0.517655134201049805 -0.284023672342300415 -0.181434422731399536
-0.357978910207748413 -0.0168384332209825516 -0.0280210990458726883
0.091365523636341095 0.0883681848645210266 0.0856174975633621216
0.46669045090675354 -0.361843377351760864 -0.0108829578384757042
-0.432869762182235718 0.158025622367858887 -0.0665617212653160095
0.523829162120819092 -0.335600525140762329 0.0686864182353019714
0.262874037027359009 -0.285793960094451904 0.318395078182220459
0.00934592075645923615 -0.0907837077975273132 -0.0262394975870847702
0.0325282551348209381 -0.130190148949623108 0.0217519793659448624
-0.630693554878234863 0.265274941921234131 0.0289863757789134979
0.242008954286575317 0.0744241699576377869 0.318629980087280273
0.24009278416633606 0.0296730305999517441 0.318720340728759766
-0.174886301159858704 0.301106810569763184 0.116229325532913208
0.304562807083129883 -0.151212617754936218 0.307635754346847534
0.261909514665603638 -0.290593087673187256 0.320882320404052734
-0.476134181022644043 -0.00792655814439058304 0.166185468435287476
0.242640972137451172 0.0818606242537498474 0.311986595392227173
0.520251095294952393 -0.351250708103179932 0.0817255750298500061
-0.0349035114049911499 -0.237366348505020142 0.124033309519290924
-0.63831031322479248 0.290265023708343506 0.0987622365355491638
-0.234168738126754761 -0.132612720131874084 -0.0580789484083652496
-0.379208356142044067 -0.108568690717220306 0.105491980910301208
-0.236375108361244202 -0.147634029388427734 -0.0579234994947910309
-0.657942116260528564 0.214659690856933594 -0.0339570231735706329
0.528891563415527344 -0.352583914995193481 0.0776664838194847107
-0.621143341064453125 0.270537734031677246 0.0524249114096164703
-0.40408894419670105 -0.0641046836972236633 0.112015150487422943
-0.44627109169960022 -0.0412646755576133728 0.121949940919876099
0.267976194620132446 -0.285488605499267578 0.323353797197341919
0.127611935138702393 -0.326415002346038818 0.312528789043426514
0.152267888188362122 -0.342910021543502808 0.317795872688293457
0.44776839017868042 -0.335594028234481812 -0.293256670236587524
0.515779733657836914 -0.302934736013412476 -0.108202330768108368
0.515278100967407227 -0.280234962701797485 -0.313110202550888062
0.484911262989044189 -0.327653855085372925 -0.310061454772949219
0.464386552572250366 -0.345859676599502563 -0.302931517362594604
0.54963606595993042 -0.210210427641868591 -0.316278785467147827
0.524146795272827148 -0.30002129077911377 -0.322759300470352173
0.51801145076751709 -0.30083167552947998 -0.318654626607894897
0.246732920408248901 0.0571423657238483429 0.316223293542861938
0.241208404302597046 0.0876145362854003906 0.312554001808166504
-0.29163658618927002 -0.100338742136955261 -0.101971454918384552
-0.453524738550186157 -0.051745779812335968 0.117044061422348022
0.404734432697296143 -0.272189557552337646 0.322346359491348267
-0.50235450267791748 0.00401825644075870514 0.189100101590156555
0.40102839469909668 -0.287162870168685913 0.324666976928710938
0.399174600839614868 -0.273483186960220337 0.323143929243087769
0.342192143201828003 -0.258889377117156982 0.0899124592542648315
-0.0188091155141592026 -0.244162246584892273 0.128604590892791748
-0.464469283819198608 0.0362323112785816193 0.189518898725509644
-0.194473743438720703 0.221844613552093506 0.171986475586891174
0.366830915212631226 -0.329196512699127197 -0.0237197484821081161
0.323424935340881348 -0.390009522438049316 -0.159081697463989258
0.535437881946563721 -0.323583364486694336 -0.0584624819457530975
-0.441721886396408081 -0.00448604999110102654 0.15266399085521698
-0.0191960036754608154 -0.0593132860958576202 0.141641959547996521
-0.000259936234215274453 -0.235903769731521606 0.106314927339553833
0.52620542049407959 -0.201764598488807678 -0.0802975744009017944
0.449825555086135864 -0.308280676603317261 -0.293145120143890381
0.526873409748077393 -0.275396168231964111 -0.315963983535766602
0.499941080808639526 -0.324838906526565552 -0.312951147556304932
0.475247889757156372 -0.305000245571136475 -0.297667980194091797
-0.127567470073699951 0.246871665120124817 0.138877511024475098
-0.649017214775085449 0.282284677028656006 0.0941432639956474304
-0.199037820100784302 0.286903679370880127 0.335848778486251831
0.497918784618377686 -0.0867152512073516846 0.136389732360839844
0.200752720236778259 -0.359012007713317871 -0.0909699872136116028
0.505414664745330811 -0.367619097232818604 -0.0229345522820949554
0.527216792106628418 -0.24263840913772583 0.172717541456222534
-0.58598405122756958 0.379602521657943726 0.170591697096824646
0.445041507482528687 -0.314872294664382935 -0.288017481565475464
0.498505264520645142 -0.111078396439552307 0.111903689801692963
-0.655755281448364258 0.175776898860931396 -0.103863820433616638
-0.202055588364601135 0.309030830860137939 0.0890690311789512634
0.20119282603263855 -0.0134705007076263428 0.295115649700164795
0.15996202826499939 -0.0620057247579097748 -0.0442465022206306458
-0.57954871654510498 0.302509278059005737 0.368622094392776489
0.27491876482963562 0.0984907075762748718 -0.0293745808303356171
-0.43523561954498291 0.155729219317436218 -0.0860856771469116211
0.534441709518432617 -0.332988649606704712 0.0125112487003207207
-0.568702042102813721 0.197635635733604431 -0.229177683591842651
-0.497574299573898315 0.0453080162405967712 -0.0869211331009864807
0.0313796661794185638 -0.103797063231468201 0.0329017341136932373
0.534125685691833496 -0.264436960220336914 -0.316611945629119873
0.00965484976768493652 0.197889849543571472 0.0274398643523454666
0.302059084177017212 0.0389936938881874084 -0.0847446322441101074
-0.33208051323890686 -0.015684228390455246 -0.107765123248100281
0.236371546983718872 0.0145624410361051559 0.32164156436920166
0.124966509640216827 0.0131605463102459908 0.298840433359146118
0.527512073516845703 -0.35510137677192688 0.0661123394966125488
0.467119395732879639 -0.309772670269012451 -0.233382821083068848
-0.651998162269592285 0.285623788833618164 0.104250967502593994
0.546554446220397949 -0.219922155141830444 0.163267835974693298
0.52804410457611084 -0.323314011096954346 -0.016279587522149086
-0.382906734943389893 -0.0560978539288043976 0.0761864781379699707
0.456947684288024902 -0.310763448476791382 -0.29284358024597168
0.505019187927246094 -0.339761048555374146 -0.318187057971954346
0.478866726160049438 -0.314247429370880127 -0.299790680408477783
0.520418941974639893 -0.301236778497695923 -0.317619055509567261
-0.00226203352212905884 -0.1397562175989151 -0.0249006077647209167
0.397508472204208374 -0.273040890693664551 0.323319435119628906
0.401179194450378418 -0.271469205617904663 0.323622971773147583
0.506088852882385254 -0.331907868385314941 0.105644531548023224
-0.467465311288833618 0.0427687913179397583 0.170628130435943604
0.41003262996673584 -0.345769137144088745 0.156420022249221802
-0.360654264688491821 -0.0349676534533500671 -0.148154139518737793
-0.12812119722366333 -0.267397195100784302 0.112378723919391632
0.512632310390472412 -0.368957698345184326 -0.0148786921054124832
-0.213674381375312805 0.312833279371261597 0.097604215145111084
0.250579386949539185 -0.286930203437805176 0.322825580835342407
0.208897754549980164 0.00958095025271177292 -0.0463097989559173584
0.0699955374002456665 -0.151303470134735107 -0.0173361655324697495
-0.169729262590408325 0.305058866739273071 0.118792936205863953
0.471141129732131958 -0.364262551069259644 0.00684010423719882965
-0.290756791830062866 -0.0991292968392372131 -0.103228941559791565
0.0364961288869380951 -0.149452701210975647 -0.0217920299619436264
0.232106924057006836 0.0563754700124263763 0.309053242206573486
0.253385454416275024 -0.288492769002914429 0.320606052875518799
-0.471553444862365723 0.00146668148227035999 0.168649077415466309
0.240923479199409485 0.0628280714154243469 0.312947243452072144
0.508989155292510986 -0.351942181587219238 0.063763834536075592
0.227420523762702942 -0.314621120691299438 0.314525574445724487
-0.375203549861907959 -0.0928314030170440674 0.0861673727631568909
-0.0626291707158088684 -0.241344377398490906 0.302566617727279663
-0.222525164484977722 -0.127354443073272705 -0.0531407557427883148
-0.409701555967330933 -0.0651187896728515625 0.0985059291124343872
-0.444816023111343384 -0.0443865321576595306 0.132726237177848816
0.238974809646606445 -0.293868154287338257 0.314388573169708252
0.15393558144569397 -0.324121206998825073 0.320105075836181641
0.425317108631134033 -0.255963563919067383 0.328458249568939209
0.438321202993392944 -0.342818260192871094 -0.29290732741355896
0.506438016891479492 -0.334463387727737427 -0.318332672119140625
0.445171445608139038 -0.352166473865509033 -0.286964863538742065
0.238189175724983215 0.0658923164010047913 0.312227398157119751
0.403256148099899292 -0.287391901016235352 0.325790703296661377
-0.494576156139373779 0.00705160992220044136 0.188383802771568298
0.485758692026138306 -0.0631464272737503052 0.131515368819236755
0.0126218879595398903 -0.170481190085411072 0.00978923216462135315
0.531635403633117676 -0.307517826557159424 -0.0624294616281986237
0.314886897802352905 -0.302112340927124023 -0.126985535025596619
0.44600793719291687 -0.291213631629943848 -0.285882174968719482
-0.33673405647277832 0.225021228194236755 0.125700056552886963
-0.400609791278839111 -0.0278275106102228165 -0.00193043367471545935
0.403165131807327271 -0.271612465381622314 0.324005752801895142
-0.13319745659828186 0.19607996940612793 0.16771736741065979
0.399214476346969604 -0.271548300981521606 0.323820352554321289
-0.446266204118728638 -0.0246008224785327911 0.0213958732783794403
-0.137877762317657471 0.245136693120002747 0.191674351692199707
-0.612552523612976074 0.294357091188430786 0.183724761009216309
0.124566987156867981 0.116291560232639313 0.316616654396057129
-0.120825201272964478 0.250871479511260986 0.161802038550376892
-0.58304983377456665 0.348493307828903198 0.0581116341054439545
0.426944106817245483 -0.34794539213180542 0.152899205684661865
-0.566458821296691895 0.295429259538650513 -0.0690188035368919373
0.251925826072692871 0.0269305016845464706 -0.0797745212912559509
0.247694447636604309 0.100614249706268311 -0.0485451593995094299
-0.357128143310546875 -0.0553200580179691315 -0.141888335347175598
0.19872969388961792 0.120445534586906433 0.0356018133461475372
0.545655608177185059 -0.131408914923667908 0.111775331199169159
-0.58135378360748291 0.322118163108825684 -0.0228756312280893326
0.206189021468162537 0.0248787309974431992 0.176725506782531738
-0.595072329044342041 0.375478386878967285 0.172004669904708862
0.444918125867843628 -0.319045513868331909 0.127218946814537048
0.255185961723327637 -0.278462141752243042 0.316447079181671143
0.235585793852806091 0.0239993073046207428 0.316485315561294556
-0.362587034702301025 -0.0493448451161384583 -0.0237900596112012863
-0.182440191507339478 0.11851145327091217 0.0422797016799449921
0.254902005195617676 -0.287898093461990356 0.319265663623809814
0.242018982768058777 0.033372439444065094 0.321745365858078003
0.399880528450012207 0.023526972159743309 0.114961571991443634
-0.340166866779327393 -0.0656741783022880554 -0.147332921624183655
0.075945734977722168 -0.332580149173736572 0.298999220132827759
-0.386432081460952759 -0.06034846231341362 0.0938222408294677734
-0.447848469018936157 -0.0408614575862884521 0.127734318375587463
0.439467489719390869 -0.279084384441375732 0.333532989025115967
0.034642338752746582 -0.122507885098457336 -0.0257051456719636917
0.414431303739547729 -0.280531644821166992 0.326884090900421143
0.433143556118011475 -0.295826256275177002 0.333041727542877197
0.368084371089935303 -0.278432279825210571 -0.130474373698234558
-0.477022498846054077 0.00191194436047226191 0.188332542777061462
-0.291171073913574219 -0.0958383381366729736 -0.104561038315296173
0.241530507802963257 -0.312652587890625 0.309636533260345459
0.473366618156433105 -0.353985428810119629 0.00685014203190803528
-0.296005517244338989 -0.0960857570171356201 -0.10701364278793335
0.244880884885787964 -0.288242548704147339 0.320023596286773682
0.0624842569231987 -0.329279005527496338 0.297086387872695923
0.158216238021850586 -0.267387747764587402 -0.105643212795257568
0.250218302011489868 0.0636348947882652283 0.315368175506591797
-0.482151210308074951 -0.00744392722845077515 0.177953094244003296
0.236360743641853333 0.0668091773986816406 0.314730048179626465
0.238873183727264404 -0.331451088190078735 0.321371197700500488
-0.381880819797515869 -0.0915061235427856445 0.036722872406244278
-0.215790614485740662 -0.139589309692382812 -0.054374348372220993
-0.382334679365158081 -0.0631563663482666016 0.0835365802049636841
0.150147885084152222 -0.331227660179138184 0.331898689270019531
0.445988684892654419 -0.279617458581924438 0.333454757928848267
0.407542645931243896 -0.280241727828979492 0.324998736381530762
-0.501665651798248291 0.0070324186235666275 0.188698485493659973
-0.321576505899429321 0.0976912602782249451 -0.0702930763363838196
0.532705724239349365 -0.207299485802650452 -0.0528723970055580139
0.451202422380447388 -0.293653041124343872 -0.290772318840026855
0.487671792507171631 -0.325006633996963501 -0.311192333698272705
0.446646898984909058 -0.309494376182556152 -0.291133195161819458
-0.577401280403137207 0.269522398710250854 0.365813285112380981
-0.461039692163467407 0.106247574090957642 -0.231041207909584045
0.37498772144317627 -0.318424254655838013 0.198946267366409302
-0.589441299438476562 0.367239087820053101 0.131219223141670227
0.392784535884857178 -0.353184312582015991 -0.217738047242164612
0.441342532634735107 -0.310035675764083862 -0.289341181516647339
-0.200440555810928345 0.305757015943527222 0.0949295610189437866
-0.155309915542602539 0.268244773149490356 0.15162232518196106
0.529991090297698975 -0.338231503963470459 0.0716024711728096008
0.464044690132141113 -0.265909343957901001 -0.217952802777290344
-0.633172512054443359 0.276036590337753296 0.10701347142457962
0.438663363456726074 -0.308327585458755493 -0.287511557340621948
0.515720188617706299 -0.276978731155395508 -0.317162364721298218
0.516843199729919434 -0.340117841958999634 -0.321069061756134033
0.45461040735244751 -0.306811630725860596 -0.293570876121520996
0.491071492433547974 -0.321713089942932129 0.0941722989082336426
0.0208533946424722672 -0.275406956672668457 -0.0186355188488960266
-0.65368497371673584 0.172315105795860291 -0.108142361044883728
-0.224464878439903259 0.318854004144668579 0.121332362294197083
0.465537399053573608 -0.363867014646530151 0.00567992916330695152
0.481253355741500854 -0.336591660976409912 0.0500568896532058716
0.511745035648345947 -0.339176803827285767 -0.319727867841720581
0.440431863069534302 -0.356316655874252319 -0.297918617725372314
-0.269746959209442139 0.322338908910751343 0.0418592505156993866
0.424383252859115601 -0.313045710325241089 -0.282201498746871948
0.415633618831634521 -0.294982939958572388 0.328333526849746704
-0.325760096311569214 -0.0749714747071266174 0.123480968177318573
-0.366537719964981079 -0.0662894099950790405 0.154694423079490662
-0.337985783815383911 0.215189084410667419 0.132837548851966858
0.0101918512955307961 0.119695261120796204 0.10506226122379303
0.542237460613250732 -0.308989733457565308 -0.0464614666998386383
0.0138695882633328438 -0.261396914720535278 0.0394590310752391815
-0.00332426116801798344 -0.236177638173103333 0.0942237824201583862
0.000431305990787222981 -0.219221338629722595 0.0814777538180351257
0.465113043785095215 -0.360722273588180542 0.0300874374806880951
-0.269073605537414551 -0.137587264180183411 0.177516818046569824
-0.344747215509414673 -0.0654643774032592773 0.141280651092529297
0.123648904263973236 -0.276344507932662964 0.128914028406143188
-0.133656501770019531 0.0791501924395561218 0.090243808925151825
0.463606655597686768 -0.0542355366051197052 0.0172987319529056549
-0.01390102319419384 -0.216529890894889832 0.0803216025233268738
-0.554417848587036133 0.391943305730819702 0.147741004824638367
0.496809065341949463 -0.366599470376968384 0.00500574661418795586
-0.610381007194519043 0.294354885816574097 0.186528876423835754
0.530254781246185303 -0.275046020746231079 -0.31800040602684021
0.370484441518783569 -0.264404743909835815 0.181350931525230408
0.42049744725227356 -0.344261139631271362 0.150666579604148865
0.252058833837509155 0.039427831768989563 -0.0669051632285118103
0.549561560153961182 -0.149801060557365417 0.123968653380870819
-0.570202112197875977 0.284394264221191406 -0.00639920821413397789
0.50108027458190918 -0.362452536821365356 -0.00152637949213385582
0.20826566219329834 0.115906171500682831 -0.0106551870703697205
-0.288841396570205688 -0.0852203443646430969 -0.0664125531911849976
0.159348368644714355 -0.082969076931476593 -0.0363244600594043732
-0.339609920978546143 -0.105027951300144196 0.141325205564498901
0.511260569095611572 -0.281205505132675171 -0.313514083623886108
-0.338925838470458984 -0.0792201012372970581 0.0386248603463172913
-0.369041025638580322 0.281106829643249512 -0.0625782981514930725
0.510011732578277588 -0.340798377990722656 0.0648871809244155884
0.302373170852661133 -0.205706119537353516 0.247761458158493042
0.542981147766113281 -0.311875075101852417 -0.0610112994909286499
0.141580149531364441 0.0697357058525085449 0.336270898580551147
-0.594533264636993408 0.267871618270874023 0.0121869109570980072
0.222019582986831665 -0.00688256276771426201 0.295437067747116089
0.230864003300666809 0.0345327183604240417 0.312619179487228394
0.533680379390716553 -0.319480627775192261 -0.0130485072731971741
-0.388965398073196411 -0.0635592266917228699 0.105789884924888611
-0.44719165563583374 -0.0397137477993965149 0.126585617661476135
0.496022671461105347 -0.0912244096398353577 0.154187604784965515
0.250885635614395142 0.0633118078112602234 0.316485881805419922
-0.291031062602996826 -0.0923162549734115601 0.307778507471084595
-0.366188704967498779 -0.114327944815158844 0.104089491069316864
-0.563048779964447021 0.127685487270355225 -0.0784289538860321045
-0.501134157180786133 0.0238760225474834442 0.18674294650554657
0.518320083618164062 -0.297226548194885254 -0.314348697662353516
0.472773879766464233 -0.328115582466125488 -0.300192683935165405
-0.573934972286224365 0.269189596176147461 0.36273995041847229
-0.570851624011993408 0.355228334665298462 0.167078942060470581
-0.191528066992759705 0.305005967617034912 0.10128890722990036
-0.661727786064147949 0.240127906203269958 0.0416854731738567352
-0.504556596279144287 0.144791543483734131 0.353394448757171631
0.507328212261199951 -0.347043275833129883 -0.318623721599578857
-0.200351059436798096 0.305339962244033813 0.10195072740316391
0.475266605615615845 -0.357513070106506348 0.00443528406322002411
0.509896636009216309 -0.330617785453796387 0.06616191565990448
-0.61038517951965332 0.367921113967895508 0.087819024920463562
-0.562159836292266846 0.288652747869491577 -0.0559191405773162842
0.219950035214424133 0.0104782804846763611 0.308963924646377563
0.240512371063232422 0.00530439149588346481 0.321416467428207397
-0.35917896032333374 -0.0564646981656551361 -0.137884095311164856
0.399344444274902344 -0.252624630928039551 0.32174411416053772
0.399648219347000122 -0.262993603944778442 0.324499011039733887
0.22414436936378479 -0.323904603719711304 0.320606440305709839
0.411133766174316406 -0.267735928297042847 0.32491612434387207
-0.508777141571044922 0.0498394109308719635 0.195334464311599731
-0.630856096744537354 0.156881242990493774 -0.0526120997965335846
-0.501529574394226074 0.147357642650604248 0.345367282629013062
0.521134078502655029 -0.350606083869934082 -0.323368161916732788
0.495449751615524292 -0.348242461681365967 -4.85526506963651627e-05
-0.197614118456840515 0.0165151320397853851 -0.0499857701361179352
-0.557412922382354736 0.342134147882461548 -0.00569436978548765182
0.488654404878616333 -0.360369503498077393 0.0407829172909259796
0.449216246604919434 -0.0741544961929321289 0.00162262702360749245
-0.555947005748748779 0.385549843311309814 0.157863140106201172
0.374673336744308472 -0.0810849741101264954 -0.120250687003135681
-0.38939744234085083 0.319933474063873291 0.16883261501789093
-0.384358614683151245 0.328490793704986572 0.197530075907707214
-0.363832145929336548 0.238382115960121155 -0.0834848359227180481
-0.406974375247955322 0.199891790747642517 0.0409117154777050018
-0.644123375415802002 0.287159889936447144 0.0936526432633399963
0.408663064241409302 -0.347132205963134766 0.136188432574272156
0.222358137369155884 0.083057597279548645 -0.0337970554828643799
0.498629003763198853 -0.161235451698303223 0.123510584235191345
0.500361740589141846 -0.0928331464529037476 0.134416833519935608
0.215362831950187683 0.00203548558056354523 0.299299836158752441
-0.352782338857650757 -0.0677590742707252502 -0.00908411480486392975
-0.385071396827697754 0.266368061304092407 -0.0716656669974327087
0.506580054759979248 -0.347017914056777954 0.0546394623816013336
-0.356599479913711548 -0.0559282079339027405 -0.145475789904594421
0.132209673523902893 0.0727989748120307922 0.32200014591217041
-0.0993339195847511292 -0.265226155519485474 0.00607068790122866631
0.242419436573982239 0.0234424658119678497 0.321718364953994751
-0.480011641979217529 -0.0113668935373425484 0.185336187481880188
0.242448553442955017 0.0484272278845310211 0.316894859075546265
-0.277908742427825928 0.333010256290435791 0.0406447947025299072
0.369850844144821167 -0.0307937152683734894 -0.0402889959514141083
0.52029120922088623 -0.34793516993522644 -0.0366243347525596619
0.293301612138748169 -0.011876511387526989 0.0367174036800861359
-0.643810153007507324 0.285078972578048706 0.0925000458955764771
0.0357740670442581177 0.13691045343875885 0.0849584043025970459
-0.397093057632446289 -0.0572664178907871246 0.125892147421836853
-0.441051095724105835 -0.0378669872879981995 0.131328612565994263
0.523965537548065186 -0.317529082298278809 -0.0657754167914390564
0.422492384910583496 -0.279923617839813232 0.330981463193893433
0.509744763374328613 -0.344913959503173828 0.0568069331347942352
0.403903305530548096 -0.258800894021987915 0.323391139507293701
-0.479932129383087158 0.0183832328766584396 0.176721364259719849
0.235487565398216248 0.0686118230223655701 0.31429213285446167
-0.479083269834518433 -0.00802330207079648972 0.167367339134216309
0.239111602306365967 0.0676195919513702393 0.31469234824180603
0.388123184442520142 0.0259939208626747131 0.105647198855876923
0.219666913151741028 -0.31590580940246582 0.310263156890869141
0.382949411869049072 0.0429112948477268219 0.0686840042471885681
0.462660044431686401 0.0107144899666309357 0.174693778157234192
0.399527698755264282 -0.258591204881668091 0.326967090368270874
-0.499244630336761475 0.0214557293802499771 0.180944249033927917
-0.573128700256347656 0.266466856002807617 0.359963446855545044
-0.664189577102661133 0.23019331693649292 0.0218310188502073288
-0.149080127477645874 0.275591641664505005 0.0789727345108985901
0.522174060344696045 -0.335030108690261841 -0.322985261678695679
-0.220154672861099243 0.315904319286346436 0.0966797247529029846
0.499965101480484009 -0.346505224704742432 0.066700465977191925
-0.189523935317993164 0.302984088659286499 0.114689566195011139
0.31364750862121582 -0.130123510956764221 0.300477057695388794
0.225098371505737305 -0.0351681746542453766 0.304943174123764038
0.0575357601046562195 -0.330549865961074829 0.291333168745040894
0.435287743806838989 -0.279961973428726196 0.332489967346191406
0.409010529518127441 -0.285750895738601685 0.330666482448577881
0.385713517665863037 -0.26578482985496521 0.318547934293746948
0.397533416748046875 -0.384626060724258423 -0.226031124591827393
-0.162055179476737976 0.278611153364181519 0.128529950976371765
0.380587667226791382 0.0439330898225307465 0.0766278952360153198
0.390838742256164551 -0.255747556686401367 0.318551182746887207
-0.499964922666549683 0.0247371997684240341 0.185781866312026978
0.4997234046459198 -0.325907796621322632 -0.313612788915634155
0.380707472562789917 -0.375914394855499268 -0.216638371348381042
0.521240770816802979 -0.349252462387084961 -0.325384765863418579
0.520799875259399414 -0.348391562700271606 -0.322323620319366455
0.513418078422546387 -0.319638997316360474 -0.31895408034324646
0.255020946264266968 -0.222294121980667114 0.0572080723941326141
0.186056613922119141 -0.142190203070640564 -0.105909161269664764
0.507867038249969482 -0.320209383964538574 0.0288466177880764008
-0.469110339879989624 -0.0116201778873801231 0.18102969229221344
0.496313542127609253 -0.348944008350372314 -0.310278087854385376
0.521579980850219727 -0.327514410018920898 -0.322459429502487183
0.476115524768829346 -0.320224642753601074 -0.303560197353363037
-0.340871989727020264 0.230155438184738159 -0.0443907454609870911
0.201636642217636108 0.13287942111492157 0.111906170845031738
-0.172366440296173096 0.0224619209766387939 0.025477137416601181
0.265629440546035767 -0.165755361318588257 0.00571097293868660927
0.544789493083953857 -0.328299075365066528 -0.048261549323797226
-0.455959022045135498 -0.0528106316924095154 0.162145093083381653
0.469810813665390015 -0.356034934520721436 -0.307610571384429932
0.478552758693695068 -0.269786179065704346 -0.302054047584533691
0.46742364764213562 -0.361842423677444458 -0.308699369430541992
-0.319895148277282715 0.266931384801864624 0.0114215528592467308
0.0331616513431072235 0.0987261310219764709 0.128303989768028259
-0.284231036901473999 -0.0997826531529426575 -0.0874420702457427979
-0.616399765014648438 0.217285126447677612 -0.104831337928771973
0.244336813688278198 0.104571908712387085 -0.0301189515739679337
0.466350436210632324 -0.235093787312507629 -0.229010447859764099
-0.293486714363098145 -0.0882366448640823364 -0.0959940403699874878
0.2491426020860672 -0.275806039571762085 0.322355210781097412
0.221984058618545532 0.0669504851102828979 -0.0282617602497339249
-0.250538229942321777 -0.129918351769447327 -0.0555803477764129639
-0.211390361189842224 0.302231311798095703 0.148606255650520325
0.339792490005493164 -0.140575721859931946 0.318016797304153442
0.529748916625976562 -0.356552600860595703 0.0692801102995872498
-0.599509835243225098 0.356894254684448242 0.0603953935205936432
-0.345917850732803345 -0.0554556883871555328 -0.143714532256126404
-0.432400882244110107 0.157889217138290405 -0.0846920982003211975
0.526648461818695068 -0.331683129072189331 0.0199746191501617432
0.52823483943939209 -0.287939578294754028 -0.0705794543027877808
-0.498444288969039917 0.142987295985221863 -0.253928452730178833
0.146444961428642273 0.156864747405052185 0.0585063956677913666
0.253192156553268433 -0.00761618698015809059 0.327387779951095581
0.349937975406646729 -0.147163331508636475 0.320249438285827637
0.442371785640716553 -0.32244834303855896 -0.229800477623939514
-0.223778828978538513 -0.139733195304870605 -0.0538976266980171204
0.522565603256225586 -0.350188940763473511 0.0965531691908836365
-0.645697712898254395 0.253750026226043701 0.0238640047609806061
0.393208056688308716 -0.280051320791244507 0.322000086307525635
-0.474291980266571045 -0.00956723000854253769 0.16481231153011322
0.224432691931724548 -0.324906617403030396 0.318862944841384888
-0.363287359476089478 -0.120885185897350311 0.130330577492713928
-0.238218158483505249 -0.140356510877609253 -0.054024815559387207
-0.113777719438076019 -0.00892158690840005875 -0.0168069135397672653
0.389432996511459351 -0.278322219848632812 0.320331603288650513
-0.506606042385101318 0.0115599017590284348 0.201908469200134277
0.462726712226867676 -0.296827077865600586 -0.294765233993530273
0.351281791925430298 -0.14812159538269043 0.321105331182479858
0.45796811580657959 -0.303625226020812988 -0.22927306592464447
0.0246054474264383316 -0.143550217151641846 -0.0203433148562908173
0.368995726108551025 -0.327681958675384521 0.318496793508529663
0.391659080982208252 -0.281474947929382324 0.316592693328857422
0.128692209720611572 -0.318971455097198486 -0.09731263667345047
-0.134357169270515442 0.278673678636550903 0.117382451891899109
-0.332964062690734863 0.0948418080806732178 -0.102462828159332275
0.37414279580116272 -0.375775814056396484 -0.215189412236213684
0.520017385482788086 -0.345641285181045532 -0.323001831769943237
0.523585259914398193 -0.357904911041259766 -0.326859265565872192
-0.0681416168808937073 -0.254528909921646118 0.0988116636872291565
0.325728714466094971 -0.130815282464027405 0.314443230628967285
0.424331247806549072 -0.25972825288772583 0.327987968921661377
-0.479555130004882812 0.0322064943611621857 0.196656331419944763
0.526761889457702637 -0.299509644508361816 -0.322473376989364624
0.538198709487915039 -0.292362362146377563 -0.324888736009597778
0.377937853336334229 -0.374015361070632935 -0.21390165388584137
0.371443092823028564 -0.356952637434005737 -0.213905781507492065
0.524207115173339844 -0.351504474878311157 -0.325242161750793457
0.52551424503326416 -0.363280296325683594 -0.32332843542098999
0.515676259994506836 -0.327054977416992188 -0.320325225591659546
0.479617774486541748 -0.352195024490356445 -0.312454581260681152
0.47858428955078125 -0.365463286638259888 -0.313168883323669434
-0.361544162034988403 0.310707896947860718 0.239720895886421204
-0.320534765720367432 0.104432322084903717 0.022156301885843277
-0.447285324335098267 0.204619690775871277 -0.0403897464275360107
-0.377436041831970215 0.279706835746765137 -0.00733111193403601646
-0.0224187187850475311 -0.260462403297424316 0.143773689866065979
-0.59161674976348877 0.361765086650848389 0.0641930103302001953
0.367642641067504883 -0.373339861631393433 -0.212690159678459167
-0.123916156589984894 -0.0103690735995769501 0.00789024308323860168
0.396716296672821045 -0.353235185146331787 -0.218522593379020691
0.50738978385925293 -0.159493744373321533 0.124896019697189331
0.195386707782745361 0.124923244118690491 0.00615684408694505692
-0.0268714353442192078 0.167093947529792786 0.382916688919067383
-0.333779901266098022 -0.120730847120285034 0.100320428609848022
-0.324975728988647461 0.303247779607772827 -0.0367528945207595825
0.534189283847808838 -0.346714943647384644 0.0375617928802967072
0.525434911251068115 -0.331748753786087036 0.0342321507632732391
-0.595445632934570312 0.382403254508972168 0.113376639783382416
-0.0109735215082764626 -0.14395768940448761 -0.0269528795033693314
-0.235058993101119995 0.172377109527587891 -0.00171443016733974218
-0.485176533460617065 -0.0102548291906714439 0.177235618233680725
-0.27782970666885376 0.336421400308609009 0.042195051908493042
0.513516724109649658 -0.348975986242294312 0.0968169122934341431
-0.44829481840133667 -0.035398535430431366 0.117424674332141876
0.434412360191345215 -0.253180444240570068 0.331583350896835327
0.414898902177810669 -0.278277844190597534 0.327067166566848755
-0.46859896183013916 0.0348216220736503601 0.193591848015785217
0.502360999584197998 -0.339467018842697144 0.00769013306125998497
-0.481138825416564941 -0.00241629802621901035 0.177563726902008057
-0.377153068780899048 -0.106312863528728485 0.0929160937666893005
-0.500712752342224121 0.0225893687456846237 0.184343338012695312
0.3607330322265625 -0.286774039268493652 -0.142037704586982727
0.00168221211060881615 -0.23108421266078949 0.0900042876601219177
-0.14013516902923584 0.265387296676635742 0.0883561372756958008
-0.129453644156455994 0.254708588123321533 0.0713445022702217102
0.31268581748008728 -0.293117642402648926 -0.131373599171638489
0.428245425224304199 -0.255417883396148682 0.330085158348083496
-0.615075767040252686 0.306913375854492188 0.392244279384613037
0.410876631736755371 -0.357823103666305542 -0.22659716010093689
0.505268216133117676 -0.346365004777908325 -0.320097088813781738
0.507964789867401123 -0.35240095853805542 -0.322804421186447144
0.523744165897369385 -0.298370242118835449 -0.318894505500793457
0.509924948215484619 -0.346712291240692139 -0.320422589778900146
0.270080506801605225 -0.169237509369850159 -0.0797599852085113525
0.133751258254051208 0.120538324117660522 0.328998088836669922
0.2518729567527771 -0.28482896089553833 0.328097611665725708
0.324478745460510254 -0.120110370218753815 0.310475945472717285
0.302456706762313843 -0.204277783632278442 0.251029103994369507
0.250074088573455811 -0.00362782343290746212 0.324943810701370239
0.507368385791778564 -0.343013226985931396 0.0873530879616737366
0.241713434457778931 0.0900398865342140198 0.3098430335521698
0.463017314672470093 -0.283936649560928345 -0.231396600604057312
-0.261994004249572754 0.314303427934646606 0.0458208285272121429
0.344132572412490845 -0.139872908592224121 0.329277217388153076
0.373987376689910889 -0.363702863454818726 -0.208899393677711487
0.337675034999847412 -0.129141047596931458 0.320520281791687012
0.526667773723602295 -0.347055613994598389 -0.324245065450668335
0.524434089660644531 -0.351910918951034546 -0.326798349618911743
0.480224311351776123 -0.372173994779586792 -0.313258320093154907
-0.359728485345840454 -0.0646349713206291199 0.0829052552580833435
-0.407170742750167847 0.0890108644962310791 -0.113177686929702759
0.0141474092379212379 0.0983939170837402344 0.217092126607894897
-0.378213822841644287 -0.0928205251693725586 -0.02832808718085289
0.265490502119064331 0.068610072135925293 -0.0920613110065460205
-0.10810677707195282 -0.0148489531129598618 0.0459750480949878693
-0.357799321413040161 -0.0916549190878868103 0.0129319755360484123
-0.290156185626983643 0.305112928152084351 0.166590243577957153
-0.355252832174301147 -0.0732007250189781189 0.0406408160924911499
-0.598287522792816162 0.294876992702484131 0.186577737331390381
0.249406516551971436 0.0969692841172218323 -0.0345217175781726837
0.379271924495697021 -0.354757726192474365 -0.209574148058891296
0.469830513000488281 -0.324607282876968384 0.137792468070983887
0.464592903852462769 -0.271712720394134521 -0.0932176336646080017
-0.439337313175201416 -0.0427177511155605316 0.0842458531260490417
-0.336052417755126953 -0.124400608241558075 0.127629205584526062
0.528412103652954102 -0.341791361570358276 0.0507983453571796417
0.39271080493927002 0.0472375303506851196 0.133347764611244202
-0.18575751781463623 0.314388662576675415 0.107804380357265472
-0.441296786069869995 -0.0426128953695297241 0.117822632193565369
0.537467598915100098 -0.326062887907028198 -0.0558845102787017822
-0.352796435356140137 0.306715279817581177 0.114191815257072449
0.494220823049545288 -0.345977753400802612 0.0438867732882499695
-0.575249254703521729 0.305448979139328003 0.379380196332931519
0.43099406361579895 -0.280868172645568848 0.333549469709396362
-0.477327793836593628 0.00434999121353030205 0.164150908589363098
0.525066494941711426 -0.349746525287628174 -0.00279645645059645176
-0.0671853721141815186 -0.262555807828903198 0.298491299152374268
-0.511621832847595215 0.00490135280415415764 0.188089311122894287
0.390020579099655151 -0.360183179378509521 -0.215873092412948608
-0.118367522954940796 0.254680871963500977 0.0635676756501197815
-0.500136137008666992 0.00531996134668588638 0.193277537822723389
0.426475077867507935 -0.274372220039367676 0.330481022596359253
-0.333308041095733643 0.104486145079135895 -0.118543587625026703
-0.105740070343017578 0.254536181688308716 0.093580491840839386
0.510845065116882324 -0.34160614013671875 -0.319900959730148315
-0.6125374436378479 0.302877843379974365 0.396266371011734009
-0.508707344532012939 0.0368983000516891479 0.188607603311538696
-0.290822654962539673 -0.0888271480798721313 -0.0786534771323204041
0.50970005989074707 -0.344884991645812988 -0.321325868368148804
0.0718433111906051636 0.139551237225532532 0.0723940357565879822
0.245566532015800476 0.107357807457447052 0.321287155151367188
0.473297774791717529 -0.286700397729873657 -0.230927526950836182
0.305264055728912354 -0.314543545246124268 0.331645756959915161
0.511915087699890137 -0.349952489137649536 -0.322350561618804932
-0.31511002779006958 -0.0866577252745628357 -0.034300588071346283
0.514528036117553711 -0.355656743049621582 -0.323315948247909546
-0.624920427799224854 0.180687159299850464 -0.0861848741769790649
-0.353266149759292603 -0.0555541068315505981 -0.144013687968254089
-0.331005364656448364 0.269879430532455444 -0.055105842649936676
-0.177118614315986633 0.139238342642784119 0.00495127402245998383
0.545453011989593506 -0.217392906546592712 0.158943399786949158
0.0306212082505226135 0.10277838259935379 0.0652626529335975647
0.509971559047698975 -0.330821782350540161 -0.319702446460723877
0.586015939712524414 -0.325116842985153198 -0.320294708013534546
0.249741092324256897 -0.288142114877700806 0.318318486213684082
