ply
format ascii 1.0
element vertex 738
property float x
property float y
property float z
end_header
-0.228121325373649597 -0.137568116188049316 -0.05335201695561409
-0.20411190390586853 0.298712730407714844 0.126920163631439209
0.262787759304046631 -0.289255976676940918 0.323876887559890747
-0.362089067697525024 -0.0301531944423913956 0.119754262268543243
-0.499916553497314453 0.0197904296219348907 0.032112516462802887
0.243114694952964783 0.000504233408719301224 0.322488397359848022
0.141623511910438538 -0.290024250745773315 0.311928242444992065
0.308356404304504395 -0.20712493360042572 0.248383969068527222
-0.385925918817520142 0.255195349454879761 0.0345573164522647858
0.53131633996963501 -0.261856555938720703 0.103063866496086121
0.224330529570579529 0.0231451224535703659 0.305643588304519653
0.530843377113342285 -0.146956384181976318 -0.308109551668167114
-0.644674718379974365 0.231700092554092407 -0.0472192652523517609
0.541503429412841797 -0.310531437397003174 -0.0443274416029453278
0.50808793306350708 -0.267310500144958496 -0.311371505260467529
0.514573991298675537 -0.315664023160934448 -0.294966757297515869
0.459140658378601074 -0.290427416563034058 -0.296461433172225952
-0.542876183986663818 0.268496513366699219 -0.189115434885025024
-0.621248841285705566 0.289281725883483887 0.0669540390372276306
0.363797694444656372 -0.383781760931015015 -0.205989941954612732
-0.0923242270946502686 0.267612457275390625 0.189545035362243652
-0.448221921920776367 0.13170720636844635 -0.208603039383888245
-0.575239598751068115 0.204145118594169617 -0.126852691173553467
-0.629885494709014893 0.192064329981803894 -0.0396498814225196838
-0.469523310661315918 0.139352694153785706 -0.230903983116149902
0.257971644401550293 -0.0166101269423961639 -0.0719591081142425537
0.230815589427947998 0.0543215535581111908 -0.0450254157185554504
0.113308034837245941 0.110165640711784363 0.301824331283569336
-0.583882272243499756 0.218767598271369934 -0.221221372485160828
-0.598026931285858154 0.235584363341331482 -0.0105256214737892151
-0.366829365491867065 -0.0913120061159133911 0.123003281652927399
-0.329813212156295776 -0.124935023486614227 0.137447819113731384
-0.634415566921234131 0.199980571866035461 -0.0380645617842674255
-0.425508707761764526 -0.0544933155179023743 0.0994180291891098022
-0.477880984544754028 0.0205602105706930161 -0.036356508731842041
0.208921521902084351 0.00902060326188802719 0.301021307706832886
-0.633998394012451172 0.248438656330108643 -0.00574157806113362312
-0.127883940935134888 0.27027362585067749 0.132415637373924255
0.271353453397750854 -0.329836398363113403 0.180261090397834778
0.533264815807342529 -0.209662839770317078 -0.0987534746527671814
-0.126208677887916565 -0.112180590629577637 -0.0546768642961978912
0.45445549488067627 -0.338399589061737061 -0.297980546951293945
-0.212386623024940491 0.0366890951991081238 -0.0595519617199897766
-0.55302131175994873 0.176163256168365479 0.0130222346633672714
-0.198334813117980957 0.140072792768478394 0.0212807431817054749
-0.0122654186561703682 -0.102040871977806091 -0.0428330451250076294
0.265023499727249146 -0.274447321891784668 0.202614933252334595
0.348973482847213745 -0.320616483688354492 7.73850551922805607e-05
-0.155731245875358582 0.0702506527304649353 0.0276697985827922821
-0.249008998274803162 0.131238296627998352 -0.034305427223443985
0.199426651000976562 0.00215200474485754967 0.019202839583158493
0.0766255930066108704 0.081347733736038208 0.0240777526050806046
-0.283257603645324707 0.288690507411956787 -0.00579373445361852646
0.477210462093353271 -0.289315551519393921 -0.301622360944747925
-0.556697964668273926 0.266133755445480347 -0.0170219708234071732
-0.237191587686538696 0.0980901047587394714 -0.0323221348226070404
0.138145729899406433 -0.280386447906494141 0.150210008025169373
0.296668767929077148 -0.296901732683181763 0.0570430904626846313
-0.285862565040588379 0.257674604654312134 0.00069969898322597146
-0.0208046436309814453 -0.0398777797818183899 0.089127562940120697
0.204781442880630493 0.0432434901595115662 0.0658375844359397888
-0.143503338098526001 -0.0847122669219970703 0.0918450355529785156
0.372772425413131714 -0.0728738680481910706 0.0316831022500991821
0.521570444107055664 -0.198599293828010559 -0.0984447747468948364
0.487351328134536743 -0.297319412231445312 -0.305276870727539062
0.480654299259185791 -0.314344048500061035 0.122419342398643494
0.513828456401824951 -0.306698858737945557 -0.102336972951889038
0.496272504329681396 -0.30895349383354187 -0.30964323878288269
0.506384432315826416 -0.32733580470085144 -0.00404590601101517677
0.511943936347961426 -0.324048906564712524 0.118448652327060699
0.466142594814300537 -0.288214415311813354 -0.296478062868118286
0.438244283199310303 -0.262918263673782349 -0.19421665370464325
0.13529302179813385 0.117388814687728882 0.33720514178276062
0.39675632119178772 -0.243840336799621582 0.318919837474822998
-0.601481199264526367 0.354665994644165039 0.0658241808414459229
-0.505094230175018311 0.357551872730255127 0.178575068712234497
0.542818725109100342 -0.282023608684539795 0.0980037227272987366
0.256679058074951172 0.0374312885105609894 -0.0719604194164276123
-0.23302382230758667 0.156432166695594788 -0.00515578780323266983
0.506375312805175781 -0.331503421068191528 -0.00246843136847019196
0.445049315690994263 -0.249501615762710571 -0.227935776114463806
-0.639016389846801758 0.254916995763778687 0.0548387020826339722
0.532795190811157227 -0.262191832065582275 0.0933217555284500122
-0.393046051263809204 -0.0588201098144054413 0.10059540718793869
0.524121105670928955 -0.289163976907730103 -0.0920331254601478577
0.0282597821205854416 -0.27367788553237915 -0.0352221578359603882
0.385392814874649048 -0.305550485849380493 0.11891869455575943
-0.582176864147186279 0.367202579975128174 0.132012695074081421
0.240435272455215454 0.00345163792371749878 0.181261792778968811
-0.112942606210708618 0.165952697396278381 0.34769788384437561
0.482414543628692627 -0.367870181798934937 -0.0219906903803348541
0.412500619888305664 -0.320653736591339111 -0.210956230759620667
0.507449209690093994 -0.155000686645507812 0.124108985066413879
0.529017031192779541 -0.334233462810516357 0.0128873102366924286
-0.584102928638458252 0.336815983057022095 0.0343924462795257568
-0.590752005577087402 0.3822975754737854 0.131573870778083801
0.52653425931930542 -0.24385148286819458 -0.310563921928405762
0.474680632352828979 -0.290236085653305054 -0.299374908208847046
-0.597226083278656006 0.354083716869354248 0.169975623488426208
-0.587336301803588867 0.37183871865272522 0.101421721279621124
-0.211932972073554993 -0.129079133272171021 -0.057578645646572113
0.234567821025848389 -0.292542576789855957 0.31515231728553772
0.238215506076812744 0.0676357001066207886 0.32023698091506958
0.542060792446136475 -0.313370287418365479 -0.0580494329333305359
-0.444658100605010986 -0.0479541346430778503 0.127264499664306641
0.359836727380752563 -0.387859344482421875 -0.208934202790260315
-0.556518852710723877 0.211607515811920166 -0.113427720963954926
0.52103656530380249 -0.279064953327178955 -0.17704850435256958
0.242082759737968445 0.0352834947407245636 0.31471407413482666
0.242985203862190247 0.0010012962156906724 0.0237775836139917374
0.380864560604095459 0.0394432134926319122 0.0120183024555444717
0.52700430154800415 -0.230148419737815857 -0.310070037841796875
0.327176541090011597 0.0967953279614448547 -0.0357895530760288239
-0.374148130416870117 -0.0597892925143241882 -0.132766589522361755
0.5130729079246521 -0.167002961039543152 0.136002674698829651
-0.574480593204498291 0.322421342134475708 0.0497589223086833954
-0.559042215347290039 0.283826678991317749 0.3644065260887146
0.224658593535423279 0.0325295813381671906 -0.0580818727612495422
-0.574268817901611328 0.215085610747337341 -0.220859840512275696
-0.0441973619163036346 0.157113596796989441 0.0813505500555038452
0.114255927503108978 0.110626779496669769 0.0255787130445241928
0.342994779348373413 -0.246463373303413391 -0.0968007519841194153
-0.285045862197875977 0.300886422395706177 -0.00267259287647902966
0.15352022647857666 -0.00381467072293162346 -0.00345539441332221031
0.0691924244165420532 0.139399513602256775 0.0757997483015060425
-0.270037204027175903 0.280645668506622314 0.00184759870171546936
0.503581821918487549 -0.292113363742828369 -0.159287750720977783
0.137185871601104736 -0.0252463463693857193 0.0132313240319490433
-0.338979721069335938 -0.0315223932266235352 0.0229418482631444931
0.373586088418960571 -0.09127073734998703 0.0443959012627601624
0.200121879577636719 0.101840376853942871 -0.0016961472574621439
-0.2972145676612854 -0.0245511699467897415 0.0360730104148387909
0.131993278861045837 -0.0172384902834892273 -0.0259786695241928101
0.101588830351829529 0.0166192688047885895 0.0913497135043144226
0.175839692354202271 0.119947127997875214 0.0381634905934333801
-0.230438709259033203 -0.0631831362843513489 0.104793034493923187
0.48633536696434021 -0.296181917190551758 -0.303505688905715942
-0.603203356266021729 0.289911568164825439 0.185424447059631348
0.467379659414291382 -0.308220803737640381 0.120177380740642548
0.378451377153396606 -0.0138702914118766785 0.0064998590387403965
0.514575362205505371 -0.294831842184066772 -0.10342901200056076
0.519076704978942871 -0.239239335060119629 -0.307570785284042358
0.478174656629562378 -0.30924910306930542 -0.300259828567504883
0.483637213706970215 -0.274029999971389771 -0.299888283014297485
0.11735137552022934 0.119290053844451904 0.297769635915756226
-0.584183871746063232 0.356730729341506958 0.0660407766699790955
0.383946359157562256 -0.336843788623809814 0.125611528754234314
-0.574442386627197266 0.318091988563537598 -0.0263504683971405029
-0.604410827159881592 0.217563256621360779 -0.0867086127400398254
0.267951518297195435 0.0398308336734771729 -0.0861565843224525452
-0.356325596570968628 -0.0216984916478395462 -0.131058365106582642
-0.564254641532897949 0.31472325325012207 -0.00770660676062107086
0.19091874361038208 -0.340338587760925293 -0.0747082158923149109
0.404438048601150513 -0.357144415378570557 -0.224009484052658081
-0.500255048274993896 0.14600856602191925 0.354858547449111938
0.509750664234161377 -0.150961175560951233 0.115079820156097412
0.497094899415969849 -0.263440817594528198 -0.304367810487747192
0.458227604627609253 -0.280388325452804565 -0.289725899696350098
0.441193580627441406 -0.264468967914581299 -0.283678114414215088
-0.587999820709228516 0.357834845781326294 0.0619543083012104034
0.505352795124053955 -0.126276254653930664 0.124503254890441895
-0.206211194396018982 0.312871754169464111 0.108903698623180389
0.26837584376335144 -0.283568054437637329 0.319334745407104492
0.232713744044303894 0.00404389621689915657 0.318012744188308716
0.513477861881256104 -0.175175100564956665 -0.281729429960250854
-0.115091100335121155 0.0103949056938290596 0.00600984785705804825
0.404170364141464233 -0.359173327684402466 -0.224632874131202698
0.417812436819076538 -0.312774419784545898 0.143868640065193176
-0.555499076843261719 0.376845985651016235 0.187041059136390686
-0.175629556179046631 0.309548169374465942 0.118584722280502319
-0.389682769775390625 0.276444852352142334 -0.0849269106984138489
0.365425318479537964 0.0523782931268215179 0.0247263889759778976
0.129321172833442688 0.116182111203670502 0.319000661373138428
-0.286398857831954956 -0.100127756595611572 -0.0920061767101287842
0.258311331272125244 0.101457476615905762 -0.0619205310940742493
-0.361156880855560303 -0.0593449845910072327 -0.144032776355743408
0.134272292256355286 0.114140450954437256 0.337948620319366455
-0.563035011291503906 0.199746012687683105 -0.228842988610267639
-0.276369869709014893 0.28841710090637207 -0.000789763231296092272
0.455142438411712646 -0.245959147810935974 -0.288265526294708252
0.460489958524703979 -0.274919599294662476 -0.290792793035507202
-0.634855031967163086 0.308535158634185791 0.170637235045433044
0.512694001197814941 -0.316999554634094238 -0.0385190807282924652
0.469192445278167725 -0.265318959951400757 -0.297920286655426025
0.478407561779022217 -0.294539093971252441 -0.300199329853057861
0.458398640155792236 -0.245742887258529663 -0.289837181568145752
0.381410956382751465 -0.36050841212272644 -0.213822230696678162
-0.479385823011398315 -0.0121257463470101357 0.186038076877593994
-0.51646578311920166 0.366123348474502563 0.174280345439910889
-0.618493616580963135 0.202456280589103699 -0.0869672670960426331
-0.237183317542076111 0.0192847400903701782 -0.0724533572793006897
-0.382499009370803833 -0.0585883818566799164 0.0238334499299526215
0.475089877843856812 -0.367863714694976807 0.0218850970268249512
-0.649231433868408203 0.237163707613945007 0.0324623286724090576
0.412859082221984863 -0.346242338418960571 -0.22160649299621582
0.526255905628204346 -0.336674600839614868 0.0801452025771141052
0.506276130676269531 -0.238538220524787903 -0.308031439781188965
0.24973316490650177 -0.281752943992614746 0.318391799926757812
0.239370837807655334 0.0670669898390769958 0.314781218767166138
0.53978121280670166 -0.301364868879318237 -0.0936106219887733459
-0.447813987731933594 -0.0409572497010231018 0.126698508858680725
-0.0437375903129577637 0.104946158826351166 0.317956626415252686
0.248139545321464539 0.0215280260890722275 0.322343617677688599
-0.284721553325653076 -0.0992591306567192078 -0.09902200847864151
-0.137605950236320496 -0.0146114155650138855 -0.0487138964235782623
-0.277831047773361206 0.338251262903213501 0.0471426136791706085
-0.254657059907913208 0.290317744016647339 -0.00310642109252512455
-0.218866601586341858 0.322288960218429565 0.0699959173798561096
-0.573198616504669189 0.152695000171661377 -0.0742986202239990234
-0.289900153875350952 0.293113768100738525 0.0161725934594869614
0.525830686092376709 -0.320185810327529907 0.0272508915513753891
0.346330404281616211 -0.0299665573984384537 -0.0343756005167961121
0.522445917129516602 -0.362439066171646118 0.0894815996289253235
-0.0831415727734565735 -0.1113467738032341 0.0785794705152511597
-0.403945952653884888 0.326419144868850708 0.12140665203332901
0.504980504512786865 -0.366597741842269897 -0.00441460823640227318
-0.118660658597946167 0.266530454158782959 0.121102280914783478
0.518931329250335693 -0.342480182647705078 0.0359222851693630219
0.130476713180541992 -0.334197074174880981 0.301393955945968628
0.46683502197265625 -0.310566037893295288 0.0725489035248756409
0.483085155487060547 -0.373525917530059814 0.0524114258587360382
0.421274542808532715 -0.0255183093249797821 0.0649701431393623352
0.494379103183746338 -0.363055795431137085 -0.0154639417305588722
-0.232918381690979004 0.287565529346466064 0.0842825993895530701
0.531431138515472412 -0.331285387277603149 -0.00715509429574012756
-0.27191692590713501 0.315791904926300049 0.114119954407215118
0.308453768491744995 0.00311778136529028416 0.0464135259389877319
0.467674314975738525 -0.262927353382110596 -0.295991629362106323
0.474021732807159424 -0.303841143846511841 0.114328309893608093
0.511401891708374023 -0.313162654638290405 -0.104325771331787109
0.509424388408660889 -0.244887098670005798 -0.308350473642349243
0.448212385177612305 -0.292021811008453369 -0.292681217193603516
0.466644018888473511 -0.282784461975097656 -0.297201573848724365
0.138505369424819946 0.113259322941303253 0.336888611316680908
-0.652086853981018066 0.286120086908340454 0.0982926711440086365
-0.638250827789306641 0.245246201753616333 -0.0379745736718177795
0.136496976017951965 0.0697495788335800171 0.338009893894195557
-0.577036142349243164 0.304221004247665405 -0.0553535148501396179
0.26272919774055481 0.031008642166852951 -0.0733655393123626709
0.542124032974243164 -0.216239884495735168 0.111651629209518433
-0.359955072402954102 -0.0353372134268283844 -0.134237095713615417
-0.574682474136352539 0.327894151210784912 -0.0293582454323768616
-0.361666589975357056 -0.0705144032835960388 -0.0338902696967124939
-0.130407929420471191 -0.267163515090942383 0.119173750281333923
0.495347857475280762 -0.365350484848022461 -0.000299330422421917319
0.374102383852005005 -0.358906298875808716 -0.209988445043563843
-0.378295987844467163 -0.106504485011100769 0.101426295936107635
-0.0669408738613128662 -0.263595163822174072 0.29661896824836731
0.520101189613342285 -0.242842346429824829 -0.309369981288909912
0.509666144847869873 -0.330087780952453613 0.0153446486219763756
-0.593321681022644043 0.369374930858612061 0.120832845568656921
-0.655297636985778809 0.176102489233016968 -0.102796636521816254
-0.222877770662307739 -0.143716752529144287 -0.0536585524678230286
-0.191205158829689026 0.317054837942123413 0.100858762860298157
0.256835818290710449 -0.283042967319488525 0.319825738668441772
0.239347800612449646 0.0327131785452365875 0.319250941276550293
-0.119960315525531769 -0.045634392648935318 0.00739586073905229568
-0.641524374485015869 0.309052199125289917 0.102130934596061707
0.364992529153823853 -0.373451590538024902 -0.206904157996177673
0.5379067063331604 -0.217258930206298828 0.161942526698112488
-0.552714645862579346 0.382848978042602539 0.158214002847671509
-0.122441574931144714 0.259749680757522583 0.115233458578586578
0.119623482227325439 0.102972887456417084 0.089551970362663269
-0.375351130962371826 0.26629289984703064 -0.0894687771797180176
0.517076611518859863 -0.348586976528167725 0.0988493785262107849
-0.293390989303588867 -0.10672730952501297 -0.109244257211685181
0.275222659111022949 0.103512793779373169 -0.0575597770512104034
-0.575005173683166504 0.219992458820343018 -0.212453156709671021
-0.115489646792411804 0.269023150205612183 0.179922506213188171
0.236191928386688232 -0.287526607513427734 0.314512014389038086
0.310346931219100952 -0.186855286359786987 0.241144672036170959
0.541960299015045166 -0.325371444225311279 -0.0208534430712461472
0.0791574642062187195 -0.337295740842819214 0.282341063022613525
-0.00621045287698507309 -0.171395674347877502 0.00432180240750312805
-0.282186657190322876 0.262177884578704834 0.00713872537016868591
0.513355612754821777 -0.236611068248748779 -0.309365719556808472
-0.646883547306060791 0.278681963682174683 0.0798031017184257507
-0.646232187747955322 0.183614626526832581 -0.0906468182802200317
0.514297783374786377 -0.322047412395477295 0.0243562515825033188
-0.406863272190093994 -0.0632191374897956848 0.113644815981388092
0.517032027244567871 -0.35523831844329834 -0.0205577071756124496
-0.566528022289276123 0.374725073575973511 0.152725294232368469
0.23610176146030426 0.0435256585478782654 0.313798308372497559
-0.664751231670379639 0.227561980485916138 0.0233470797538757324
-0.448022603988647461 -0.0380591191351413727 0.127207815647125244
0.503226399421691895 -0.301794499158859253 -0.178816571831703186
-0.589062869548797607 0.361439883708953857 0.0863299667835235596
-0.19404718279838562 0.315328747034072876 0.10497642308473587
0.247122779488563538 0.0244311783462762833 0.323937773704528809
0.531118214130401611 -0.323333293199539185 -0.0580189302563667297
-0.182798296213150024 0.307432204484939575 0.128591373562812805
0.247372269630432129 0.00750679103657603264 0.32406914234161377
0.0587880425155162811 0.14013265073299408 0.345843762159347534
-0.505680084228515625 0.149808645248413086 0.357062190771102905
0.270894229412078857 -0.310792475938796997 0.326369941234588623
-0.253618866205215454 0.0240202303975820541 -0.0706659480929374695
0.241240411996841431 -0.294839948415756226 0.322615623474121094
0.249152958393096924 0.0443125404417514801 0.314526736736297607
0.468553870916366577 -0.101438641548156738 0.0346883796155452728
-0.124683663249015808 0.195575177669525146 0.115493811666965485
0.24013616144657135 -0.326165348291397095 0.318066328763961792
0.500441193580627441 -0.366128742694854736 0.0747216716408729553
0.523625314235687256 -0.324253171682357788 0.0262743905186653137
0.444766491651535034 -0.252789080142974854 0.332464993000030518
0.321746557950973511 -0.130938112735748291 -0.106609642505645752
0.0635248646140098572 -0.0102730188518762589 0.32179635763168335
0.511494696140289307 -0.360430508852005005 0.047579646110534668
0.135911539196968079 -0.100201383233070374 0.0405899547040462494
0.0497432537376880646 0.012049197219312191 0.0297839716076850891
0.0209829043596982956 0.048735693097114563 0.0426519997417926788
0.0883054435253143311 -0.0655924752354621887 0.289729893207550049
-0.16196131706237793 -0.265257388353347778 0.148071810603141785
0.265178501605987549 -0.0196512173861265182 0.0616179555654525757
-0.0287703666836023331 -0.0285564064979553223 0.295656472444534302
0.50242847204208374 -0.239854082465171814 -0.301950931549072266
0.47621387243270874 -0.314482718706130981 -0.301894009113311768
-0.630834758281707764 0.306685835123062134 0.167619839310646057
0.47566571831703186 -0.320360541343688965 0.121094025671482086
0.509311199188232422 -0.300387144088745117 -0.105488158762454987
0.528472006320953369 -0.274440914392471313 -0.317128598690032959
0.493824809789657593 -0.331956565380096436 -0.310644298791885376
0.503704488277435303 -0.31968274712562561 0.0980839654803276062
0.474459320306777954 -0.305313766002655029 -0.298048198223114014
-0.559276938438415527 0.268479913473129272 0.364729017019271851
0.1251850426197052 0.117313981056213379 0.31430131196975708
-0.633467793464660645 0.282652854919433594 0.0545227713882923126
-0.587253570556640625 0.36319240927696228 0.102671355009078979
0.371830761432647705 -0.373603761196136475 -0.21268048882484436
0.438673168420791626 -0.347540795803070068 0.154428765177726746
0.0582817718386650085 0.121764913201332092 0.321217864751815796
-0.574484944343566895 0.369197458028793335 0.215788573026657104
0.264985173940658569 0.0251161456108093262 -0.0585684217512607574
0.369033604860305786 -0.336360275745391846 0.160716474056243896
0.510755002498626709 -0.301106929779052734 -0.111936770379543304
0.133954480290412903 -0.320191681385040283 -0.0977333560585975647
0.516809165477752686 -0.348362743854522705 -0.0202144328504800797
0.389612853527069092 -0.346329569816589355 -0.214037090539932251
-0.576903045177459717 0.319484978914260864 0.0410142876207828522
0.536286890506744385 -0.277413874864578247 -0.320532113313674927
0.468173563480377197 -0.310450613498687744 -0.299183815717697144
0.507425248622894287 -0.346700668334960938 0.0180084966123104095
-0.555805504322052002 0.310125380754470825 0.10248284786939621
0.194225147366523743 -0.338957428932189941 -0.0591155029833316803
0.0704323127865791321 -0.281829744577407837 -0.0778543129563331604
0.252705305814743042 -0.249893903732299805 0.320289641618728638
0.240142583847045898 0.0313560403883457184 0.317028641700744629
-0.120821632444858551 -0.0474334657192230225 0.00825002323836088181
0.17906622588634491 -0.099753841757774353 -0.0147277098149061203
0.532693684101104736 -0.331892102956771851 -0.0130943115800619125
0.370690733194351196 -0.349055349826812744 -0.20881788432598114
0.535165309906005859 -0.24542514979839325 0.177357450127601624
0.56141507625579834 -0.315379202365875244 -0.330862730741500854
0.554733633995056152 -0.21130649745464325 0.134005531668663025
-0.5431784987449646 0.381149500608444214 0.16474953293800354
0.123110495507717133 0.117624484002590179 0.133229881525039673
-0.582133829593658447 0.352316200733184814 0.0980577915906906128
-0.481435447931289673 0.18637731671333313 -0.0913852229714393616
0.515872061252593994 -0.338776528835296631 0.0389156080782413483
0.253716111183166504 -0.278818249702453613 0.322110563516616821
0.278870850801467896 -0.355566412210464478 -0.125997722148895264
0.508205294609069824 -0.286219149827957153 -0.313602358102798462
-0.43200373649597168 -0.0568985752761363983 0.116878785192966461
0.202211946249008179 0.0909119695425033569 0.223480582237243652
0.244566142559051514 0.105007924139499664 -0.0571289360523223877
-0.195594429969787598 0.201911851763725281 0.349434554576873779
0.250704318284988403 0.0253189112991094589 0.323462039232254028
0.24006478488445282 0.0194104183465242386 0.321153432130813599
-0.0312653258442878723 0.163092330098152161 0.382785260677337646
-0.482381045818328857 -0.0153395878151059151 0.180392533540725708
0.484083890914916992 -0.368693619966506958 0.0461648665368556976
-0.643406510353088379 0.287493586540222168 0.0865210741758346558
0.276289910078048706 -0.165423274040222168 -0.0704126432538032532
-0.411659896373748779 -0.0565653964877128601 0.0790812671184539795
-0.642889738082885742 0.176080599427223206 -0.0817342251539230347
-0.225719168782234192 -0.133611202239990234 -0.0521169267594814301
0.255217701196670532 -0.265228271484375 0.321272104978561401
-0.345146238803863525 0.0176554620265960693 -0.11678893119096756
-0.286911338567733765 -0.0912381038069725037 -0.106416381895542145
-0.584903359413146973 0.210204526782035828 -0.217756301164627075
0.267877668142318726 -0.296688675880432129 0.315348803997039795
-0.0253065228462219238 -0.186943799257278442 -0.0433811843395233154
-0.617945253849029541 0.277296245098114014 0.0316894389688968658
-0.608731567859649658 0.298606544733047485 0.0927745923399925232
-0.39740598201751709 -0.0625715181231498718 0.1190628781914711
-0.451558351516723633 -0.037887871265411377 0.11969207227230072
0.431352168321609497 -0.271420896053314209 0.329341888427734375
-0.052238069474697113 0.141181543469429016 0.0918445959687232971
-0.502946078777313232 0.151432976126670837 0.35567668080329895
0.241095751523971558 -0.318988621234893799 0.322965085506439209
0.49745708703994751 -0.370517224073410034 0.0574831403791904449
0.399556368589401245 -0.256540477275848389 0.322622448205947876
-0.158116698265075684 -0.263243705034255981 0.181714773178100586
-0.499049931764602661 0.0143131790682673454 0.158324852585792542
0.417840719223022461 -0.297052949666976929 0.328892409801483154
0.535619676113128662 -0.339883506298065186 -0.0183245353400707245
0.344659894704818726 -0.267068207263946533 -0.127756744623184204
-0.496366590261459351 0.0722712576389312744 0.204227760434150696
0.443889915943145752 -0.271865338087081909 0.333567798137664795
0.522349894046783447 -0.335091233253479004 0.0329173505306243896
0.453742712736129761 -0.319585442543029785 -0.292925328016281128
0.47454458475112915 -0.311371088027954102 0.116832137107849121
0.517580211162567139 -0.278109252452850342 -0.312713652849197388
0.503031134605407715 -0.325642555952072144 -0.314209967851638794
0.518424332141876221 -0.326811760663986206 0.102046296000480652
0.479689449071884155 -0.31111830472946167 -0.302064508199691772
0.114783979952335358 0.118921883404254913 0.289157986640930176
-0.121799737215042114 0.268966853618621826 0.158937886357307434
-0.614699304103851318 0.265770584344863892 0.0523926243185997009
-0.47926667332649231 0.00333106541074812412 0.181567564606666565
0.427013754844665527 -0.354734480381011963 0.158711612224578857
-0.292087703943252563 -0.110311426222324371 -0.105669133365154266
0.130747318267822266 0.0658300518989562988 0.321373045444488525
0.254053086042404175 0.0390396490693092346 -0.0776812806725502014
0.235794216394424438 0.094231724739074707 -0.052954159677028656
0.418057143688201904 -0.26123964786529541 -0.202245160937309265
0.522019922733306885 -0.354363143444061279 -0.0193403922021389008
-0.608783066272735596 0.381371527910232544 0.181562989950180054
0.517931699752807617 -0.279010117053985596 -0.314635962247848511
0.499450266361236572 -0.349710285663604736 0.0242017842829227448
-0.587739408016204834 0.369563370943069458 0.113356813788414001
0.506239712238311768 -0.104396998882293701 0.147408992052078247
-0.197907865047454834 0.311862945556640625 0.113094724714756012
0.264324963092803955 -0.286274731159210205 0.319938361644744873
0.237169951200485229 0.0624645538628101349 0.310691177845001221
-0.14427030086517334 -0.0431774631142616272 0.00431507686153054237
-0.657646298408508301 0.214977160096168518 -0.0458862781524658203
-0.288386017084121704 -0.0756910592317581177 -0.0685010701417922974
0.22756640613079071 0.042511962354183197 -0.0480341650545597076
0.551801741123199463 -0.144174128770828247 0.132153302431106567
0.520067453384399414 -0.295074224472045898 0.075014941394329071
0.517928063869476318 -0.283770263195037842 -0.181079775094985962
-0.357890218496322632 -0.0168246105313301086 -0.0278012771159410477
0.0917436257004737854 0.0885536521673202515 0.0859056636691093445
0.466992080211639404 -0.361603647470474243 -0.0105494186282157898
-0.432774960994720459 0.158035486936569214 -0.0663017407059669495
0.524106860160827637 -0.33536192774772644 0.0690204501152038574
0.263185054063796997 -0.28564375638961792 0.31866145133972168
0.00964657962322235107 -0.0906686559319496155 -0.0260050036013126373
0.0328323766589164734 -0.130077958106994629 0.021975293755531311
-0.630607068538665771 0.265283942222595215 0.0293554868549108505
0.242369934916496277 0.0746328309178352356 0.318960249423980713
0.240450337529182434 0.0298806559294462204 0.319041967391967773
-0.174699887633323669 0.301148056983947754 0.116470210254192352
0.304893553256988525 -0.150994241237640381 0.307952672243118286
0.262219548225402832 -0.290445685386657715 0.32114720344543457
-0.476088166236877441 -0.00793692469596862793 0.166443631052970886
0.243003964424133301 0.082071259617805481 0.312318623065948486
0.520530641078948975 -0.35101693868637085 0.0820569917559623718
-0.0346605628728866577 -0.237324416637420654 0.124207809567451477
-0.638223588466644287 0.290273338556289673 0.099145844578742981
-0.23403523862361908 -0.132585108280181885 -0.0579023994505405426
-0.379144042730331421 -0.108585499227046967 0.105695851147174835
-0.236244365572929382 -0.147609516978263855 -0.0577499270439147949
-0.657860875129699707 0.214670583605766296 -0.0335891544818878174
0.529168307781219482 -0.35235142707824707 0.0779984593391418457
-0.621056675910949707 0.270545214414596558 0.0527921244502067566
-0.40402558445930481 -0.0641153678297996521 0.112237952649593353
-0.446217566728591919 -0.0412755087018013 0.122194558382034302
0.268286585807800293 -0.285335689783096313 0.323622554540634155
0.127892941236495972 -0.326353251934051514 0.312728434801101685
0.152554228901863098 -0.342843919992446899 0.318003088235855103
0.448076725006103516 -0.335346579551696777 -0.292897850275039673
0.516056299209594727 -0.302686393260955811 -0.107857070863246918
0.515553534030914307 -0.279980748891830444 -0.312732070684432983
0.485203295946121216 -0.327405273914337158 -0.309692829847335815
0.464689582586288452 -0.345612823963165283 -0.302568107843399048
0.549894928932189941 -0.209946021437644958 -0.315881937742233276
0.524420857429504395 -0.29977300763130188 -0.322381645441055298
0.518287837505340576 -0.300582349300384521 -0.318278282880783081
0.247093811631202698 0.0573538988828659058 0.316553413867950439
0.241571217775344849 0.0878242701292037964 0.31288611888885498
-0.291537821292877197 -0.100318185985088348 -0.101806975901126862
-0.453474521636962891 -0.0517583005130290985 0.117290467023849487
0.405026555061340332 -0.27196270227432251 0.322666168212890625
-0.502314567565917969 0.00400719279423356056 0.189370259642601013
0.401320815086364746 -0.286943376064300537 0.324982672929763794
0.399468421936035156 -0.27325853705406189 0.323462516069412231
0.342538684606552124 -0.25866350531578064 0.0902249589562416077
-0.0185570456087589264 -0.244117483496665955 0.12878042459487915
-0.464415550231933594 0.0362234674394130707 0.189775258302688599
-0.194303244352340698 0.221890911459922791 0.172207728028297424
0.367169827222824097 -0.328975796699523926 -0.0234096013009548187
0.323770016431808472 -0.389813095331192017 -0.158786699175834656
0.535710394382476807 -0.323341935873031616 -0.0581203959882259369
-0.441664069890975952 -0.0044942786917090416 0.152908891439437866
-0.0189148988574743271 -0.0592059195041656494 0.141859114170074463
6.37727316643577069e-06 -0.235847786068916321 0.10649590939283371
0.526475906372070312 -0.201492786407470703 -0.0799326598644256592
0.450128912925720215 -0.308027058839797974 -0.292783617973327637
0.527144312858581543 -0.275143086910247803 -0.315583616495132446
0.500226974487304688 -0.324591517448425293 -0.312579989433288574
0.475538462400436401 -0.30474323034286499 -0.297300934791564941
-0.127357318997383118 0.246937930583953857 0.139119058847427368
-0.648928344249725342 0.2822989821434021 0.0945442542433738708
-0.198897957801818848 0.286941736936569214 0.336064577102661133
0.498222529888153076 -0.0864059701561927795 0.136778488755226135
0.201091349124908447 -0.358878165483474731 -0.0907410755753517151
0.505701065063476562 -0.36738431453704834 -0.0225977636873722076
0.527485966682434082 -0.242369309067726135 0.17306181788444519
-0.585901200771331787 0.379590421915054321 0.170946300029754639
0.445348143577575684 -0.314620852470397949 -0.287658572196960449
0.498804986476898193 -0.110769703984260559 0.112287536263465881
-0.655676066875457764 0.175786539912223816 -0.103493787348270416
-0.201877608895301819 0.309062778949737549 0.0893082171678543091
0.201548784971237183 -0.0132756950333714485 0.29540601372718811
0.160329520702362061 -0.0618233159184455872 -0.04395289346575737
-0.579507708549499512 0.302521347999572754 0.368949711322784424
0.275316417217254639 0.0987468957901000977 -0.0289861336350440979
-0.43514135479927063 0.155739843845367432 -0.085826091468334198
0.53471529483795166 -0.332749336957931519 0.0128495404496788979
-0.568614959716796875 0.19766099750995636 -0.228850632905960083
-0.497509479522705078 0.0453146845102310181 -0.0866328403353691101
0.0316888391971588135 -0.103677660226821899 0.0331325680017471313
0.534393310546875 -0.264182776212692261 -0.316228866577148438
0.00995815731585025787 0.198024705052375793 0.0277292728424072266
0.302448183298110962 0.0392533391714096069 -0.0843519493937492371
-0.331979870796203613 -0.0156625006347894669 -0.10755610466003418
0.236726775765419006 0.0147671597078442574 0.321958422660827637
0.125298246741294861 0.013318406417965889 0.299098968505859375
0.527789533138275146 -0.354869067668914795 0.0664450749754905701
0.467415690422058105 -0.309521406888961792 -0.233029216527938843
-0.651909768581390381 0.285638004541397095 0.104653492569923401
0.546817660331726074 -0.219646409153938293 0.16361863911151886
0.528319180011749268 -0.323071479797363281 -0.0159394629299640656
-0.382833510637283325 -0.0561003498733043671 0.0764054730534553528
0.45724797248840332 -0.310509592294692993 -0.292481034994125366
0.505305349826812744 -0.339517354965209961 -0.317815393209457397
0.479158401489257812 -0.313994437456130981 -0.299423635005950928
0.520694434642791748 -0.300987899303436279 -0.317242801189422607
-0.00197978131473064423 -0.13965800404548645 -0.0246862899512052536
0.397802799940109253 -0.272816598415374756 0.323637813329696655
0.401472300291061401 -0.271243363618850708 0.323942273855209351
0.506371557712554932 -0.331667840480804443 0.10597509890794754
-0.467408686876296997 0.0427621454000473022 0.170889541506767273
0.410349875688552856 -0.345553040504455566 0.156733542680740356
-0.360564291477203369 -0.0349447093904018402 -0.147939890623092651
-0.127940177917480469 -0.267402052879333496 0.112534984946250916
0.512915968894958496 -0.368724077939987183 -0.0145418699830770493
-0.213501542806625366 0.312860280275344849 0.0978415980935096741
0.250888168811798096 -0.28678816556930542 0.3230857253074646
0.209286481142044067 0.00979791488498449326 -0.0459713339805603027
0.0703136473894119263 -0.151181712746620178 -0.0171088334172964096
-0.169540852308273315 0.305099934339523315 0.119034886360168457
0.471441209316253662 -0.364020317792892456 0.00717459851875901222
-0.290657579898834229 -0.0991083681583404541 -0.103064574301242828
0.0367977991700172424 -0.149343177676200867 -0.0215720459818840027
0.232467636466026306 0.056581791490316391 0.309374988079071045
0.253694862127304077 -0.288349568843841553 0.320867270231246948
-0.471505552530288696 0.00145763566251844168 0.168906033039093018
0.241284877061843872 0.0630376562476158142 0.313275039196014404
0.509273171424865723 -0.351706951856613159 0.0640960484743118286
0.22772572934627533 -0.31450381875038147 0.314769536256790161
-0.375136256217956543 -0.0928412303328514099 0.0863718390464782715
-0.0624311342835426331 -0.241313248872756958 0.302734971046447754
-0.222384795546531677 -0.12732340395450592 -0.0529626086354255676
-0.409639418125152588 -0.0651285424828529358 0.0987318754196166992
-0.444763392210006714 -0.0443991981446743011 0.132968246936798096
0.239283204078674316 -0.293735325336456299 0.314641743898391724
0.154223307967185974 -0.324046432971954346 0.320315331220626831
0.425601333379745483 -0.25572630763053894 0.328784584999084473
0.438634425401687622 -0.342572808265686035 -0.292551040649414062
0.506722867488861084 -0.33421894907951355 -0.317960560321807861
0.445483148097991943 -0.351921528577804565 -0.286608308553695679
0.238550633192062378 0.066100776195526123 0.31255418062210083
0.403547585010528564 -0.287172079086303711 0.326106637716293335
-0.494534820318222046 0.00704125966876745224 0.188650175929069519
0.486072391271591187 -0.0628347247838973999 0.131910905241966248
0.0129077509045600891 -0.170388013124465942 0.00999390147626399994
0.531907737255096436 -0.307272285223007202 -0.0620860792696475983
0.31523442268371582 -0.301905155181884766 -0.126690298318862915
0.446311026811599731 -0.290956169366836548 -0.285520493984222412
-0.336611658334732056 0.22503255307674408 0.125936537981033325
-0.400537282228469849 -0.0278212465345859528 -0.00169653084594756365
0.403457462787628174 -0.271386146545410156 0.324325352907180786
-0.132990464568138123 0.196149453520774841 0.167945414781570435
0.399508208036422729 -0.271323084831237793 0.324139297008514404
-0.44620591402053833 -0.0245996788144111633 0.0216517280787229538
-0.137680396437644958 0.245195791125297546 0.191905185580253601
-0.612477004528045654 0.294359147548675537 0.184083208441734314
0.124898813664913177 0.11644570529460907 0.316890448331832886
-0.120614439249038696 0.250937372446060181 0.162041619420051575
-0.582954525947570801 0.348485291004180908 0.0584681890904903412
0.427255004644393921 -0.347725361585617065 0.153215512633323669
-0.566363334655761719 0.295438081026077271 -0.0686818957328796387
0.252316951751708984 0.0271669141948223114 -0.0794087350368499756
0.248087048530578613 0.100854098796844482 -0.0481711067259311676
-0.357039511203765869 -0.0552978627383708954 -0.141679182648658752
0.199120625853538513 0.120670221745967865 0.035949118435382843
0.545931518077850342 -0.131109341979026794 0.112152427434921265
-0.581256628036499023 0.322117447853088379 -0.022525489330291748
0.206574544310569763 0.0250999797135591507 0.177038699388504028
-0.594990313053131104 0.375467300415039062 0.172360986471176147
0.445223391056060791 -0.318807035684585571 0.127543523907661438
0.255497127771377563 -0.278313368558883667 0.316711246967315674
0.235942810773849487 0.0242052152752876282 0.316803395748138428
-0.362503916025161743 -0.0493343956768512726 -0.0235748905688524246
-0.18225531280040741 0.118574433028697968 0.0425042323768138885
0.255211859941482544 -0.28775361180305481 0.319527775049209595
0.242376446723937988 0.0335802771151065826 0.322068691253662109
0.400248080492019653 0.0238321702927350998 0.115371815860271454
-0.340072810649871826 -0.0656495541334152222 -0.147130981087684631
0.0762102901935577393 -0.332542955875396729 0.299180954694747925
-0.386361539363861084 -0.060354188084602356 0.0940402895212173462
-0.447795748710632324 -0.0408729948103427887 0.127979040145874023
0.439744055271148682 -0.2788524329662323 0.333855152130126953
0.0349486880004405975 -0.122391827404499054 -0.0254758615046739578
0.414718806743621826 -0.280306160449981689 0.327203154563903809
0.433422476053237915 -0.295603275299072266 0.333359211683273315
0.368421286344528198 -0.278196901082992554 -0.130153387784957886
-0.476989537477493286 0.00190885504707694054 0.188584297895431519
-0.291070878505706787 -0.0958167612552642822 -0.104394383728504181
0.241838723421096802 -0.312525898218154907 0.309887737035751343
0.473664999008178711 -0.353745162487030029 0.00718370452523231506
-0.295903772115707397 -0.0960635393857955933 -0.106839142739772797
0.245189458131790161 -0.288104265928268433 0.320280730724334717
0.0627437829971313477 -0.329245388507843018 0.297265291213989258
0.158548548817634583 -0.267251968383789062 -0.10541747510433197
0.250580281019210815 0.0638483315706253052 0.315701395273208618
-0.482109278440475464 -0.00745451031252741814 0.17821192741394043
0.23672148585319519 0.0670161396265029907 0.315055817365646362
0.239177793264389038 -0.33133503794670105 0.321617931127548218
-0.381812065839767456 -0.0915098637342453003 0.0369355417788028717
-0.215647786855697632 -0.13955843448638916 -0.0541984215378761292
-0.382262736558914185 -0.063160918653011322 0.0837532952427864075
0.150432318449020386 -0.331158071756362915 0.332106560468673706
0.446262508630752563 -0.279383867979049683 0.333777546882629395
0.407832980155944824 -0.280017673969268799 0.325317025184631348
-0.50162506103515625 0.00702174939215183258 0.188968837261199951
-0.321460068225860596 0.0977140441536903381 -0.0700763016939163208
0.532974839210510254 -0.20702853798866272 -0.0525095090270042419
0.451502740383148193 -0.293394923210144043 -0.290409117937088013
0.48796236515045166 -0.324757814407348633 -0.310822933912277222
0.446952015161514282 -0.309241414070129395 -0.290772795677185059
-0.577362775802612305 0.269532740116119385 0.366137892007827759
-0.460952818393707275 0.106273256242275238 -0.230769634246826172
0.375312507152557373 -0.318211376667022705 0.199255332350730896
-0.589352726936340332 0.367228418588638306 0.131576851010322571
0.393115818500518799 -0.35295066237449646 -0.217408180236816406
0.441650271415710449 -0.309783488512039185 -0.288982272148132324
-0.200262680649757385 0.305790930986404419 0.0951683372259140015
-0.155117526650428772 0.268296927213668823 0.151858702301979065
0.530266761779785156 -0.337994426488876343 0.0719363391399383545
0.464338123798370361 -0.265649467706680298 -0.217596158385276794
-0.633088529109954834 0.276044338941574097 0.107389919459819794
0.438972204923629761 -0.308075368404388428 -0.287153333425521851
0.515995323657989502 -0.276724189519882202 -0.316782832145690918
0.51712489128112793 -0.339876085519790649 -0.3206959068775177
0.454911142587661743 -0.306556880474090576 -0.293208211660385132
0.49135938286781311 -0.321467787027359009 0.0945035964250564575
0.0211330261081457138 -0.275342285633087158 -0.0184528883546590805
-0.653606235980987549 0.172324895858764648 -0.107776932418346405
-0.224298626184463501 0.31887584924697876 0.121567621827125549
0.465839654207229614 -0.36362650990486145 0.00601318199187517166
0.481547266244888306 -0.336351215839385986 0.050388779491186142
0.512028515338897705 -0.338934034109115601 -0.319355309009552002
0.440746009349822998 -0.356072902679443359 -0.297561377286911011
-0.26958853006362915 0.322348564863204956 0.0420925356447696686
0.424699246883392334 -0.312796115875244141 -0.28184807300567627
0.415920019149780273 -0.294763624668121338 0.328649312257766724
-0.325669676065444946 -0.0749747082591056824 0.123676776885986328
-0.36646464467048645 -0.0663014575839042664 0.154899686574935913
-0.33786579966545105 0.215200677514076233 0.133072972297668457
0.0105080157518386841 0.119839362800121307 0.105328790843486786
0.54250645637512207 -0.308745443820953369 -0.0461180806159973145
0.0141448164358735085 -0.261337518692016602 0.0396418608725070953
-0.00305885332636535168 -0.236122041940689087 0.0944045037031173706
0.000701897602993994951 -0.219157010316848755 0.0816625133156776428
0.465414762496948242 -0.360487282276153564 0.0304175615310668945
-0.26896938681602478 -0.137601658701896667 0.17768821120262146
-0.344664245843887329 -0.0654710903763771057 0.141481518745422363
0.123968087136745453 -0.276251912117004395 0.129122376441955566
-0.133439153432846069 0.0792323648929595947 0.0904710665345191956
0.463929980993270874 -0.0539241321384906769 0.0177055858075618744
-0.0136388307437300682 -0.216469705104827881 0.0805042460560798645
-0.554328262805938721 0.391922563314437866 0.148079171776771545
0.497098863124847412 -0.366361707448959351 0.00534164765849709511
-0.610305845737457275 0.294356852769851685 0.186886236071586609
0.53052443265914917 -0.274793535470962524 -0.317619353532791138
0.370817571878433228 -0.264167368412017822 0.181672051548957825
0.420811176300048828 -0.344040930271148682 0.150982454419136047
0.252450615167617798 0.0396658182144165039 -0.0665380135178565979
0.549832999706268311 -0.149507105350494385 0.124340049922466278
-0.570106208324432373 0.284417718648910522 -0.00601908238604664803
0.501368105411529541 -0.362215191125869751 -0.00119019707199186087
0.208660393953323364 0.116132937371730804 -0.0103003578260540962
-0.288732856512069702 -0.0851988270878791809 -0.0662282854318618774
0.159713059663772583 -0.0827907845377922058 -0.0360388346016407013
-0.339530438184738159 -0.105043292045593262 0.141517937183380127
0.511537492275238037 -0.280950784683227539 -0.313136368989944458
-0.338838636875152588 -0.0792161449790000916 0.0388272292912006378
-0.368912220001220703 0.281113356351852417 -0.0623418018221855164
0.510294675827026367 -0.340560108423233032 0.0652202069759368896
0.302707433700561523 -0.205496802926063538 0.248066604137420654
0.543249845504760742 -0.311631739139556885 -0.0606679022312164307
0.14191398024559021 0.0698938369750976562 0.336546272039413452
-0.594443976879119873 0.267880767583847046 0.0125443534925580025
0.222376778721809387 -0.00667948601767420769 0.29574170708656311
0.231222078204154968 0.0347374789416790009 0.312936484813690186
0.533953070640563965 -0.319237738847732544 -0.0127079328522086143
-0.388896793127059937 -0.063567332923412323 0.106007330119609833
-0.447138488292694092 -0.0397249087691307068 0.126830399036407471
0.496325582265853882 -0.0909164324402809143 0.154574275016784668
0.251247435808181763 0.0635252818465232849 0.316819429397583008
-0.29095110297203064 -0.0923364534974098206 0.307948529720306396
-0.366119414567947388 -0.114344380795955658 0.10428956151008606
-0.562978506088256836 0.127694115042686462 -0.0781045407056808472
-0.501089990139007568 0.023866947740316391 0.187016129493713379
0.518595874309539795 -0.296976327896118164 -0.313972681760787964
0.473070621490478516 -0.32786598801612854 -0.29982757568359375
-0.573895514011383057 0.269198834896087646 0.363062739372253418
-0.570767521858215332 0.355218499898910522 0.167425543069839478
-0.19134734570980072 0.30504298210144043 0.101528525352478027
-0.661646068096160889 0.240137472748756409 0.0420591048896312714
-0.504521310329437256 0.144776880741119385 0.353664249181747437
0.507614433765411377 -0.346801221370697021 -0.318252116441726685
-0.200173899531364441 0.305373877286911011 0.102189004421234131
0.475564509630203247 -0.357272058725357056 0.00476957857608795166
0.510179102420806885 -0.330376476049423218 0.0664957687258720398
-0.610293090343475342 0.367912650108337402 0.0881877541542053223
-0.56206434965133667 0.288659602403640747 -0.0555839687585830688
0.220305711030960083 0.0106783444061875343 0.309270560741424561
0.240867212414741516 0.00551076885312795639 0.321733981370925903
-0.359091401100158691 -0.0564433075487613678 -0.137674540281295776
0.399639427661895752 -0.252392739057540894 0.322067469358444214
0.399942010641098022 -0.262765467166900635 0.32481992244720459
0.224447399377822876 -0.323793500661849976 0.320847362279891968
0.411423295736312866 -0.267506182193756104 0.325237810611724854
-0.508730769157409668 0.049831002950668335 0.195614293217658997
-0.630782485008239746 0.156891301274299622 -0.052258174866437912
-0.501492202281951904 0.147343352437019348 0.34563678503036499
0.521415472030639648 -0.350367069244384766 -0.322994798421859741
0.495738893747329712 -0.348002463579177856 0.000287328264676034451
-0.197443589568138123 0.0165692288428544998 -0.0497754998505115509
-0.557312428951263428 0.342125385999679565 -0.00535195181146264076
0.488946616649627686 -0.360134690999984741 0.0411149002611637115
0.449542701244354248 -0.0738480240106582642 0.00202292902395129204
-0.55585932731628418 0.385531485080718994 0.158202573657035828
0.375031709671020508 -0.080807119607925415 -0.119863361120223999
