ply
format ascii 1.0
element vertex 738
property float x
property float y
property float z
end_header
-0.286514192819595337 -0.100514635443687439 -0.0921486243605613708
0.258057564496994019 0.10077965259552002 -0.0620872564613819122
-0.361338108777999878 -0.0597303546965122223 -0.144279435276985168
0.134044960141181946 0.113512374460697174 0.33784031867980957
-0.563376784324645996 0.199366539716720581 -0.229264125227928162
-0.276763498783111572 0.287903726100921631 -0.00097046425798907876
0.455064505338668823 -0.246484100818634033 -0.288473516702651978
0.460421949625015259 -0.275437831878662109 -0.291003257036209106
-0.635272622108459473 0.308153241872787476 0.170237317681312561
0.51257699728012085 -0.317551136016845703 -0.0386875346302986145
0.469117343425750732 -0.265836179256439209 -0.298132926225662231
0.478338271379470825 -0.295048147439956665 -0.300415903329849243
0.458319723606109619 -0.246267423033714294 -0.290045797824859619
0.381376534700393677 -0.361012846231460571 -0.214018359780311584
-0.479648411273956299 -0.0125168915838003159 0.185761749744415283
-0.516913890838623047 0.365715593099594116 0.173957020044326782
-0.618861377239227295 0.202078878879547119 -0.0874048769474029541
-0.237373262643814087 0.0188100226223468781 -0.0726532265543937683
-0.382703274488449097 -0.0589874275028705597 0.0235910825431346893
0.474995076656341553 -0.368419826030731201 0.021718418225646019
-0.649623513221740723 0.236785933375358582 0.0320296920835971832
0.412811607122421265 -0.346751093864440918 -0.221806690096855164
0.526124238967895508 -0.337237566709518433 0.0799919366836547852
0.5061759352684021 -0.239054173231124878 -0.308249026536941528
0.249681398272514343 -0.282311916351318359 0.318247377872467041
0.239148437976837158 0.0664106681942939758 0.314661532640457153
0.539654135704040527 -0.301902741193771362 -0.0937864109873771667
-0.448046565055847168 -0.0413438268005847931 0.126430481672286987
-0.0439406596124172211 0.104367241263389587 0.317834377288818359
0.247947365045547485 0.0208746548742055893 0.322218924760818481
-0.284837841987609863 -0.0996465384960174561 -0.0991688743233680725
-0.137766733765602112 -0.0151185207068920135 -0.048905935138463974
-0.278247267007827759 0.337759345769882202 0.0469397343695163727
-0.255039900541305542 0.289807617664337158 -0.00330302957445383072
-0.21927255392074585 0.321772098541259766 0.0698106735944747925
-0.573543071746826172 0.152305856347084045 -0.0747044682502746582
-0.290292471647262573 0.292613685131072998 0.015973895788192749
0.525699615478515625 -0.320746570825576782 0.0270917639136314392
0.346142828464508057 -0.0306247491389513016 -0.0345483496785163879
0.522321045398712158 -0.362994402647018433 0.0893258750438690186
-0.083255380392074585 -0.111858285963535309 0.0784239023923873901
-0.404372245073318481 0.325969517230987549 0.121156245470046997
0.504874348640441895 -0.367143452167510986 -0.00458628218621015549
-0.119031086564064026 0.265964388847351074 0.120942972600460052
0.518807888031005859 -0.343035906553268433 0.0357609614729881287
0.130455091595649719 -0.334681123495101929 0.301258504390716553
0.466724008321762085 -0.311149954795837402 0.0723996385931968689
0.482983231544494629 -0.374080240726470947 0.0522482842206954956
0.421050041913986206 -0.0262047611176967621 0.0648116692900657654
0.494278877973556519 -0.363602995872497559 -0.0156362000852823257
-0.233303457498550415 0.287047654390335083 0.0841008648276329041
0.531303822994232178 -0.331834554672241211 -0.0073218001052737236
-0.272319316864013672 0.315294146537780762 0.113933145999908447
0.308233380317687988 0.00244267121888697147 0.0462549850344657898
0.46759873628616333 -0.263445675373077393 -0.296203494071960449
0.473905682563781738 -0.304436147212982178 0.11418556421995163
0.51129460334777832 -0.313701122999191284 -0.104504428803920746
0.509324312210083008 -0.245400190353393555 -0.30856892466545105
0.448150128126144409 -0.292532622814178467 -0.292893528938293457
0.466578125953674316 -0.283300012350082397 -0.297414451837539673
0.138277456164360046 0.112630106508731842 0.336780041456222534
-0.652520477771759033 0.285745620727539062 0.0978364571928977966
-0.638642489910125732 0.244869574904441833 -0.0384158194065093994
0.136298507452011108 0.0691232308745384216 0.337897747755050659
-0.577454984188079834 0.303828030824661255 -0.0557702966034412384
0.262524425983428955 0.0303523316979408264 -0.0735363662242889404
0.54194939136505127 -0.216853082180023193 0.11151634156703949
-0.360149353742599487 -0.0357366353273391724 -0.134484246373176575
-0.575115382671356201 0.327502131462097168 -0.0297719631344079971
-0.361852496862411499 -0.0709097757935523987 -0.0341256074607372284
-0.130452722311019897 -0.2675742506980896 0.119020923972129822
0.495246410369873047 -0.365901082754135132 -0.00046967394882813096
0.374069303274154663 -0.359410792589187622 -0.210182338953018188
-0.378482073545455933 -0.106879949569702148 0.101204194128513336
-0.0669621601700782776 -0.264048159122467041 0.296474933624267578
0.519995391368865967 -0.243353605270385742 -0.30958971381187439
0.509546756744384766 -0.330646693706512451 0.0151826757937669754
-0.593777716159820557 0.368988156318664551 0.12043406069278717
-0.655655324459075928 0.175741627812385559 -0.103263765573501587
-0.222981765866279602 -0.144122377038002014 -0.0538395531475543976
-0.191609323024749756 0.316525697708129883 0.100685670971870422
0.256783455610275269 -0.283604145050048828 0.319680511951446533
0.239149153232574463 0.0320605449378490448 0.319128155708312988
-0.12010897696018219 -0.0461465977132320404 0.00721463002264499664
-0.641951918601989746 0.30867275595664978 0.101705916225910187
0.364965468645095825 -0.373952239751815796 -0.207098260521888733
0.53773874044418335 -0.217883095145225525 0.161811962723731995
-0.55317312479019165 0.382452487945556641 0.15785391628742218
-0.122806951403617859 0.2591838538646698 0.115072794258594513
0.119351945817470551 0.102312721312046051 0.0894138067960739136
-0.37572091817855835 0.265824556350708008 -0.0897207334637641907
0.516951680183410645 -0.349150240421295166 0.0986972972750663757
-0.293523281812667847 -0.107113637030124664 -0.109439089894294739
0.274965018033981323 0.102829664945602417 -0.0577275454998016357
-0.575359463691711426 0.219613134860992432 -0.212881669402122498
-0.115852862596511841 0.268462002277374268 0.179780438542366028
0.236143648624420166 -0.28807714581489563 0.314369052648544312
0.310240000486373901 -0.187486127018928528 0.240998432040214539
0.54182809591293335 -0.325917363166809082 -0.0210219211876392365
0.0791412219405174255 -0.337761729955673218 0.282205700874328613
-0.00628733588382601738 -0.17189471423625946 0.00416866037994623184
-0.282555967569351196 0.261672765016555786 0.00694166915491223335
0.513251602649688721 -0.237125888466835022 -0.309584349393844604
-0.647302210330963135 0.278303772211074829 0.0793668627738952637
-0.646594464778900146 0.183249086141586304 -0.0911082327365875244
0.514173209667205811 -0.32260972261428833 0.0241968333721160889
-0.407073795795440674 -0.0636088252067565918 0.11340215802192688
0.516918957233428955 -0.355780422687530518 -0.0207303408533334732
-0.566983640193939209 0.374331384897232056 0.152353584766387939
0.235895276069641113 0.042871866375207901 0.3136768639087677
-0.665137112140655518 0.227188989520072937 0.022907596081495285
-0.448256909847259521 -0.0384467951953411102 0.126939505338668823
0.503131449222564697 -0.302322417497634888 -0.179007545113563538
-0.589521050453186035 0.361052393913269043 0.0859213471412658691
-0.194449856877326965 0.314800411462783813 0.10480412095785141
0.246929287910461426 0.0237781424075365067 0.323813408613204956
0.530996263027191162 -0.323874443769454956 -0.0581926926970481873
-0.183191627264022827 0.306899458169937134 0.128426417708396912
0.247189387679100037 0.00685553625226020813 0.323943257331848145
0.0585580058395862579 0.139524877071380615 0.345735847949981689
-0.505966484546661377 0.149401292204856873 0.356810808181762695
0.270847439765930176 -0.311342120170593262 0.326223641633987427
-0.253815948963165283 0.023549940437078476 -0.0708679184317588806
0.241194114089012146 -0.295387357473373413 0.322472155094146729
0.248943910002708435 0.0436553992331027985 0.314403951168060303
0.468364536762237549 -0.10210099071264267 0.0345361381769180298
-0.124997705221176147 0.195002451539039612 0.115337684750556946
0.240097030997276306 -0.326693683862686157 0.317922800779342651
0.500328719615936279 -0.366686850786209106 0.0745634511113166809
0.523496448993682861 -0.324812799692153931 0.0261145122349262238
0.444667130708694458 -0.253410995006561279 0.332330524921417236
0.321634083986282349 -0.131534934043884277 -0.10677357017993927
0.0633834674954414368 -0.0108702443540096283 0.321674615144729614
0.511377453804016113 -0.360983282327651978 0.047417275607585907
0.135775119066238403 -0.100790783762931824 0.0404478088021278381
0.0495469532907009125 0.0114413630217313766 0.0296192113310098648
0.0207644347101449966 0.0481254905462265015 0.0424855239689350128
0.0881845206022262573 -0.0661863386631011963 0.289607346057891846
-0.162009462714195251 -0.265654593706130981 0.147917404770851135
0.264975070953369141 -0.0203122328966856003 0.0614676959812641144
-0.0288981068879365921 -0.0291212517768144608 0.295521914958953857
0.502330124378204346 -0.24037209153175354 -0.302166640758514404
0.476145476102828979 -0.314982563257217407 -0.302114665508270264
-0.631252408027648926 0.306302726268768311 0.167221501469612122
0.475552856922149658 -0.320946753025054932 0.120948366820812225
0.509202539920806885 -0.300930052995681763 -0.105664625763893127
0.528370201587677002 -0.274937927722930908 -0.317353576421737671
0.49375152587890625 -0.332446247339248657 -0.31087195873260498
0.503579318523406982 -0.320261120796203613 0.0979364067316055298
0.47439149022102356 -0.305818915367126465 -0.298265904188156128
-0.559624910354614258 0.268076211214065552 0.364434719085693359
0.124950438737869263 0.116682790219783783 0.31419333815574646
-0.633884012699127197 0.282270818948745728 0.0540958568453788757
-0.587713479995727539 0.362804502248764038 0.102265737950801849
0.371802240610122681 -0.374104321002960205 -0.212877064943313599
0.438580751419067383 -0.348118722438812256 0.154280021786689758
0.058057103306055069 0.121152736246585846 0.321107476949691772
-0.574926555156707764 0.368805527687072754 0.215427771210670471
0.264779597520828247 0.0244588404893875122 -0.0587375350296497345
0.368957012891769409 -0.336935847997665405 0.160565420985221863
0.510646402835845947 -0.301647812128067017 -0.11211482435464859
0.133935481309890747 -0.320652931928634644 -0.0978785082697868347
0.51669466495513916 -0.34890708327293396 -0.0203857161104679108
0.389572232961654663 -0.346837878227233887 -0.214232295751571655
-0.577339410781860352 0.319089263677597046 0.0406129322946071625
0.536181986331939697 -0.277907222509384155 -0.320758968591690063
0.468108028173446655 -0.310953438282012939 -0.299402296543121338
0.507310330867767334 -0.347254931926727295 0.0178440045565366745
-0.556242644786834717 0.309720396995544434 0.102108269929885864
0.194197550415992737 -0.33944326639175415 -0.0592610687017440796
0.070406302809715271 -0.282285034656524658 -0.0779963657259941101
0.252643048763275146 -0.250470370054244995 0.320145547389984131
0.239944145083427429 0.0307028703391551971 0.316905677318572998
-0.120969325304031372 -0.0479445308446884155 0.00806918181478977203
0.178934171795845032 -0.100350402295589447 -0.0148718841373920441
0.532566666603088379 -0.332439571619033813 -0.0132621712982654572
0.370655357837677002 -0.349561154842376709 -0.209009692072868347
0.535009980201721191 -0.24603976309299469 0.177226617932319641
0.561306774616241455 -0.31585460901260376 -0.331098437309265137
0.554553091526031494 -0.211922481656074524 0.133873268961906433
-0.543635368347167969 0.380750298500061035 0.164399042725563049
0.122831441462039948 0.11696770042181015 0.133099779486656189
-0.582588016986846924 0.351925402879714966 0.0976579040288925171
-0.481786847114562988 0.185939610004425049 -0.0917000696063041687
0.515748918056488037 -0.339334756135940552 0.0387554951012134552
0.253663212060928345 -0.279380083084106445 0.321965813636779785
0.278844326734542847 -0.356060415506362915 -0.12616199254989624
0.508116543292999268 -0.286718398332595825 -0.313825458288192749
-0.432223975658416748 -0.0572834312915802002 0.116620495915412903
0.201953575015068054 0.0902465879917144775 0.223362356424331665
0.244309291243553162 0.104332424700260162 -0.0572937317192554474
-0.195845961570739746 0.20138375461101532 0.349312841892242432
0.250509560108184814 0.024664711207151413 0.323337435722351074
0.239875003695487976 0.0187592543661594391 0.321029394865036011
-0.0314889997243881226 0.16251528263092041 0.382675826549530029
-0.482636719942092896 -0.015726771205663681 0.180112302303314209
0.483981192111968994 -0.36924859881401062 0.0460015125572681427
-0.643830299377441406 0.287114799022674561 0.0860854983329772949
0.276193171739578247 -0.166001752018928528 -0.0705630853772163391
-0.411876201629638672 -0.0569568537175655365 0.0788289457559585571
-0.64324718713760376 0.175713330507278442 -0.082185596227645874
-0.22582872211933136 -0.134021297097206116 -0.0522992461919784546
0.255160272121429443 -0.265797972679138184 0.321127414703369141
-0.345365196466445923 0.0172253530472517014 -0.117028407752513885
-0.28704485297203064 -0.0916332006454467773 -0.10659925639629364
-0.585253536701202393 0.209830090403556824 -0.218191727995872498
0.267827063798904419 -0.297247618436813354 0.315202146768569946
-0.0253723599016666412 -0.187413007020950317 -0.0435408800840377808
-0.618359744548797607 0.27691003680229187 0.0312657915055751801
-0.609158694744110107 0.298216670751571655 0.0923666805028915405
-0.39761391282081604 -0.062964417040348053 0.118826724588871002
-0.451794296503067017 -0.0382747463881969452 0.119419679045677185
0.431261807680130005 -0.272034376859664917 0.329204559326171875
-0.0525160394608974457 0.140580549836158752 0.0916863381862640381
-0.50323331356048584 0.151024535298347473 0.355426758527755737
0.241055384278297424 -0.319521307945251465 0.322821587324142456
0.497347742319107056 -0.371071010828018188 0.0573210678994655609
0.399468362331390381 -0.25716012716293335 0.322479754686355591
-0.158161655068397522 -0.263644933700561523 0.181562751531600952
-0.499319672584533691 0.013922838494181633 0.158024415373802185
0.417760998010635376 -0.297652512788772583 0.328752219676971436
0.535493671894073486 -0.340426623821258545 -0.0184948183596134186
0.344598919153213501 -0.267610162496566772 -0.12792070209980011
-0.496659934520721436 0.0718680694699287415 0.20393843948841095
0.443797171115875244 -0.27247852087020874 0.333432972431182861
0.522223412990570068 -0.33564835786819458 0.0327567122876644135
0.453682750463485718 -0.320087045431137085 -0.293142586946487427
0.474429965019226074 -0.311961740255355835 0.116687797009944916
0.517484545707702637 -0.278608947992324829 -0.312936753034591675
0.502952456474304199 -0.326131314039230347 -0.31443825364112854
0.518293917179107666 -0.327383816242218018 0.101897962391376495
0.479619324207305908 -0.311618953943252563 -0.302284955978393555
0.11454346776008606 0.118286751210689545 0.289050638675689697
-0.122164227068424225 0.268406510353088379 0.158788964152336121
-0.615109086036682129 0.265381991863250732 0.0519772358238697052
-0.479542255401611328 0.00293314293958246708 0.181289851665496826
0.426926672458648682 -0.355308681726455688 0.15856151282787323
-0.292218029499053955 -0.110696882009506226 -0.105862349271774292
0.130547821521759033 0.0652020201086997986 0.321260571479797363
0.253844916820526123 0.0383837074041366577 -0.0778515860438346863
0.235543891787528992 0.0935600697994232178 -0.053117707371711731
0.417986899614334106 -0.261778771877288818 -0.202430203557014465
0.52190399169921875 -0.354904532432556152 -0.0195128712803125381
-0.609230518341064453 0.380988359451293945 0.181175410747528076
0.517836153507232666 -0.279508888721466064 -0.314859658479690552
0.499339133501052856 -0.350266247987747192 0.0240379795432090759
-0.588199853897094727 0.369175821542739868 0.112954981625080109
0.50603175163269043 -0.105068579316139221 0.147275000810623169
-0.198307082056999207 0.311335712671279907 0.112924002110958099
0.264272451400756836 -0.286837399005889893 0.319792300462722778
0.236949965357780457 0.0618083067238330841 0.31057131290435791
-0.144421026110649109 -0.0436787307262420654 0.00413285475224256516
-0.658021986484527588 0.214607298374176025 -0.0463340133428573608
-0.288538426160812378 -0.07610282301902771 -0.0687001943588256836
0.227349236607551575 0.0418562367558479309 -0.0481977313756942749
0.551593303680419922 -0.1448192298412323 0.13202182948589325
0.519928872585296631 -0.295654743909835815 0.0748673379421234131
0.517820656299591064 -0.284300118684768677 -0.181270256638526917
-0.358106464147567749 -0.0172468814998865128 -0.0280383657664060593
0.0914819091558456421 0.0878929644823074341 0.0857672914862632751
0.466903477907180786 -0.362157255411148071 -0.0107192639261484146
-0.433100759983062744 0.157594084739685059 -0.0665922686457633972
0.523976564407348633 -0.335924267768859863 0.0688656046986579895
0.263132423162460327 -0.286206483840942383 0.31851544976234436
0.00952473748475313187 -0.0912075266242027283 -0.0261779185384511948
0.0327256359159946442 -0.130615159869194031 0.0218221638351678848
-0.631014883518218994 0.264901459217071533 0.0289259981364011765
0.242143049836158752 0.0739760845899581909 0.318840891122817993
0.240253299474716187 0.0292279403656721115 0.318918853998184204
-0.175093278288841248 0.300609737634658813 0.116303995251655579
0.304781585931777954 -0.151631206274032593 0.307808130979537964
0.262168586254119873 -0.291004866361618042 0.321001410484313965
-0.47634577751159668 -0.00832803733646869659 0.166163653135299683
0.242770209908485413 0.0814124345779418945 0.312199801206588745
0.52040475606918335 -0.351576149463653564 0.0819018632173538208
-0.0347146503627300262 -0.237797096371650696 0.124063789844512939
-0.63864666223526001 0.289892613887786865 0.0987185537815093994
-0.234146803617477417 -0.132991194725036621 -0.0580864176154136658
-0.379326701164245605 -0.108960911631584167 0.105472728610038757
-0.236349672079086304 -0.148006930947303772 -0.0579330846667289734
-0.658238112926483154 0.214299842715263367 -0.0340360328555107117
0.529038429260253906 -0.352907270193099976 0.07784232497215271
-0.621468245983123779 0.270158827304840088 0.0523728020489215851
-0.404235005378723145 -0.0645055249333381653 0.111996859312057495
-0.446449995040893555 -0.0416625402867794037 0.121926657855510712
0.268233537673950195 -0.285900026559829712 0.323476225137710571
0.127871453762054443 -0.326840132474899292 0.312593400478363037
0.152533188462257385 -0.343328714370727539 0.317866683006286621
0.448021292686462402 -0.335843741893768311 -0.293117433786392212
0.515944600105285645 -0.3032265305519104 -0.108034983277320862
0.515459418296813965 -0.280480355024337769 -0.312955141067504883
0.485133051872253418 -0.327897697687149048 -0.309918642044067383
0.464631021022796631 -0.346104860305786133 -0.302793771028518677
0.549767017364501953 -0.210460081696510315 -0.316104859113693237
0.52432703971862793 -0.300262242555618286 -0.322610169649124146
0.518197000026702881 -0.301073819398880005 -0.318505346775054932
0.246876969933509827 0.056696675717830658 0.316432029008865356
0.2413339763879776 0.0871656760573387146 0.312767922878265381
-0.291667520999908447 -0.100707307457923889 -0.10198657214641571
-0.453703016042709351 -0.0521390698850154877 0.117017723619937897
0.404942363500595093 -0.272576093673706055 0.322523802518844604
-0.502577483654022217 0.00362102314829826355 0.189075961709022522
0.401242285966873169 -0.287548720836639404 0.324839502573013306
0.399386137723922729 -0.273870885372161865 0.32331925630569458
0.342445015907287598 -0.259257853031158447 0.0900787785649299622
-0.0186091549694538116 -0.244593888521194458 0.128637880086898804
-0.46468818187713623 0.0358173325657844543 0.189506322145462036
-0.194626182317733765 0.221355214715003967 0.172056138515472412
0.367105066776275635 -0.329526454210281372 -0.0235687661916017532
0.323745906352996826 -0.390304237604141235 -0.158969536423683167
0.535586118698120117 -0.323882013559341431 -0.0582944341003894806
-0.44191393256187439 -0.00489621562883257866 0.152648597955703735
-0.0190596338361501694 -0.0597725100815296173 0.141713812947273254
-5.04545459989458323e-05 -0.236332714557647705 0.106355197727680206
0.526326000690460205 -0.202075302600860596 -0.0800968408584594727
0.450068503618240356 -0.308532446622848511 -0.292998522520065308
0.52704322338104248 -0.275640606880187988 -0.315808147192001343
0.50014948844909668 -0.325081527233123779 -0.312807440757751465
0.475470304489135742 -0.305248826742172241 -0.297518402338027954
-0.127707615494728088 0.246374905109405518 0.13896535336971283
-0.649355649948120117 0.281922578811645508 0.0940974727272987366
-0.199207082390785217 0.286418318748474121 0.33593866229057312
0.498007148504257202 -0.0870838016271591187 0.136642128229141235
0.201074659824371338 -0.359352350234985352 -0.0908885151147842407
0.505596637725830078 -0.367925167083740234 -0.022772572934627533
0.527332544326782227 -0.242987051606178284 0.172930061817169189
-0.586356639862060547 0.379202306270599365 0.170563071966171265
0.445289760828018188 -0.315125256776809692 -0.287872910499572754
0.498601585626602173 -0.11143888533115387 0.112150512635707855
-0.656033337116241455 0.175425857305526733 -0.103960610926151276
-0.202278599143028259 0.308535486459732056 0.0891318097710609436
0.201380893588066101 -0.0139202289283275604 0.295285731554031372
0.160182490944862366 -0.0624213553965091705 -0.044108223170042038
-0.579869508743286133 0.302122592926025391 0.36864161491394043
0.275052666664123535 0.0980595052242279053 -0.0291502587497234344
-0.435463607311248779 0.155301019549369812 -0.0861202850937843323
0.534584343433380127 -0.333300858736038208 0.012685687281191349
-0.568956613540649414 0.197283640503883362 -0.22927585244178772
-0.497789829969406128 0.0449241697788238525 -0.0869811028242111206
0.0315657369792461395 -0.104229889810085297 0.0329770930111408234
0.534286081790924072 -0.264681875705718994 -0.316453337669372559
0.00963385961949825287 0.197394713759422302 0.0275609232485294342
0.302238136529922485 0.0385875552892684937 -0.0845289081335067749
-0.332176655530929565 -0.0160838384181261063 -0.107786275446414948
0.236540660262107849 0.014117581769824028 0.321834325790405273
0.125128030776977539 0.0126930549740791321 0.298982590436935425
0.527661621570587158 -0.355422735214233398 0.066286526620388031
0.467342942953109741 -0.310038655996322632 -0.233231738209724426
-0.652337968349456787 0.285262405872344971 0.104206867516040802
0.54664689302444458 -0.220267236232757568 0.163488864898681641
0.528192639350891113 -0.323622435331344604 -0.0161060430109500885
-0.383042037487030029 -0.0565013140439987183 0.0761701390147209167
0.457185804843902588 -0.311014443635940552 -0.292696893215179443
0.505228400230407715 -0.340001195669174194 -0.318047106266021729
0.479088753461837769 -0.314494937658309937 -0.299643903970718384
0.520602405071258545 -0.301478981971740723 -0.317469894886016846
-0.00207329122349619865 -0.140166312456130981 -0.0248491726815700531
0.397720813751220703 -0.273429006338119507 0.32349434494972229
0.401388883590698242 -0.271856635808944702 0.323799431324005127
0.506247997283935547 -0.332241415977478027 0.105826586484909058
-0.467687338590621948 0.042354874312877655 0.170613810420036316
0.410265266895294189 -0.34613037109375 0.156583145260810852
-0.360757797956466675 -0.0353420712053775787 -0.148189112544059753
-0.127984568476676941 -0.267813116312026978 0.112382330000400543
0.512807130813598633 -0.369264423847198486 -0.014715936966240406
-0.213902145624160767 0.312339127063751221 0.0976646542549133301
0.250838130712509155 -0.287344247102737427 0.322941243648529053
0.209090858697891235 0.00915664620697498322 -0.0461329296231269836
0.0702213719487190247 -0.151714041829109192 -0.0172562431544065475
-0.169935211539268494 0.304561048746109009 0.118869215250015259
0.471350431442260742 -0.364578962326049805 0.00700672483071684837
-0.290787339210510254 -0.0994981303811073303 -0.103243812918663025
0.0367071740329265594 -0.149862408638000488 -0.0217264443635940552
0.232252046465873718 0.0559269636869430542 0.309255093336105347
0.253644585609436035 -0.288906246423721313 0.320722401142120361
-0.471768796443939209 0.0010615460341796279 0.168629452586174011
0.24106442928314209 0.0623808279633522034 0.313154786825180054
0.509153842926025391 -0.35226595401763916 0.0639380365610122681
0.227685779333114624 -0.3150348961353302 0.314627319574356079
-0.375330120325088501 -0.09322347491979599 0.0861491188406944275
-0.0624592490494251251 -0.241778656840324402 0.302593111991882324
-0.222496286034584045 -0.127737954258918762 -0.0531450435519218445
-0.409850418567657471 -0.0655166208744049072 0.0984851047396659851
-0.444992661476135254 -0.0447851009666919708 0.132703915238380432
0.239236071705818176 -0.294283509254455566 0.314498364925384521
0.154198184609413147 -0.324543267488479614 0.320179104804992676
0.425507247447967529 -0.256346762180328369 0.328646451234817505
0.438583523035049438 -0.343068093061447144 -0.292770832777023315
0.506644308567047119 -0.334703803062438965 -0.318191498517990112
0.445431709289550781 -0.352416455745697021 -0.28682941198348999
0.238328441977500916 0.0654442682862281799 0.312434464693069458
0.403468668460845947 -0.287777155637741089 0.325963884592056274
-0.49480167031288147 0.00665088417008519173 0.188361614942550659
0.48584786057472229 -0.0635197684168815613 0.131771445274353027
0.0128277977928519249 -0.170895874500274658 0.00984341278672218323
0.531782090663909912 -0.307817637920379639 -0.0622578002512454987
0.315188378095626831 -0.3024272620677948 -0.126852810382843018
0.446248561143875122 -0.291469067335128784 -0.285730808973312378
-0.336966454982757568 0.224550932645797729 0.125729992985725403
-0.400764197111129761 -0.0282270200550556183 -0.00195588939823210239
0.403373658657073975 -0.271999388933181763 0.324182838201522827
-0.133296042680740356 0.195586353540420532 0.167800828814506531
0.399425357580184937 -0.271936178207397461 0.323996156454086304
-0.446447789669036865 -0.0249920766800642014 0.0213609188795089722
-0.138017266988754272 0.2446412593126297 0.191763371229171753
-0.612889647483825684 0.293970793485641479 0.18369920551776886
0.124665617942810059 0.115815140306949615 0.316782444715499878
-0.120964355766773224 0.25037422776222229 0.161894425749778748
-0.583403706550598145 0.348094731569290161 0.0580637305974960327
0.4271659255027771 -0.348302453756332397 0.153065800666809082
-0.566777706146240234 0.295040726661682129 -0.069095022976398468
0.252117037773132324 0.0265155341476202011 -0.0795792117714881897
0.247830003499984741 0.100177310407161713 -0.0483350865542888641
-0.357221513986587524 -0.0556868948042392731 -0.141923710703849792
0.198833122849464417 0.119992122054100037 0.0358023717999458313
0.545717418193817139 -0.131759941577911377 0.112018287181854248
-0.581688284873962402 0.321726173162460327 -0.0229424871504306793
0.206350773572921753 0.0244367271661758423 0.1769123375415802
-0.595440864562988281 0.375080734491348267 0.171975865960121155
0.445120960474014282 -0.319395869970321655 0.1273965984582901
0.255443274974822998 -0.278876960277557373 0.316566169261932373
0.235749632120132446 0.0235537886619567871 0.316680312156677246
-0.362703025341033936 -0.0497406162321567535 -0.0238119103014469147
-0.18251270055770874 0.118034735321998596 0.0423255003988742828
0.255161076784133911 -0.28831145167350769 0.319382697343826294
0.242177397012710571 0.0329273305833339691 0.321945667266845703
0.399994075298309326 0.0231324583292007446 0.115219801664352417
-0.340242892503738403 -0.0660375431180000305 -0.14736582338809967
0.0761957243084907532 -0.333009481430053711 0.29904600977897644
-0.386569112539291382 -0.0607518106698989868 0.0938063561916351318
-0.448028236627578735 -0.0412595793604850769 0.127711296081542969
0.439654499292373657 -0.27946200966835022 0.333719521760940552
0.0348436050117015839 -0.122923083603382111 -0.0256362929940223694
0.414635121822357178 -0.280914992094039917 0.327062547206878662
0.433338969945907593 -0.296203643083572388 0.333222150802612305
0.368360012769699097 -0.278739780187606812 -0.130320683121681213
-0.47729608416557312 0.00149981596041470766 0.188313812017440796
-0.291203022003173828 -0.0962081551551818848 -0.104576177895069122
0.241795271635055542 -0.313064366579055786 0.309743940830230713
0.473569244146347046 -0.354302912950515747 0.00701761199161410332
-0.29604068398475647 -0.0964542478322982788 -0.107031837105751038
0.245140388607978821 -0.288657486438751221 0.320136845111846924
0.0627296715974807739 -0.329709351062774658 0.297129660844802856
0.15851263701915741 -0.267741084098815918 -0.10555875301361084
0.250358283519744873 0.063189484179019928 0.315580219030380249
-0.482372313737869263 -0.00784557778388261795 0.17793118953704834
0.236499667167663574 0.0663605555891990662 0.314936429262161255
0.23914039134979248 -0.331859350204467773 0.321474522352218628
-0.38199886679649353 -0.0918946266174316406 0.0366983748972415924
-0.215751796960830688 -0.139969006180763245 -0.0543787404894828796
-0.382467597723007202 -0.063558533787727356 0.0835202187299728394
0.150410756468772888 -0.331647813320159912 0.331970721483230591
0.446171581745147705 -0.279993504285812378 0.333643108606338501
0.407750815153121948 -0.280626773834228516 0.325175076723098755
-0.501889646053314209 0.00663444027304649353 0.188674762845039368
-0.321720242500305176 0.0972445756196975708 -0.0702964141964912415
0.532818734645843506 -0.207614317536354065 -0.0526699498295783997
0.45144006609916687 -0.293906360864639282 -0.29062122106552124
0.487890511751174927 -0.325250297784805298 -0.311048835515975952
0.44689255952835083 -0.309746801853179932 -0.290987133979797363
-0.577711999416351318 0.269133687019348145 0.365831255912780762
-0.461235523223876953 0.10587223619222641 -0.231105223298072815
0.375233292579650879 -0.318804442882537842 0.199105322360992432
-0.589806079864501953 0.366840004920959473 0.131185248494148254
0.393075942993164062 -0.353457123041152954 -0.217605754733085632
0.441592305898666382 -0.310288935899734497 -0.289195775985717773
-0.200662896037101746 0.305261820554733276 0.0949942395091056824
-0.155479952692985535 0.267749041318893433 0.151704534888267517
0.53013378381729126 -0.338554620742797852 0.0717814415693283081
0.464255422353744507 -0.266184419393539429 -0.217788845300674438
-0.63350290060043335 0.275660961866378784 0.106972411274909973
0.438914656639099121 -0.308581709861755371 -0.287365883588790894
0.51590043306350708 -0.277223527431488037 -0.317006617784500122
0.51704251766204834 -0.340356796979904175 -0.32092931866645813
0.454849302768707275 -0.307062923908233643 -0.293423354625701904
0.491240233182907104 -0.322047650814056396 0.0943555310368537903
0.0210997313261032104 -0.275795698165893555 -0.0186002515256404877
-0.65395963191986084 0.171963974833488464 -0.108237966895103455
-0.224698439240455627 0.318361133337020874 0.121393442153930664
0.465750545263290405 -0.364184170961380005 0.00584542518481612206
0.481437981128692627 -0.336918383836746216 0.0502317436039447784
0.51194840669631958 -0.339416384696960449 -0.319587826728820801
0.440697371959686279 -0.356563955545425415 -0.29778522253036499
-0.269994884729385376 0.321850478649139404 0.0418924912810325623
0.424646705389022827 -0.31330186128616333 -0.282058507204055786
0.415840178728103638 -0.295364469289779663 0.32850879430770874
-0.325845628976821899 -0.075387910008430481 0.123478211462497711
-0.366657018661499023 -0.0667025074362754822 0.154686510562896729
-0.338214010000228882 0.214719787240028381 0.132867559790611267
0.0102399913594126701 0.119211889803409576 0.105180241167545319
0.542373538017272949 -0.309291571378707886 -0.0462880842387676239
0.0140995318070054054 -0.261804968118667603 0.0394974052906036377
-0.00311533873900771141 -0.2366037517786026 0.0942629948258399963
0.00063869572477415204 -0.219647631049156189 0.0815215185284614563
0.465319961309432983 -0.361045211553573608 0.0302537847310304642
-0.269089192152023315 -0.138007372617721558 0.177519664168357849
-0.344850540161132812 -0.065881095826625824 0.141276419162750244
0.123911745846271515 -0.276765555143356323 0.128988087177276611
-0.133669555187225342 0.0786752551794052124 0.0903033614158630371
0.46371808648109436 -0.0546002648770809174 0.0175438821315765381
-0.0137023217976093292 -0.216955706477165222 0.0803615525364875793
-0.554790794849395752 0.391527235507965088 0.147716477513313293
0.496995896100997925 -0.366912245750427246 0.00517190666869282722
-0.610718309879302979 0.293967962265014648 0.186504125595092773
0.530421733856201172 -0.275289803743362427 -0.31784471869468689
0.370722979307174683 -0.264789789915084839 0.181523099541664124
0.42072296142578125 -0.344619154930114746 0.150832578539848328
0.252238839864730835 0.0390082336962223053 -0.0667065605521202087
0.549627423286437988 -0.150149360299110413 0.124207600951194763
-0.570553839206695557 0.284009456634521484 -0.00646468717604875565
0.501262485980987549 -0.362763881683349609 -0.00136035506147891283
0.208384186029434204 0.115454345941543579 -0.0104538938030600548
-0.288880407810211182 -0.0856059789657592773 -0.066425420343875885
0.159577026963233948 -0.0833812505006790161 -0.0361902192234992981
-0.339694172143936157 -0.105436280369758606 0.141316875815391541
0.511445701122283936 -0.281450957059860229 -0.313359171152114868
-0.339017599821090698 -0.0796211287379264832 0.038611534982919693
-0.369293063879013062 0.280644893646240234 -0.0625919848680496216
0.510172426700592041 -0.341123133897781372 0.0650641918182373047
0.302610725164413452 -0.206117987632751465 0.247919857501983643
0.543119311332702637 -0.312173396348953247 -0.0608406886458396912
0.141713961958885193 0.0692659169435501099 0.336433917284011841
-0.594856560230255127 0.267486572265625 0.0121280336752533913
0.222200378775596619 -0.00732771027833223343 0.29561808705329895
0.231021985411643982 0.0340855158865451813 0.312814801931381226
0.533822238445281982 -0.319789290428161621 -0.0128735629841685295
-0.389102905988693237 -0.0639624893665313721 0.105774164199829102
-0.447371631860733032 -0.040112178772687912 0.126562744379043579
0.496115416288375854 -0.0915948525071144104 0.154439523816108704
0.25102582573890686 0.0628665238618850708 0.316698133945465088
-0.291071832180023193 -0.0927413851022720337 0.307792186737060547
-0.366292417049407959 -0.114722631871700287 0.104072034358978271
-0.563309609889984131 0.127306252717971802 -0.0785049498081207275
-0.501361608505249023 0.0234752018004655838 0.186720818281173706
0.518503904342651367 -0.297469913959503174 -0.314198285341262817
0.473005205392837524 -0.328362435102462769 -0.300049930810928345
-0.574245274066925049 0.268799066543579102 0.362757861614227295
-0.571213245391845703 0.354824095964431763 0.167055234313011169
-0.191748097538948059 0.304509937763214111 0.101357541978359222
-0.662037789821624756 0.239762544631958008 0.041624903678894043
-0.504806160926818848 0.144369974732398987 0.35341218113899231
0.507537841796875 -0.347282767295837402 -0.318485409021377563
-0.200573056936264038 0.304844915866851807 0.102016553282737732
0.475469648838043213 -0.35782933235168457 0.00460241269320249557
0.510054469108581543 -0.330943584442138672 0.0663416162133216858
-0.610747694969177246 0.367530643939971924 0.0877721384167671204
-0.56247633695602417 0.288260042667388916 -0.0559892766177654266
0.220122158527374268 0.0100306719541549683 0.30914837121963501
0.240686088800430298 0.00486116763204336166 0.321608632802963257
-0.35927388072013855 -0.056831754744052887 -0.137919619679450989
0.399549901485443115 -0.253014206886291504 0.321924865245819092
0.399856299161911011 -0.263382136821746826 0.324677139520645142
0.224410831928253174 -0.324316829442977905 0.32070547342300415
0.411336272954940796 -0.268121331930160522 0.325096786022186279
-0.50901329517364502 0.0494360141456127167 0.195314168930053711
-0.631131947040557861 0.156519204378128052 -0.052692703902721405
-0.50178062915802002 0.14693489670753479 0.345384418964385986
0.521333098411560059 -0.350843727588653564 -0.323230862617492676
0.495632350444793701 -0.348556250333786011 0.000120346085168421268
-0.197627037763595581 0.0160752814263105392 -0.0499702766537666321
-0.557756245136260986 0.341729432344436646 -0.00575347151607275009
0.48884052038192749 -0.360691219568252563 0.0409521497786045074
0.449350625276565552 -0.0745144262909889221 0.00186097866389900446
-0.556318879127502441 0.385136038064956665 0.15783989429473877
0.374890804290771484 -0.0814348235726356506 -0.120039887726306915
-0.389699399471282959 0.319469064474105835 0.168861836194992065
-0.384660720825195312 0.328025966882705688 0.197566568851470947
-0.364059120416641235 0.237925738096237183 -0.0834993571043014526
-0.407225847244262695 0.199438929557800293 0.0409092605113983154
-0.644460499286651611 0.28679242730140686 0.0936071872711181641
0.408898085355758667 -0.347488582134246826 0.136351257562637329
0.222503781318664551 0.082617342472076416 -0.0335990563035011292
0.498741447925567627 -0.161590725183486938 0.123742431402206421
0.500450253486633301 -0.0932000800967216492 0.134667977690696716
0.215540558099746704 0.00158781278878450394 0.299480229616165161
-0.352885693311691284 -0.0681528523564338684 -0.0091042323037981987
-0.385322451591491699 0.265912175178527832 -0.0716849043965339661
0.506746232509613037 -0.347340792417526245 0.0548138879239559174
-0.356691747903823853 -0.0562938079237937927 -0.145511537790298462
0.132339149713516235 0.0723272264003753662 0.322159677743911743
-0.0991681590676307678 -0.265611797571182251 0.00607413006946444511
0.242583438754081726 0.0229982230812311172 0.321916282176971436
-0.480235189199447632 -0.0117696076631546021 0.185314983129501343
0.242598012089729309 0.0479812584817409515 0.317099332809448242
-0.278165221214294434 0.332521975040435791 0.0406750626862049103
0.370030075311660767 -0.031170673668384552 -0.0400649085640907288
0.520456671714782715 -0.348238199949264526 -0.0364595763385295868
0.293487846851348877 -0.012281208299100399 0.0369300283491611481
-0.644146442413330078 0.284711360931396484 0.0924544110894203186
0.0358163639903068542 0.136427238583564758 0.085088193416595459
-0.397237271070480347 -0.0576721988618373871 0.125877305865287781
-0.441228479146957397 -0.038267824798822403 0.131307661533355713
0.524122536182403564 -0.317828118801116943 -0.0656067579984664917
0.422690659761428833 -0.28030511736869812 0.331162601709365845
0.50990748405456543 -0.345236927270889282 0.0569821931421756744
0.404107779264450073 -0.259188860654830933 0.323571741580963135
-0.480155676603317261 0.0179768186062574387 0.176702380180358887
0.235625475645065308 0.0681628882884979248 0.314498573541641235
-0.479296267032623291 -0.00842403527349233627 0.167345002293586731
0.239249855279922485 0.0671715140342712402 0.314900219440460205
0.388244569301605225 0.0255987253040075302 0.105903379619121552
0.219932869076728821 -0.316320985555648804 0.310361653566360474
0.383063554763793945 0.042513236403465271 0.0689377188682556152
0.462737143039703369 0.0103240581229329109 0.174967929720878601
0.399734318256378174 -0.258980065584182739 0.327146261930465698
-0.499471366405487061 0.0210551042109727859 0.180921748280525208
-0.573437094688415527 0.266074776649475098 0.359980762004852295
-0.664495408535003662 0.229830563068389893 0.0217645596712827682
-0.149255156517028809 0.275094002485275269 0.0790482014417648315
0.522367298603057861 -0.335268765687942505 -0.322844475507736206
-0.220385745167732239 0.315410643815994263 0.0967379733920097351
0.500135719776153564 -0.346831262111663818 0.0668758079409599304
-0.189739301800727844 0.3024882972240448 0.114760152995586395
0.313858896493911743 -0.130541428923606873 0.300659388303756714
0.225289881229400635 -0.0356108136475086212 0.305117100477218628
0.0577799491584300995 -0.330980569124221802 0.291374653577804565
0.435477763414382935 -0.280340492725372314 0.332675009965896606
0.409218758344650269 -0.286134868860244751 0.330841898918151855
0.385930836200714111 -0.266176432371139526 0.318720757961273193
0.397830694913864136 -0.384893655776977539 -0.225905343890190125
-0.162238255143165588 0.278114914894104004 0.128608539700508118
0.380702108144760132 0.0435342714190483093 0.0768821313977241516
0.391050130128860474 -0.256138861179351807 0.318728327751159668
-0.500192403793334961 0.0243358910083770752 0.185760021209716797
0.499932348728179932 -0.326150208711624146 -0.313469409942626953
0.381015151739120483 -0.376186341047286987 -0.216512873768806458
0.52143937349319458 -0.349489778280258179 -0.325247257947921753
0.520998537540435791 -0.348629623651504517 -0.322185814380645752
0.513613641262054443 -0.31987994909286499 -0.318809419870376587
0.25528833270072937 -0.222680434584617615 0.0573512762784957886
0.186321154236793518 -0.142566829919815063 -0.105782210826873779
0.50802689790725708 -0.320529669523239136 0.0290255751460790634
-0.469326049089431763 -0.0120252147316932678 0.181010305881500244
0.496533125638961792 -0.349185645580291748 -0.310139924287796021
0.521771252155303955 -0.327753692865371704 -0.322316884994506836
0.476341813802719116 -0.320471048355102539 -0.303415447473526001
-0.341091901063919067 0.229690775275230408 -0.0443917699158191681
0.201722040772438049 0.132426425814628601 0.112113930284976959
-0.172372803092002869 0.0220091622322797775 0.0255084186792373657
0.265888422727584839 -0.166136175394058228 0.00587356742471456528
0.544930160045623779 -0.328598320484161377 -0.0480933412909507751
-0.456138253211975098 -0.0532073527574539185 0.162122145295143127
0.470055222511291504 -0.356277763843536377 -0.307474911212921143
0.478762209415435791 -0.270037174224853516 -0.301895022392272949
0.467672169208526611 -0.362084567546844482 -0.308565139770507812
-0.320132821798324585 0.266455203294754028 0.0114367827773094177
0.0332337245345115662 0.098246455192565918 0.128428265452384949
-0.284258455038070679 -0.100156322121620178 -0.0874512121081352234
-0.616687297821044922 0.216920167207717896 -0.104920312762260437
0.244465678930282593 0.104132786393165588 -0.0299073811620473862
0.466551274061203003 -0.235370293259620667 -0.228838071227073669
-0.293524444103240967 -0.0886117219924926758 -0.0960077792406082153
0.249399080872535706 -0.276221960783004761 0.322472661733627319
0.222139298915863037 0.0665137022733688354 -0.0280664265155792236
-0.25053095817565918 -0.130296200513839722 -0.0555903390049934387
-0.211608245968818665 0.301739007234573364 0.148674309253692627
0.339996427297592163 -0.140987738966941833 0.318206578493118286
0.52989661693572998 -0.35687410831451416 0.0694542750716209412
-0.599866390228271484 0.356500923633575439 0.0603444203734397888
-0.346002697944641113 -0.0558239705860614777 -0.143747404217720032
-0.4326285719871521 0.157459661364555359 -0.0847255885601043701
0.526796638965606689 -0.331997990608215332 0.0201501213014125824
0.528378963470458984 -0.288240104913711548 -0.0704035758972167969
-0.498658746480941772 0.142626300454139709 -0.25400736927986145
0.146504968404769897 0.156395256519317627 0.0586900152266025543
0.253371596336364746 -0.00805599801242351532 0.327582061290740967
0.350139647722244263 -0.147572845220565796 0.320441335439682007
0.442618608474731445 -0.322716325521469116 -0.229654669761657715
-0.22374647855758667 -0.140111923217773438 -0.0539035238325595856
0.522716224193572998 -0.350516796112060547 0.0967308953404426575
-0.646013915538787842 0.253382265567779541 0.023800041526556015
0.393425047397613525 -0.280439794063568115 0.322171837091445923
-0.47450140118598938 -0.00996870920062065125 0.16479058563709259
0.224699407815933228 -0.325318694114685059 0.318961948156356812
-0.363383889198303223 -0.121283598244190216 0.130314812064170837
-0.238197296857833862 -0.14073297381401062 -0.0540335513651371002
-0.113716915249824524 -0.00936518516391515732 -0.016771610826253891
0.389651834964752197 -0.278711795806884766 0.320502519607543945
-0.506829977035522461 0.0111620593816041946 0.201885297894477844
0.462956875562667847 -0.297077715396881104 -0.294613778591156006
0.351483166217803955 -0.148530781269073486 0.321297496557235718
0.458196729421615601 -0.303893685340881348 -0.229120790958404541
0.0248087625950574875 -0.14396156370639801 -0.0202816277742385864
0.369234263896942139 -0.328069150447845459 0.318649172782897949
0.391878277063369751 -0.281863987445831299 0.31676366925239563
0.128993183374404907 -0.319322735071182251 -0.0972513556480407715
-0.134528264403343201 0.278175085783004761 0.117468133568763733
-0.333109587430953979 0.0944022461771965027 -0.102473318576812744
0.374453932046890259 -0.376048833131790161 -0.215065151453018188
0.520215809345245361 -0.345879346132278442 -0.32286342978477478
0.5237845778465271 -0.358141273260116577 -0.326723724603652954
-0.0679665729403495789 -0.254950165748596191 0.0988298952579498291
0.325935304164886475 -0.131230875849723816 0.314630180597305298
0.424523055553436279 -0.260111331939697266 0.328174859285354614
-0.479779034852981567 0.0317963138222694397 0.196640685200691223
0.526939630508422852 -0.299750536680221558 -0.322324186563491821
0.5383644700050354 -0.292602568864822388 -0.324738293886184692
0.378247350454330444 -0.374288380146026611 -0.213775977492332458
0.371747881174087524 -0.357228249311447144 -0.213778302073478699
0.524403929710388184 -0.351741522550582886 -0.325105190277099609
0.52571338415145874 -0.363517075777053833 -0.323193907737731934
0.515872299671173096 -0.327295005321502686 -0.32018241286277771
0.479852735996246338 -0.352436602115631104 -0.312317788600921631
0.478825151920318604 -0.365703582763671875 -0.313034981489181519
-0.361822694540023804 0.310242265462875366 0.23976917564868927
-0.320693343877792358 0.103976286947727203 0.0221662186086177826
-0.447543799877166748 0.204184010624885559 -0.0404191352427005768
-0.377713382244110107 0.279227703809738159 -0.00733214803040027618
-0.0222170352935791016 -0.260894924402236938 0.143802493810653687
-0.591976523399353027 0.361368656158447266 0.064143747091293335
0.36795574426651001 -0.373614519834518433 -0.212566688656806946
-0.123865529894828796 -0.0108148427680134773 0.00792609341442584991
0.3970051109790802 -0.353507429361343384 -0.218389704823493958
0.50749439001083374 -0.159848034381866455 0.125129148364067078
0.19549328088760376 0.124466933310031891 0.00635535037145018578
-0.0268552526831626892 0.166601493954658508 0.383034288883209229
-0.333854466676712036 -0.121131502091884613 0.100308559834957123
-0.325223565101623535 0.302773177623748779 -0.0367502421140670776
0.534333705902099609 -0.347030818462371826 0.0377354435622692108
0.525582790374755859 -0.332066446542739868 0.0344090797007083893
-0.595817148685455322 0.382006049156188965 0.113336324691772461
-0.0107881128787994385 -0.144365578889846802 -0.0269052274525165558
-0.235197603702545166 0.171898335218429565 -0.00168231048155575991
-0.485394150018692017 -0.0106545425951480865 0.177212700247764587
-0.27808806300163269 0.335932791233062744 0.0422255285084247589
0.513674736022949219 -0.349305301904678345 0.0969946533441543579
-0.44847753643989563 -0.03579678013920784 0.117401175200939178
0.434595763683319092 -0.253561735153198242 0.331775069236755371
0.415101796388626099 -0.278661340475082397 0.327246367931365967
-0.468819260597229004 0.034407835453748703 0.193578571081161499
0.502533793449401855 -0.339782208204269409 0.00786196812987327576
-0.481363654136657715 -0.00281946244649589062 0.177542507648468018
-0.377274990081787109 -0.106702595949172974 0.0928964465856552124
-0.500939905643463135 0.0221887975931167603 0.184320941567420959
0.361014991998672485 -0.287078768014907837 -0.141889438033103943
0.00189260242041200399 -0.231510266661643982 0.0900460854172706604
-0.140298381447792053 0.264889776706695557 0.0884353592991828918
-0.129601895809173584 0.254211008548736572 0.0714237689971923828
