ply
format ascii 1.0
element vertex 738
property float x
property float y
property float z
end_header
0.238250106573104858 -0.0763207152485847473 0.126643985509872437
-0.140474319458007812 0.296458899974822998 0.147614970803260803
-0.656195938587188721 0.17124311625957489 -0.112673200666904449
0.253463953733444214 -0.00963601376861333847 0.24973684549331665
0.250328421592712402 -0.179078832268714905 0.302538305521011353
-0.263251125812530518 -0.137520283460617065 -0.0678533390164375305
-0.200898617506027222 0.314281314611434937 0.0987586081027984619
0.257825970649719238 -0.278320074081420898 0.322891891002655029
0.178890809416770935 -0.0543515793979167938 -0.0512652471661567688
-0.443469226360321045 -0.0670719295740127563 0.128924816846847534
-0.503960072994232178 0.029763340950012207 0.246998563408851624
-0.497229129076004028 0.0361527279019355774 -0.011866716668009758
0.232775762677192688 0.0226788222789764404 0.313842564821243286
-0.37155267596244812 -0.0461484119296073914 0.143217876553535461
-0.349080979824066162 0.106284469366073608 0.0658052712678909302
0.30767861008644104 -0.199055850505828857 0.242740392684936523
0.308539301156997681 -0.0056865643709897995 0.219348564743995667
-0.442980259656906128 0.266427606344223022 -0.0374434776604175568
0.5171700119972229 -0.326950281858444214 -0.0814716815948486328
-0.538968861103057861 0.138181373476982117 -0.0973671600222587585
0.465880423784255981 -0.124699175357818604 0.00176417292095720768
-0.385516881942749023 0.255182772874832153 0.0325945168733596802
0.494031786918640137 -0.302252054214477539 0.120966121554374695
0.465445250272750854 -0.106424048542976379 0.0593680478632450104
0.203812241554260254 0.0149741051718592644 -0.0424928553402423859
-0.22466471791267395 0.295656800270080566 0.158510923385620117
-0.125209197402000427 -0.0493475906550884247 0.0106780845671892166
-0.231827348470687866 0.228295281529426575 0.348016202449798584
-0.380943983793258667 -0.0547150447964668274 0.145332813262939453
0.341328054666519165 -0.073993876576423645 0.0474583655595779419
-0.436109691858291626 -0.0126239825040102005 0.0338910855352878571
0.205498591065406799 0.0164218619465827942 0.0701615214347839355
0.0562608614563941956 -0.0862451866269111633 0.239115864038467407
-0.384033083915710449 -0.0599177181720733643 0.116436600685119629
-0.136881202459335327 -0.265342205762863159 -0.00134837266523391008
-0.243857502937316895 0.0633151605725288391 0.244688957929611206
-0.542250156402587891 0.210675135254859924 0.162578821182250977
-0.59088587760925293 0.287022024393081665 -0.0074503142386674881
0.307098358869552612 0.0174496229737997055 0.0426375679671764374
0.478481680154800415 -0.31519743800163269 -0.30553901195526123
0.503820598125457764 -0.345910012722015381 -0.0638782456517219543
0.471771508455276489 -0.30547177791595459 0.114977456629276276
0.527181804180145264 -0.303269565105438232 -0.109471127390861511
-0.403010129928588867 0.311380088329315186 0.134566888213157654
0.517932653427124023 -0.251671105623245239 -0.307532459497451782
0.50759434700012207 -0.329477429389953613 -0.314890563488006592
0.518940567970275879 -0.331694900989532471 0.0915316268801689148
0.477369874715805054 -0.304667174816131592 -0.303178578615188599
0.527643799781799316 -0.286004602909088135 -0.108089812099933624
-0.560062527656555176 0.267101675271987915 0.365454822778701782
-0.640271306037902832 0.289436519145965576 0.0850104093551635742
0.371405661106109619 -0.401592671871185303 -0.217643871903419495
-0.449880748987197876 -0.00137557077687233686 0.174971505999565125
0.176548853516578674 0.0727747082710266113 0.00640267273411154747
-0.453719049692153931 0.134372204542160034 -0.213814631104469299
0.403232991695404053 -0.336198598146438599 0.128900498151779175
-0.599028885364532471 0.207176819443702698 0.000648387882392853498
0.247633606195449829 -0.114824414253234863 -0.0710069984197616577
-0.483318418264389038 0.182462170720100403 -0.210218966007232666
-0.376206010580062866 -0.0634763985872268677 0.0915658622980117798
0.523038387298583984 -0.321300119161605835 0.0358117781579494476
0.54255521297454834 -0.217682585120201111 0.10818665474653244
0.525863766670227051 -0.273849040269851685 0.055243469774723053
0.111299552023410797 0.0839073359966278076 0.317113041877746582
-0.350975692272186279 -0.0482832826673984528 0.0448599271476268768
0.105210922658443451 0.0720379352569580078 0.295350074768066406
-0.165305957198143005 0.132822185754776001 0.151182428002357483
0.50287020206451416 -0.256833106279373169 -0.102575294673442841
0.42907106876373291 -0.304173916578292847 0.135874524712562561
-0.355776339769363403 -0.101803414523601532 0.158939868211746216
0.498733460903167725 -0.20194774866104126 -0.108053788542747498
-0.578540623188018799 0.34796983003616333 0.15199550986289978
0.105131193995475769 -0.0117778349667787552 0.020956285297870636
-0.34127160906791687 -0.12377399206161499 0.104478240013122559
-0.120716400444507599 -0.276040166616439819 0.173975512385368347
-0.161148250102996826 0.16714458167552948 0.325047284364700317
0.515137612819671631 -0.358945012092590332 0.0267468821257352829
0.521185040473937988 -0.287917047739028931 -0.011750311590731144
0.47905769944190979 -0.140216320753097534 0.107540376484394073
-0.18088039755821228 0.0289956517517566681 0.0257313624024391174
-0.341987550258636475 -0.121994636952877045 0.103620842099189758
-0.600243151187896729 0.376697123050689697 0.188252761960029602
-0.119704827666282654 -0.267131537199020386 0.218237519264221191
0.523569345474243164 -0.309181511402130127 -0.0748605206608772278
0.516377687454223633 -0.252485930919647217 -0.309656500816345215
0.455023646354675293 -0.308619171380996704 -0.294593155384063721
0.240758404135704041 -0.0962096527218818665 0.158520519733428955
-0.620245993137359619 0.272092372179031372 0.0370301082730293274
-0.429958462715148926 -0.00411660317331552505 0.17721383273601532
-0.250454485416412354 -0.137291297316551208 -0.0712384283542633057
0.317451387643814087 -0.319301187992095947 0.122475802898406982
0.53947901725769043 -0.250013470649719238 0.106577023863792419
0.452880114316940308 -0.140038445591926575 0.015319054014980793
0.429503947496414185 -0.321332663297653198 0.123662590980529785
0.413359761238098145 -0.331192612648010254 -0.209910586476325989
0.473999321460723877 -0.128787606954574585 0.109422028064727783
-0.548999249935150146 0.3784961998462677 0.172473818063735962
0.190616905689239502 -0.340188920497894287 -0.0134295029565691948
-0.201729565858840942 -0.13580457866191864 -0.0685934647917747498
-0.185525745153427124 0.31200110912322998 0.117751426994800568
0.103471286594867706 0.107582136988639832 0.174306169152259827
-0.444322437047958374 -0.0546423085033893585 0.0917307287454605103
-0.489377230405807495 0.0297846309840679169 0.0167192500084638596
0.23154604434967041 0.0108766155317425728 0.31492200493812561
-0.0246242992579936981 0.113033682107925415 0.312340050935745239
0.243415087461471558 -0.0388066992163658142 0.204548448324203491
-0.384863287210464478 0.245192438364028931 0.0341851077973842621
-0.654073715209960938 0.216563284397125244 -0.039369732141494751
0.483167082071304321 -0.116469293832778931 0.0233415160328149796
0.122328177094459534 0.0793624818325042725 0.138416662812232971
-0.381908267736434937 -0.0729165002703666687 0.095515027642250061
0.319863021373748779 -0.0725550353527069092 0.0622863322496414185
-0.440656721591949463 -0.0119571462273597717 0.00673477118834853172
-0.502205848693847656 0.233530387282371521 -0.0712201744318008423
-0.547259390354156494 0.203269913792610168 -0.0686294659972190857
0.0887164920568466187 0.0915392041206359863 0.0798755213618278503
-0.519890248775482178 0.204376056790351868 -0.0472805649042129517
-0.16819453239440918 0.0722126737236976624 0.232393205165863037
-0.0572823286056518555 -0.187182888388633728 0.026685025542974472
-0.212479740381240845 0.290686279535293579 0.109004788100719452
0.249797791242599487 -0.00558383762836456299 0.0222098492085933685
-0.5557822585105896 0.204196959733963013 0.118228964507579803
-0.457330495119094849 0.21627451479434967 0.024424087256193161
-0.462634772062301636 0.266347527503967285 -0.00283374846912920475
-0.575455009937286377 0.247442960739135742 -0.0765530243515968323
-0.389384001493453979 0.275006115436553955 -0.0842253640294075012
0.343949764966964722 -0.134843870997428894 0.318763077259063721
-0.498607933521270752 0.206663608551025391 -0.011724528856575489
-0.346012264490127563 0.292723625898361206 -0.0502428226172924042
0.526140153408050537 -0.361368268728256226 0.0416539311408996582
-0.539950847625732422 0.214974850416183472 0.20094926655292511
-0.569309592247009277 0.294257909059524536 -0.00326476944610476494
0.316777348518371582 0.0235791690647602081 0.0486237183213233948
0.482104033231735229 -0.307341217994689941 -0.303846806287765503
0.479871451854705811 -0.326593399047851562 0.125261604785919189
0.523332178592681885 -0.30732157826423645 -0.0988572239875793457
0.490455985069274902 -0.31110796332359314 -0.307606399059295654
0.516389966011047363 -0.325317144393920898 0.119728952646255493
0.444630175828933716 -0.300536900758743286 -0.290833652019500732
0.523350000381469727 -0.304871737957000732 -0.0975201278924942017
0.134396418929100037 0.11624358594417572 0.336958646774291992
-0.642415344715118408 0.242439225316047668 -0.00956050306558609009
-0.29266318678855896 -0.114273875951766968 -0.105812124907970428
0.539414882659912109 -0.255757421255111694 0.0920735076069831848
0.12925286591053009 0.0974432528018951416 0.31723332405090332
-0.235253319144248962 -0.143933609127998352 -0.0714730322360992432
0.252580463886260986 0.0298840124160051346 -0.0861036553978919983
0.531117618083953857 -0.323450207710266113 0.00669685937464237213
-0.599376559257507324 0.307222604751586914 0.104373477399349213
0.532270967960357666 -0.244928166270256042 0.0864222124218940735
-0.37409171462059021 -0.0611711591482162476 0.0922257900238037109
0.526696085929870605 -0.27563011646270752 -0.123405851423740387
-0.501194417476654053 0.148543983697891235 0.352937579154968262
0.385326504707336426 -0.297921717166900635 0.131714180111885071
0.132786840200424194 -0.332393109798431396 -0.10059405118227005
0.522907018661499023 -0.35518530011177063 -0.0150686493143439293
-0.436517715454101562 0.15028814971446991 -0.0851196199655532837
0.515933334827423096 -0.300401002168655396 0.0645789429545402527
0.39317852258682251 -0.368245244026184082 -0.213859707117080688
0.50071418285369873 -0.171698853373527527 0.129912763833999634
0.533389627933502197 -0.334317505359649658 0.0282601919025182724
-0.579958677291870117 0.348748594522476196 0.0401865839958190918
0.520060479640960693 -0.241239726543426514 -0.308900356292724609
-0.601055324077606201 0.370533287525177002 0.104547753930091858
-0.50069582462310791 0.146914675831794739 0.355142503976821899
0.234097510576248169 -0.278108805418014526 0.317286044359207153
-0.181365624070167542 -0.137422308325767517 -0.0557560175657272339
-0.228409558534622192 -0.138384893536567688 -0.0536409690976142883
-0.204281404614448547 0.298293769359588623 0.126590132713317871
0.262657076120376587 -0.28991401195526123 0.323580175638198853
-0.362313836812973022 -0.0308483242988586426 0.119447849690914154
-0.500152528285980225 0.0191221553832292557 0.0317556522786617279
0.243030473589897156 -4.63003016193397343e-05 0.322164565324783325
0.141449585556983948 -0.290711581707000732 0.311632275581359863
0.308253854513168335 -0.207771956920623779 0.248080193996429443
-0.386175036430358887 0.254722654819488525 0.0342392772436141968
0.531286358833312988 -0.262546628713607788 0.102802105247974396
0.224243149161338806 0.0225990582257509232 0.305318832397460938
0.530678510665893555 -0.1476631760597229 -0.308432161808013916
-0.644929230213165283 0.231215730309486389 -0.0476014725863933563
0.541414558887481689 -0.311252474784851074 -0.0445894710719585419
0.507893860340118408 -0.268072277307510376 -0.311680614948272705
0.514377355575561523 -0.316431879997253418 -0.295264959335327148
0.458926856517791748 -0.291214913129806519 -0.296766966581344604
-0.543190538883209229 0.268019974231719971 -0.189453989267349243
-0.621483087539672852 0.288851797580718994 0.0665471553802490234
0.363544106483459473 -0.38458290696144104 -0.206274300813674927
-0.0924253910779953003 0.26717078685760498 0.189201697707176208
-0.448533117771148682 0.13108527660369873 -0.208919495344161987
-0.575516760349273682 0.203623190522193909 -0.127204939723014832
-0.63013303279876709 0.19154822826385498 -0.0400321520864963531
-0.469840645790100098 0.138736158609390259 -0.231225654482841492
0.257805436849594116 -0.0172244478017091751 -0.072296634316444397
0.230673059821128845 0.0537497997283935547 -0.0453682541847229004
0.113203555345535278 0.109646260738372803 0.301496118307113647
-0.584190011024475098 0.218246579170227051 -0.22156873345375061
-0.598275065422058105 0.235101610422134399 -0.0109058823436498642
-0.367052346467971802 -0.0920492485165596008 0.122703887522220612
-0.330039322376251221 -0.125685423612594604 0.137158304452896118
-0.634663224220275879 0.199471399188041687 -0.0384478941559791565
-0.425732642412185669 -0.0552106089890003204 0.0990966632962226868
-0.478139340877532959 0.0198747385293245316 -0.0366979092359542847
0.208821520209312439 0.00846152100712060928 0.300699532032012939
-0.634244799613952637 0.247970923781394958 -0.00613239733502268791
-0.12801554799079895 0.269827455282211304 0.132075235247612
0.271203488111495972 -0.330536752939224243 0.179972186684608459
0.533178806304931641 -0.210364878177642822 -0.0990359708666801453
-0.126487791538238525 -0.112961180508136749 -0.0549894794821739197
0.454221338033676147 -0.339190453290939331 -0.298282355070114136
-0.212651893496513367 0.0360169336199760437 -0.0598634034395217896
-0.553255081176757812 0.175625160336494446 0.0126501070335507393
-0.198547929525375366 0.139497950673103333 0.0209620557725429535
-0.0125264329835772514 -0.102782793343067169 -0.0431611649692058563
0.264885514974594116 -0.275127410888671875 0.202318355441093445
0.348814219236373901 -0.321359097957611084 -0.000203696690732613206
-0.155952140688896179 0.0696224123239517212 0.0273436941206455231
-0.249253720045089722 0.130647078156471252 -0.034611973911523819
0.199272572994232178 0.00154902948997914791 0.0188656579703092575
0.0764577537775039673 0.080762520432472229 0.0237310845404863358
-0.283519923686981201 0.288254380226135254 -0.00608485564589500427
0.477005600929260254 -0.290101557970046997 -0.301926970481872559
-0.556958138942718506 0.265673846006393433 -0.0173904523253440857
-0.237438082695007324 0.0974713712930679321 -0.0326313935220241547
0.137952551245689392 -0.281109482049942017 0.149919271469116211
0.29651188850402832 -0.297626852989196777 0.0567553006112575531
-0.286108106374740601 0.257204204797744751 0.000393938622437417507
-0.0210177823901176453 -0.0405562110245227814 0.0888009443879127502
0.204662933945655823 0.0426676198840141296 0.0654986873269081116
-0.143734544515609741 -0.0854370594024658203 0.0915407687425613403
0.372685670852661133 -0.0735055431723594666 0.0313565023243427277
0.52148127555847168 -0.199299007654190063 -0.0987313389778137207
0.487145125865936279 -0.298098862171173096 -0.305581539869308472
0.480596661567687988 -0.315051734447479248 0.122155927121639252
0.513708949089050293 -0.307434827089309692 -0.102608233690261841
0.496064126491546631 -0.309729486703872681 -0.309947311878204346
0.506294727325439453 -0.328062772750854492 -0.00430858973413705826
0.511891603469848633 -0.324753642082214355 0.118191711604595184
0.465935677289962769 -0.289004772901535034 -0.296782165765762329
0.438064903020858765 -0.263673692941665649 -0.194511771202087402
0.135204285383224487 0.116891421377658844 0.336874395608901978
0.396690487861633301 -0.244479715824127197 0.318630367517471313
-0.601727426052093506 0.354288727045059204 0.0654281526803970337
-0.505326807498931885 0.357183367013931274 0.178202569484710693
0.542789757251739502 -0.282718926668167114 0.0977481454610824585
0.256529808044433594 0.0368509441614151001 -0.0723029673099517822
-0.233251810073852539 0.155866920948028564 -0.00546603323891758919
0.506284773349761963 -0.332230955362319946 -0.00273055769503116608
0.444860965013504028 -0.250257670879364014 -0.228237316012382507
-0.639247775077819824 0.254459023475646973 0.0544312372803688049
0.532763957977294922 -0.262883514165878296 0.0930598974227905273
-0.393272191286087036 -0.0595415420830249786 0.100285358726978302
0.524014770984649658 -0.289891839027404785 -0.0923039019107818604
0.0279864240437746048 -0.274499565362930298 -0.0355123914778232574
0.385291397571563721 -0.306263387203216553 0.118637427687644958
-0.582410752773284912 0.366838157176971436 0.131609559059143066
0.240340560674667358 0.00287007750011980534 0.180933669209480286
-0.113090634346008301 0.16545964777469635 0.347374945878982544
0.48229825496673584 -0.368614643812179565 -0.0222533438354730606
0.412285715341567993 -0.321433186531066895 -0.211247846484184265
0.507439136505126953 -0.155656322836875916 0.123825237154960632
0.528938233852386475 -0.334953963756561279 0.0126300686970353127
-0.584358334541320801 0.336423516273498535 0.0340076833963394165
-0.59098583459854126 0.381943851709365845 0.131170466542243958
0.526353120803833008 -0.244598865509033203 -0.310874432325363159
0.474476367235183716 -0.291024893522262573 -0.299678623676300049
-0.597450971603393555 0.353710472583770752 0.169561907649040222
-0.587577641010284424 0.371479630470275879 0.101013869047164917
-0.212222307920455933 -0.129888638854026794 -0.0578719340264797211
0.234425708651542664 -0.29320797324180603 0.314856082201004028
0.238149672746658325 0.0671227872371673584 0.319907277822494507
0.541965782642364502 -0.314093828201293945 -0.0583119988441467285
-0.44487375020980835 -0.0486579462885856628 0.126934200525283813
0.359579086303710938 -0.388661026954650879 -0.209219738841056824
-0.556795299053192139 0.211090698838233948 -0.113775782287120819
0.520899116992950439 -0.279804766178131104 -0.177329450845718384
0.242007702589035034 0.0347500666975975037 0.314387261867523193
0.242854759097099304 0.000403999205445870757 0.0234397482126951218
0.380809128284454346 0.0388778373599052429 0.0116774346679449081
0.526825785636901855 -0.230891153216362 -0.310382485389709473
0.327098309993743896 0.0962616205215454102 -0.0361354351043701172
-0.37444719672203064 -0.0605809912085533142 -0.133061826229095459
0.513063430786132812 -0.167659908533096313 0.135722696781158447
-0.574729621410369873 0.322016865015029907 0.0493722632527351379
-0.559248089790344238 0.283425897359848022 0.363993793725967407
0.224499613046646118 0.0319419614970684052 -0.0584233552217483521
-0.574576735496520996 0.214559972286224365 -0.221204936504364014
-0.0443447120487689972 0.15656733512878418 0.0810070186853408813
0.114117085933685303 0.11007014662027359 0.0252312980592250824
0.342810451984405518 -0.247203215956687927 -0.0970970094203948975
-0.285301566123962402 0.300459235906600952 -0.00297628459520637989
0.153339669108390808 -0.00443622702732682228 -0.00379284610971808434
0.069069691002368927 0.138856619596481323 0.0754524543881416321
-0.270284593105316162 0.280200004577636719 0.00154389254748821259
0.503440618515014648 -0.292857885360717773 -0.159567490220069885
0.136999443173408508 -0.0258845407515764236 0.0128971301019191742
-0.339231014251708984 -0.0322446972131729126 0.0226404909044504166
0.373500585556030273 -0.0919112786650657654 0.0440734550356864929
0.199998572468757629 0.101300016045570374 -0.00203891959972679615
-0.297462135553359985 -0.0252617634832859039 0.0357716865837574005
0.131793081760406494 -0.0178775303065776825 -0.0263162292540073395
0.101421289145946503 0.0160019677132368088 0.091016918420791626
0.175736352801322937 0.119412124156951904 0.0378175005316734314
-0.230669885873794556 -0.0638987421989440918 0.104495257139205933
0.486130177974700928 -0.29696229100227356 -0.303809970617294312
-0.603415369987487793 0.289490014314651489 0.185002431273460388
0.467319309711456299 -0.308929681777954102 0.119910985231399536
0.378373265266418457 -0.0144650973379611969 0.00615530973300337791
0.514459550380706787 -0.295565217733383179 -0.103701740503311157
0.518893778324127197 -0.239987388253211975 -0.307882249355316162
0.477962344884872437 -0.310032427310943604 -0.300562828779220581
0.483437955379486084 -0.274807095527648926 -0.300194710493087769
0.117253318428993225 0.118777535855770111 0.297439813613891602
-0.584432423114776611 0.356356203556060791 0.0656485185027122498
0.383835792541503906 -0.337559252977371216 0.125334054231643677
-0.574714124202728271 0.317679524421691895 -0.0267198607325553894
-0.604676544666290283 0.217060461640357971 -0.0870741233229637146
0.267801612615585327 0.0392525866627693176 -0.0864997059106826782
-0.356623411178588867 -0.02245345339179039 -0.131354182958602905
-0.564521074295043945 0.314308643341064453 -0.00807853508740663528
0.190666869282722473 -0.341134577989578247 -0.0749879851937294006
0.404202848672866821 -0.357935190200805664 -0.224298954010009766
-0.500444412231445312 0.145497754216194153 0.354486227035522461
0.509741067886352539 -0.151616781949996948 0.114795424044132233
0.496899455785751343 -0.264205425977706909 -0.304676800966262817
0.458019047975540161 -0.281173795461654663 -0.290031135082244873
0.440977215766906738 -0.265244454145431519 -0.283987611532211304
-0.588249146938323975 0.357460826635360718 0.0615626201033592224
0.505348145961761475 -0.126921370625495911 0.124213710427284241
-0.206385895609855652 0.312463760375976562 0.108573511242866516
0.268248200416564941 -0.28422468900680542 0.319037407636642456
0.232625618577003479 0.00349228736013174057 0.317689120769500732
0.51331174373626709 -0.175897225737571716 -0.282044857740402222
-0.115332461893558502 0.00971927028149366379 0.00567767815664410591
0.403934121131896973 -0.359964638948440552 -0.224922224879264832
0.4177265465259552 -0.313479304313659668 0.143593236804008484
-0.555731356143951416 0.376497775316238403 0.186625257134437561
-0.175785258412361145 0.309137225151062012 0.118249490857124329
-0.389980792999267578 0.275978565216064453 -0.0852263271808624268
0.365372449159622192 0.0518212653696537018 0.0243847202509641647
0.129228502511978149 0.115677066147327423 0.318670272827148438
-0.286723196506500244 -0.10094759613275528 -0.0922631323337554932
0.258193343877792358 0.100919634103775024 -0.0622665174305438995
-0.361460983753204346 -0.0601391792297363281 -0.144326388835906982
0.134181752800941467 0.113640882074832916 0.337618201971054077
-0.563344419002532959 0.199203506112098694 -0.22918565571308136
-0.276626914739608765 0.287980943918228149 -0.00108401407487690449
0.454934179782867432 -0.246725618839263916 -0.28857797384262085
0.46028292179107666 -0.275702595710754395 -0.291099011898040771
-0.635070860385894775 0.308126449584960938 0.170210167765617371
0.512595713138580322 -0.317727655172348022 -0.038784421980381012
0.468986958265304565 -0.266094684600830078 -0.298229515552520752
0.478202283382415771 -0.295325130224227905 -0.300502955913543701
0.458191514015197754 -0.246508970856666565 -0.290149718523025513
0.381168603897094727 -0.361303329467773438 -0.214109957218170166
-0.479587346315383911 -0.0127966161817312241 0.185691177845001221
-0.516698718070983887 0.365760982036590576 0.173903197050094604
-0.618755698204040527 0.201943308115005493 -0.0873368009924888611
-0.237458392977714539 0.0185931026935577393 -0.0727582946419715881
-0.382748126983642578 -0.0593343600630760193 0.0235294997692108154
0.474988251924514771 -0.368602991104125977 0.0216235555708408356
-0.649465441703796387 0.23669038712978363 0.0320594124495983124
0.412632286548614502 -0.347028911113739014 -0.221896529197692871
0.526196181774139404 -0.337385565042495728 0.0798907801508903503
0.506086587905883789 -0.239290416240692139 -0.308344662189483643
0.24959893524646759 -0.282412290573120117 0.31809428334236145
0.239304989576339722 0.066552288830280304 0.314451515674591064
0.539676666259765625 -0.302092492580413818 -0.0938766524195671082
-0.448029607534408569 -0.0416560433804988861 0.126366108655929565
-0.0438901446759700775 0.104403696954250336 0.31762734055519104
0.248063325881958008 0.0209897849708795547 0.322017788887023926
-0.285046249628067017 -0.100079283118247986 -0.0992813408374786377
-0.137871652841567993 -0.015315779484808445 -0.0490381903946399689
-0.278063684701919556 0.337862282991409302 0.0468265004456043243
-0.254898607730865479 0.289879798889160156 -0.0034193769097328186
-0.219061747193336487 0.321886390447616577 0.0696685239672660828
-0.573456227779388428 0.152135536074638367 -0.0746617764234542847
-0.290147662162780762 0.292680323123931885 0.0158668551594018936
0.525760233402252197 -0.320902049541473389 0.0269920825958251953
0.346215695142745972 -0.0305785536766052246 -0.0347107984125614166
0.522380053997039795 -0.363154053688049316 0.0892297029495239258
-0.0833726152777671814 -0.112082317471504211 0.0782710909843444824
-0.404183447360992432 0.326022326946258545 0.121074497699737549
0.504878759384155273 -0.367333590984344482 -0.00467309821397066116
-0.118788838386535645 0.266079246997833252 0.120759561657905579
0.518854141235351562 -0.34320068359375 0.0356651581823825836
0.130288511514663696 -0.334899872541427612 0.301102548837661743
0.466763287782669067 -0.311284661293029785 0.0722815245389938354
0.48299252986907959 -0.37425658106803894 0.0521516464650630951
0.421238303184509277 -0.0261213257908821106 0.0646448433399200439
0.494270831346511841 -0.363795429468154907 -0.015725012868642807
-0.233113974332809448 0.28713265061378479 0.0839579775929450989
0.531346976757049561 -0.332007765769958496 -0.00741339381784200668
-0.272122651338577271 0.315388798713684082 0.113798663020133972
0.308362782001495361 0.00253015337511897087 0.0460754409432411194
0.467468857765197754 -0.263701766729354858 -0.296301066875457764
0.473967909812927246 -0.304551482200622559 0.114063121378421783
0.511278510093688965 -0.313900798559188843 -0.104596801102161407
0.509235501289367676 -0.24564044177532196 -0.308662384748458862
0.447991877794265747 -0.292807698249816895 -0.29298749566078186
0.466437995433807373 -0.283572942018508911 -0.297506660223007202
0.138416126370429993 0.112759910523891449 0.336558103561401367
-0.652303993701934814 0.285698473453521729 0.0978466197848320007
-0.638505458831787109 0.244773104786872864 -0.0383577272295951843
0.13639010488986969 0.0692222639918327332 0.337682962417602539
-0.577313661575317383 0.303793758153915405 -0.0557172782719135284
0.262579411268234253 0.0304252691566944122 -0.0737079009413719177
0.542110323905944824 -0.216913670301437378 0.111384600400924683
-0.360254526138305664 -0.0361058376729488373 -0.13453267514705658
-0.57495725154876709 0.327490627765655518 -0.0297262296080589294
-0.361935734748840332 -0.071286618709564209 -0.0341858230531215668
-0.130658328533172607 -0.267962336540222168 0.118902511894702911
0.495246559381484985 -0.366089344024658203 -0.000558856292627751827
0.373858988285064697 -0.359701633453369141 -0.210276007652282715
-0.378518432378768921 -0.107263267040252686 0.10113060474395752
-0.0671615228056907654 -0.264334052801132202 0.296329021453857422
0.519917428493499756 -0.243591442704200745 -0.309681206941604614
0.509583473205566406 -0.330811470746994019 0.0150837786495685577
-0.593556821346282959 0.369011551141738892 0.120427429676055908
-0.655554413795471191 0.175576135516166687 -0.103173293173313141
-0.223166465759277344 -0.144537508487701416 -0.05394730344414711
-0.191373750567436218 0.316649526357650757 0.100525662302970886
0.256704002618789673 -0.283701181411743164 0.319528341293334961
0.23927094042301178 0.0321791991591453552 0.318924456834793091
-0.120210245251655579 -0.0463502183556556702 0.00707435468211770058
-0.64175105094909668 0.308640420436859131 0.101709887385368347
0.364742249250411987 -0.374251276254653931 -0.207189470529556274
0.537895441055297852 -0.21792331337928772 0.161677643656730652
-0.552948117256164551 0.382498443126678467 0.157820388674736023
-0.122574679553508759 0.259291768074035645 0.114891894161701202
0.119501404464244843 0.102415412664413452 0.0892087295651435852
-0.375647217035293579 0.265816330909729004 -0.0897672772407531738
0.51701509952545166 -0.349299073219299316 0.0985953062772750854
-0.293698817491531372 -0.107548296451568604 -0.109524928033351898
0.275114595890045166 0.102978840470314026 -0.0579058416187763214
-0.575310885906219482 0.219472721219062805 -0.212798580527305603
-0.115607321262359619 0.268581956624984741 0.179582744836807251
0.236051410436630249 -0.288190573453903198 0.314215242862701416
0.310248345136642456 -0.187497183680534363 0.24083845317363739
0.54187619686126709 -0.326092153787612915 -0.0211117248982191086
0.0789508447051048279 -0.33801838755607605 0.282051503658294678
-0.0064619109034538269 -0.17217254638671875 0.00400964170694351196
-0.282429963350296021 0.261713027954101562 0.0068325921893119812
0.513169407844543457 -0.237360373139381409 -0.309678763151168823
-0.647109270095825195 0.278247445821762085 0.0793794170022010803
-0.646487236022949219 0.183093711733818054 -0.0910233259201049805
0.514222204685211182 -0.322766989469528198 0.0240956172347068787
-0.4070853590965271 -0.0639393404126167297 0.113330692052841187
0.516930162906646729 -0.3559703528881073 -0.0208166297525167465
-0.566760540008544922 0.374367833137512207 0.152325436472892761
0.236026600003242493 0.0429959520697593689 0.313470959663391113
-0.664985537528991699 0.227081254124641418 0.022944210097193718
-0.448238164186477661 -0.038755711168050766 0.126874968409538269
0.503075838088989258 -0.302545815706253052 -0.179096996784210205
-0.589306175708770752 0.361070543527603149 0.0859286785125732422
-0.194216132164001465 0.314922332763671875 0.10464390367269516
0.247047066688537598 0.0238949544727802277 0.323611706495285034
0.531016170978546143 -0.32406124472618103 -0.0582820847630500793
-0.182956010103225708 0.307020574808120728 0.128257825970649719
0.247291848063468933 0.00696113845333456993 0.323744595050811768
0.0586805455386638641 0.139636635780334473 0.345512449741363525
-0.505869388580322266 0.149301633238792419 0.356687098741531372
0.270761877298355103 -0.31145438551902771 0.32607567310333252
-0.253893375396728516 0.0233314614742994308 -0.0709681883454322815
0.241100609302520752 -0.295503199100494385 0.322319477796554565
0.249083861708641052 0.0437854118645191193 0.314198791980743408
0.468513846397399902 -0.102087058126926422 0.0343821384012699127
-0.124832846224308014 0.195059552788734436 0.115160465240478516
0.239988610148429871 -0.32683718204498291 0.317773342132568359
0.500364840030670166 -0.366852343082427979 0.0744651854038238525
0.523552536964416504 -0.324970811605453491 0.0260156299918889999
0.444722503423690796 -0.253428131341934204 0.332186311483383179
0.321568816900253296 -0.131623685359954834 -0.106927312910556793
0.0633676648139953613 -0.0108699928969144821 0.321473747491836548
0.511413395404815674 -0.361153841018676758 0.0473234616219997406
0.135719478130340576 -0.100879713892936707 0.0402696728706359863
0.0495426580309867859 0.0114119108766317368 0.029443744570016861
0.0207915399223566055 0.0481170713901519775 0.0423088856041431427
0.0881458818912506104 -0.0662198960781097412 0.289413571357727051
-0.16220836341381073 -0.266049325466156006 0.14780348539352417
0.265065222978591919 -0.0202550608664751053 0.0612839572131633759
-0.0289571825414896011 -0.0291879549622535706 0.295333802700042725
0.502239346504211426 -0.240607351064682007 -0.30226290225982666
0.475997656583786011 -0.31526637077331543 -0.302197247743606567
-0.631051003932952881 0.306275516748428345 0.167194366455078125
0.475603580474853516 -0.321070045232772827 0.120830200612545013
0.509191155433654785 -0.301123529672622681 -0.105761192739009857
0.528283953666687012 -0.275197356939315796 -0.31743583083152771
0.49360734224319458 -0.332736104726791382 -0.310946375131607056
0.503648698329925537 -0.320392578840255737 0.0978245586156845093
0.474248111248016357 -0.306099027395248413 -0.298351138830184937
-0.559480607509613037 0.268066853284835815 0.364319294691085815
0.125090822577476501 0.116807237267494202 0.313971072435379028
-0.633703470230102539 0.282216936349868774 0.054116375744342804
-0.587493479251861572 0.362825483083724976 0.102265886962413788
0.371580809354782104 -0.374403119087219238 -0.21296653151512146
0.438589006662368774 -0.348249346017837524 0.154160752892494202
0.0581655986607074738 0.121249251067638397 0.320887476205825806
-0.574708938598632812 0.36884152889251709 0.215375706553459167
0.264840662479400635 0.0245305001735687256 -0.0589102320373058319
0.368920594453811646 -0.337065964937210083 0.160436257719993591
0.51063239574432373 -0.301843911409378052 -0.112210072576999664
0.133679687976837158 -0.32101014256477356 -0.0980159863829612732
0.516709506511688232 -0.349093496799468994 -0.0204741321504116058
0.389378339052200317 -0.347119539976119995 -0.214326784014701843
-0.577153980731964111 0.319077521562576294 0.0406287983059883118
0.536100685596466064 -0.27816849946975708 -0.320838809013366699
0.467956066131591797 -0.311236411333084106 -0.299487441778182983
0.507337450981140137 -0.347427695989608765 0.0177492313086986542
-0.556039094924926758 0.309714347124099731 0.102086812257766724
0.193980157375335693 -0.339746862649917603 -0.0593952462077140808
0.0701538622379302979 -0.282655298709869385 -0.0781424269080162048
0.252578675746917725 -0.250543802976608276 0.319988906383514404
0.2400655597448349 0.0308207161724567413 0.31670224666595459
-0.121071606874465942 -0.0481505431234836578 0.00792902335524559021
0.178871244192123413 -0.100429698824882507 -0.0150495152920484543
0.532607436180114746 -0.332615107297897339 -0.0133527452126145363
0.370449334383010864 -0.349848479032516479 -0.209107130765914917
0.535147190093994141 -0.246094807982444763 0.177097141742706299
0.561226367950439453 -0.316132456064224243 -0.33116459846496582
0.554726541042327881 -0.21197231113910675 0.13374096155166626
-0.543411791324615479 0.380798161029815674 0.164359524846076965
0.123005703091621399 0.117083624005317688 0.132889047265052795
-0.582373976707458496 0.351940006017684937 0.0976559817790985107
-0.481706976890563965 0.185826048254966736 -0.0916962176561355591
0.515796065330505371 -0.339496493339538574 0.0386576689779758453
0.253584176301956177 -0.279475420713424683 0.321812748908996582
0.278626471757888794 -0.356355994939804077 -0.126280516386032104
0.508006751537322998 -0.286986321210861206 -0.313909202814102173
-0.43222278356552124 -0.0576123036444187164 0.116554826498031616
0.202134013175964355 0.0903832018375396729 0.223147287964820862
0.244446441531181335 0.104470327496528625 -0.0574751272797584534
-0.195759862661361694 0.201447486877441406 0.349119842052459717
0.250630408525466919 0.0247835386544466019 0.323135823011398315
0.23998434841632843 0.018869452178478241 0.320828109979629517
-0.03139447420835495 0.162608876824378967 0.382456362247467041
-0.482582956552505493 -0.0160097889602184296 0.180042862892150879
0.48399081826210022 -0.369424313306808472 0.0459047295153141022
-0.643631696701049805 0.287066668272018433 0.086095564067363739
0.276102632284164429 -0.166128054261207581 -0.0707225650548934937
-0.411890298128128052 -0.0572907663881778717 0.0787656158208847046
-0.643144488334655762 0.17555217444896698 -0.0821117013692855835
-0.226006746292114258 -0.134424269199371338 -0.0524069294333457947
0.255089044570922852 -0.265881776809692383 0.32097288966178894
-0.345437079668045044 0.0169413778930902481 -0.117085903882980347
-0.287222325801849365 -0.0920466035604476929 -0.106693804264068604
-0.585207581520080566 0.209677010774612427 -0.218104109168052673
0.267746716737747192 -0.29734957218170166 0.315052807331085205
-0.0255763567984104156 -0.187745258212089539 -0.0436900146305561066
-0.618187546730041504 0.276853829622268677 0.0312930755317211151
-0.608961701393127441 0.298185855150222778 0.0923641994595527649
-0.397627741098403931 -0.0632899254560470581 0.118751518428325653
-0.451775103807449341 -0.0385860651731491089 0.119357921183109283
0.43129730224609375 -0.27206653356552124 0.329062670469284058
-0.0523932203650474548 0.140623018145561218 0.0915037170052528381
-0.50313568115234375 0.150926664471626282 0.3553028404712677
0.240950465202331543 -0.319657623767852783 0.322671383619308472
0.497371941804885864 -0.371243894100189209 0.0572257228195667267
0.399489253759384155 -0.2571830153465271 0.322335034608840942
-0.158357366919517517 -0.264023184776306152 0.181444451212882996
-0.499254405498504639 0.013665403239428997 0.157962054014205933
0.417772859334945679 -0.297705918550491333 0.328613311052322388
0.535529673099517822 -0.340608030557632446 -0.018581882119178772
0.344460099935531616 -0.267822772264480591 -0.128051355481147766
-0.496564537286758423 0.0716730505228042603 0.20386052131652832
0.443841367959976196 -0.272510230541229248 0.333291441202163696
0.522275209426879883 -0.33581012487411499 0.0326598696410655975
0.453516453504562378 -0.320373415946960449 -0.2932281494140625
0.47448614239692688 -0.312080830335617065 0.116567417979240417
0.517387926578521729 -0.27887040376663208 -0.313020467758178711
0.502818763256072998 -0.326418101787567139 -0.314512789249420166
0.518370449542999268 -0.32751891016960144 0.10179031640291214
0.479476213455200195 -0.311900913715362549 -0.302367746829986572
0.114683903753757477 0.118405885994434357 0.288828402757644653
-0.121924825012683868 0.268522948026657104 0.158598318696022034
-0.614934384822845459 0.265320003032684326 0.0519916228950023651
-0.479469358921051025 0.00266749993897974491 0.181220307946205139
0.42692255973815918 -0.355443507432937622 0.158442035317420959
-0.292394965887069702 -0.111134208738803864 -0.105949148535728455
0.130635812878608704 0.0652938857674598694 0.321046799421310425
0.253900855779647827 0.0384593941271305084 -0.0780239701271057129
0.23566754162311554 0.0936861038208007812 -0.0532995238900184631
0.417863368988037109 -0.261999309062957764 -0.202543318271636963
0.521920442581176758 -0.355093628168106079 -0.0195984486490488052
-0.609006941318511963 0.381018579006195068 0.181146889925003052
0.517738640308380127 -0.279771536588668823 -0.314943104982376099
0.499361038208007812 -0.35043865442276001 0.0239417869597673416
-0.587977230548858643 0.369201213121414185 0.112951204180717468
0.506242692470550537 -0.1050291508436203 0.147116392850875854
-0.198076844215393066 0.311454236507415771 0.112763091921806335
0.264195263385772705 -0.286932587623596191 0.319641292095184326
0.237101316452026367 0.0619455203413963318 0.310361981391906738
-0.144523173570632935 -0.0438953451812267303 0.00399756012484431267
-0.657897114753723145 0.214480772614479065 -0.046271350234746933
-0.288674980401992798 -0.0764714479446411133 -0.0687895268201828003
0.22741660475730896 0.0419319160282611847 -0.0483762398362159729
0.551808953285217285 -0.144819080829620361 0.131876587867736816
0.520018815994262695 -0.295779496431350708 0.074754565954208374
0.517786860466003418 -0.284512996673583984 -0.181360989809036255
-0.358156174421310425 -0.0175492912530899048 -0.028102535754442215
0.0916009172797203064 0.0879755467176437378 0.0855624750256538391
0.466877132654190063 -0.362348854541778564 -0.010813872329890728
-0.433044672012329102 0.157460913062095642 -0.0666200295090675354
0.524043798446655273 -0.3360748291015625 0.0687649250030517578
0.263054937124252319 -0.286301851272583008 0.31836429238319397
0.00939524639397859573 -0.0913940891623497009 -0.0263359583914279938
0.0325989983975887299 -0.130808919668197632 0.0216581188142299652
-0.630847036838531494 0.26483231782913208 0.0289565026760101318
0.242308378219604492 0.0741244405508041382 0.318629711866378784
0.240373104810714722 0.0293451212346553802 0.318715721368789673
-0.174855530261993408 0.300729453563690186 0.116134725511074066
0.304804563522338867 -0.151607811450958252 0.307641774415969849
0.262088209390640259 -0.291104674339294434 0.320850580930709839
-0.476293623447418213 -0.00860390346497297287 0.166095659136772156
0.242945060133934021 0.0815655738115310669 0.31198728084564209
0.520465493202209473 -0.351731449365615845 0.081803150475025177
-0.0348941050469875336 -0.23809206485748291 0.123919740319252014
-0.638447403907775879 0.289848506450653076 0.0987214967608451843
-0.234324827790260315 -0.133400425314903259 -0.0581912510097026825
-0.379367440938949585 -0.109342269599437714 0.105398580431938171
-0.236534714698791504 -0.148436382412910461 -0.0580359175801277161
-0.658107936382293701 0.214175194501876831 -0.0339774079620838165
0.529104173183441162 -0.353064864873886108 0.0777462869882583618
-0.621291995048522949 0.270098894834518433 0.052389342337846756
-0.404248178005218506 -0.0648367702960968018 0.111924923956394196
-0.446434319019317627 -0.0419758111238479614 0.121862947940826416
0.268158793449401855 -0.285991966724395752 0.323325455188751221
0.127706393599510193 -0.327052801847457886 0.312435925006866455
0.152372464537620544 -0.343538612127304077 0.317711710929870605
0.447842150926589966 -0.336137592792510986 -0.293199419975280762
0.515936672687530518 -0.303421676158905029 -0.108128964900970459
0.515359997749328613 -0.280743211507797241 -0.313038825988769531
0.484983652830123901 -0.328187257051467896 -0.309995919466018677
0.464456468820571899 -0.346403211355209351 -0.302869141101837158
0.549729764461517334 -0.210675910115242004 -0.316195279359817505
0.524222970008850098 -0.300537019968032837 -0.322687298059463501
0.518088400363922119 -0.301348567008972168 -0.318583458662033081
0.247028186917304993 0.0568349361419677734 0.316224336624145508
0.241513952612876892 0.0873220935463905334 0.312554299831390381
-0.291849374771118164 -0.101134262979030609 -0.102081187069416046
-0.453691065311431885 -0.0524670854210853577 0.116957329213619232
0.404958546161651611 -0.272610098123550415 0.322381496429443359
-0.502512931823730469 0.00335690146312117577 0.189006775617599487
0.401247590780258179 -0.28759455680847168 0.324698954820632935
0.399397552013397217 -0.273906111717224121 0.32317689061164856
0.342419654130935669 -0.259368479251861572 0.0899331569671630859
-0.0187886394560337067 -0.244882270693778992 0.12849193811416626
-0.46461951732635498 0.0355928689241409302 0.189427375793457031
-0.194466918706893921 0.221408441662788391 0.171883285045623779
0.367007583379745483 -0.329723894596099854 -0.0236888565123081207
0.323519110679626465 -0.390607714653015137 -0.159068912267684937
0.535609781742095947 -0.324068814516067505 -0.0583828464150428772
-0.441876381635665894 -0.00516187213361263275 0.152575045824050903
-0.0191196165978908539 -0.0598844364285469055 0.14154091477394104
-0.000224888048251159489 -0.236612632870674133 0.106204785406589508
0.526395857334136963 -0.202190205454826355 -0.0802164450287818909
0.449904590845108032 -0.30881461501121521 -0.293087929487228394
0.526956081390380859 -0.275900036096572876 -0.315890491008758545
0.500014245510101318 -0.325367897748947144 -0.312882781028747559
0.475328445434570312 -0.305528432130813599 -0.2976035475730896
-0.127493277192115784 0.246471896767616272 0.138781607151031494
-0.649148046970367432 0.28187185525894165 0.0941065698862075806
-0.199064731597900391 0.286545395851135254 0.335742831230163574
0.49822571873664856 -0.0870331823825836182 0.136480808258056641
0.200833484530448914 -0.359680593013763428 -0.0910176709294319153
0.505591094493865967 -0.368121832609176636 -0.0228574518114328384
0.527465999126434326 -0.243040174245834351 0.172799110412597656
-0.586130142211914062 0.379238337278366089 0.170533314347267151
0.445120900869369507 -0.315408915281295776 -0.287961572408676147
0.498801946640014648 -0.111413188278675079 0.111993245780467987
-0.655933141708374023 0.175259768962860107 -0.103870376944541931
-0.202055200934410095 0.308649599552154541 0.0889768823981285095
0.201438441872596741 -0.0138503629714250565 0.295087218284606934
0.160124629735946655 -0.0624859891831874847 -0.0442824661731719971
-0.579716324806213379 0.302133649587631226 0.368531584739685059
0.275219738483428955 0.098211333155632019 -0.0293320249766111374
-0.435416728258132935 0.155160650610923767 -0.0861430764198303223
0.534638881683349609 -0.33346828818321228 0.0125931156799197197
-0.568923056125640869 0.197117730975151062 -0.229194745421409607
-0.497778892517089844 0.0446452461183071136 -0.086976565420627594
0.0314615294337272644 -0.104391202330589294 0.0328107438981533051
0.534210383892059326 -0.264934182167053223 -0.316536664962768555
0.00983490049839019775 0.197510331869125366 0.0273732282221317291
0.302313506603240967 0.0386786125600337982 -0.0846950560808181763
-0.332271546125411987 -0.0164032820612192154 -0.107850439846515656
0.236643582582473755 0.0142233138903975487 0.321633636951446533
0.125166475772857666 0.0127420378848910332 0.29877781867980957
0.527720808982849121 -0.355584979057312012 0.066192232072353363
0.467223167419433594 -0.310292273759841919 -0.233320936560630798
-0.652127504348754883 0.28521418571472168 0.104212671518325806
0.546808600425720215 -0.220309838652610779 0.163356155157089233
0.528233349323272705 -0.32379421591758728 -0.0161998756229877472
-0.383066773414611816 -0.0568269602954387665 0.0760981738567352295
0.457027167081832886 -0.311296612024307251 -0.292784243822097778
0.505088210105895996 -0.340294152498245239 -0.318117380142211914
0.478944927453994751 -0.314777135848999023 -0.299725979566574097
0.5204964280128479 -0.301753103733062744 -0.317547410726547241
-0.00223603518679738045 -0.140417665243148804 -0.0250050853937864304
0.397731274366378784 -0.273463994264602661 0.323351860046386719
0.401402831077575684 -0.271890193223953247 0.323656857013702393
0.50631338357925415 -0.332377642393112183 0.105717532336711884
-0.467615097761154175 0.0421336852014064789 0.170539587736129761
0.410253047943115234 -0.34626123309135437 0.15646025538444519
-0.36086803674697876 -0.0357170738279819489 -0.148235633969306946
-0.128191560506820679 -0.268203318119049072 0.112263709306716919
0.512811243534088135 -0.369458913803100586 -0.0147996563464403152
-0.213683411478996277 0.312451392412185669 0.0975127220153808594
0.250753581523895264 -0.287447661161422729 0.322788745164871216
0.209117650985717773 0.00919420458376407623 -0.04631052166223526
0.0700753331184387207 -0.151922926306724548 -0.0174218285828828812
-0.169693335890769958 0.304684847593307495 0.118698708713054657
0.471337050199508667 -0.364765018224716187 0.00691244378685951233
-0.290969640016555786 -0.0999237746000289917 -0.103338852524757385
0.036549743264913559 -0.150095492601394653 -0.0218876935541629791
0.23239484429359436 0.0560580864548683167 0.309046536684036255
0.253560841083526611 -0.289009451866149902 0.320570439100265503
-0.471711397171020508 0.000796302745584398508 0.168559685349464417
0.241218417882919312 0.0625203326344490051 0.312945634126663208
0.509199202060699463 -0.352426767349243164 0.0638393312692642212
0.227576315402984619 -0.315175861120223999 0.314475536346435547
-0.37536129355430603 -0.0935970917344093323 0.0860761404037475586
-0.0626473203301429749 -0.242042601108551025 0.302440851926803589
-0.222672343254089355 -0.128131568431854248 -0.0532542504370212555
-0.409864574670791626 -0.0658545643091201782 0.0984175354242324829
-0.444977939128875732 -0.0450989753007888794 0.132637381553649902
0.239142432808876038 -0.294400274753570557 0.314345598220825195
0.154046580195426941 -0.324736326932907104 0.320022255182266235
0.425547182559967041 -0.25636705756187439 0.32850220799446106
0.438392788171768188 -0.343366831541061401 -0.292852431535720825
0.506508111953735352 -0.334994494915008545 -0.318262994289398193
0.445244342088699341 -0.352715164422988892 -0.28690674901008606
0.238483965396881104 0.0655847042798995972 0.31222456693649292
0.403475403785705566 -0.287823021411895752 0.325823426246643066
-0.49473455548286438 0.00639013480395078659 0.188291460275650024
0.486074745655059814 -0.0634518638253211975 0.131606712937355042
0.0126617429777979851 -0.171155065298080444 0.00968252215534448624
0.531809747219085693 -0.307997524738311768 -0.062351226806640625
0.315015405416488647 -0.302675217390060425 -0.126980289816856384
0.446092486381530762 -0.291740834712982178 -0.285825580358505249
