ply
format ascii 1.0
element vertex 738
property float x
property float y
property float z
end_header
0.522402465343475342 -0.320694893598556519 0.0357522666454315186
0.541938364505767822 -0.217111527919769287 0.108108401298522949
0.525232076644897461 -0.27325710654258728 0.0551777072250843048
0.110807247459888458 0.0845256820321083069 0.317142874002456665
-0.351330548524856567 -0.0474601499736309052 0.0450612381100654602
0.104712270200252533 0.0726722776889801025 0.295382469892501831
-0.165662273764610291 0.133500665426254272 0.151323437690734863
0.502245187759399414 -0.256252765655517578 -0.102611109614372253
0.428412586450576782 -0.303558856248855591 0.13580457866191864
-0.35611763596534729 -0.100973054766654968 0.159119635820388794
0.498117804527282715 -0.201390698552131653 -0.108093857765197754
-0.578707277774810791 0.348470777273178101 0.152283802628517151
0.104553721845149994 -0.0111246462911367416 0.0210248343646526337
-0.341641455888748169 -0.122921228408813477 0.104663558304309845
-0.121198303997516632 -0.275207072496414185 0.174068108201026917
-0.161443635821342468 0.167781427502632141 0.325167924165725708
0.514497101306915283 -0.358329713344573975 0.0266903787851333618
0.520552754402160645 -0.287322431802749634 -0.0118031268939375877
0.478430718183517456 -0.139666840434074402 0.10746176540851593
-0.181292921304702759 0.0297355707734823227 0.0258851703256368637
-0.342356979846954346 -0.121142290532588959 0.103806816041469574
-0.600398063659667969 0.377176403999328613 0.188546061515808105
-0.12016616016626358 -0.266322344541549683 0.218315377831459045
0.522944867610931396 -0.308585584163665771 -0.0748987197875976562
0.515803217887878418 -0.251924842596054077 -0.309639722108840942
0.454414427280426025 -0.308022260665893555 -0.294576793909072876
0.240131869912147522 -0.0955890044569969177 0.158507317304611206
-0.620457947254180908 0.272612184286117554 0.0373061336576938629
-0.430235087871551514 -0.00333640654571354389 0.177429407835006714
-0.250883787870407104 -0.136427253484725952 -0.0710680633783340454
0.316773146390914917 -0.318645745515823364 0.122440166771411896
0.538857877254486084 -0.249431267380714417 0.106500566005706787
0.452247381210327148 -0.139492839574813843 0.0152595276013016701
0.428841233253479004 -0.320712864398956299 0.123594857752323151
0.412711977958679199 -0.330573558807373047 -0.209911316633224487
0.47337225079536438 -0.128242626786231995 0.109342999756336212
-0.549150645732879639 0.37899094820022583 0.172758758068084717
0.189935743808746338 -0.339433103799819946 -0.0133917182683944702
-0.202182203531265259 -0.134955316781997681 -0.0684325695037841797
-0.185833841562271118 0.312550544738769531 0.117910631000995636
0.102948568761348724 0.108203120529651642 0.174351856112480164
-0.444640576839447021 -0.0538264848291873932 0.0919635370373725891
-0.489665716886520386 0.0305372513830661774 0.0169792193919420242
0.230995059013366699 0.0114418128505349159 0.314889490604400635
-0.0250296536833047867 0.113684915006160736 0.312428742647171021
0.242812618613243103 -0.0382151566445827484 0.204525113105773926
-0.385117322206497192 0.245811626315116882 0.0344020090997219086
-0.654317378997802734 0.217103525996208191 -0.0391131341457366943
0.48254731297492981 -0.115940771996974945 0.023274589329957962
0.121786288917064667 0.0799725353717803955 0.138454601168632507
-0.382254093885421753 -0.0720806270837783813 0.0957238674163818359
0.319218873977661133 -0.0720003470778465271 0.0622542388737201691
-0.44097369909286499 -0.0111598530784249306 0.00697768991813063622
-0.502454996109008789 0.234111785888671875 -0.0709826275706291199
-0.547510385513305664 0.203856423497200012 -0.0683834925293922424
0.0881813839077949524 0.0921589583158493042 0.0799337327480316162
-0.520140409469604492 0.204978436231613159 -0.0470349080860614777
-0.168532609939575195 0.0729151815176010132 0.232517391443252563
-0.0578270182013511658 -0.186352312564849854 0.0268108882009983063
-0.21277831494808197 0.291255027055740356 0.109171263873577118
0.249175682663917542 -0.00503407139331102371 0.0222041178494691849
-0.555992543697357178 0.2048044353723526 0.118514470756053925
-0.457573980093002319 0.216904088854789734 0.0246657673269510269
-0.462865263223648071 0.266929447650909424 -0.00258507602848112583
-0.57569277286529541 0.247978255152702332 -0.076304219663143158
-0.389651060104370117 0.275582045316696167 -0.084021352231502533
0.343360185623168945 -0.134288355708122253 0.318695157766342163
-0.498853057622909546 0.207282274961471558 -0.0114766880869865417
-0.34628257155418396 0.293285608291625977 -0.0500545576214790344
0.525504708290100098 -0.360753804445266724 0.0415953695774078369
-0.540141046047210693 0.215588107705116272 0.201229333877563477
-0.569511294364929199 0.294758409261703491 -0.00298335542902350426
0.316158860921859741 0.0240761283785104752 0.0485865771770477295
0.481507331132888794 -0.306751012802124023 -0.30382874608039856
0.479224264621734619 -0.325981616973876953 0.125185847282409668
0.522711098194122314 -0.30672764778137207 -0.0988906919956207275
0.489864468574523926 -0.310519516468048096 -0.307586312294006348
0.515756845474243164 -0.324711829423904419 0.119652830064296722
0.444017261266708374 -0.2999400794506073 -0.290817975997924805
0.522728919982910156 -0.304278463125228882 -0.0975540652871131897
0.133906558156013489 0.116827309131622314 0.336980938911437988
-0.642645835876464844 0.2429666668176651 -0.00929632596671581268
-0.293070852756500244 -0.113409131765365601 -0.105630397796630859
0.538791239261627197 -0.255172759294509888 0.0919999182224273682
0.128756135702133179 0.0980431735515594482 0.317256331443786621
-0.23569074273109436 -0.143070057034492493 -0.0713062062859535217
0.251968741416931152 0.0303933657705783844 -0.0861108824610710144
0.530486226081848145 -0.322846382856369019 0.00664316536858677864
-0.599562525749206543 0.307733833789825439 0.104665175080299377
0.531645834445953369 -0.244346275925636292 0.0863492339849472046
-0.374434292316436768 -0.060343962162733078 0.0924310833215713501
0.52608257532119751 -0.275048434734344482 -0.12343626469373703
-0.501382291316986084 0.149199217557907104 0.353171646595001221
0.384655207395553589 -0.297296881675720215 0.131654739379882812
0.132128283381462097 -0.331594198942184448 -0.100514456629753113
0.522272825241088867 -0.354573428630828857 -0.0151168769225478172
-0.436805933713912964 0.15095837414264679 -0.0848976150155067444
0.51529538631439209 -0.299799531698226929 0.0645123943686485291
0.392518371343612671 -0.367611974477767944 -0.213858336210250854
0.50009232759475708 -0.171138331294059753 0.129830092191696167
0.532757878303527832 -0.333710670471191406 0.028203202411532402
-0.580148458480834961 0.349228531122207642 0.0404573157429695129
0.519488513469696045 -0.240684196352958679 -0.308884948492050171
-0.601227998733520508 0.37100335955619812 0.10483299195766449
-0.500883936882019043 0.14757053554058075 0.355375677347183228
0.233525872230529785 -0.277482539415359497 0.317236453294754028
-0.181829839944839478 -0.136578217148780823 -0.0555992089211940765
-0.228849217295646667 -0.137526839971542358 -0.0534760728478431702
-0.204579532146453857 0.298858523368835449 0.126754060387611389
0.262080967426300049 -0.289305925369262695 0.323519766330718994
-0.362639278173446655 -0.0300423819571733475 0.119645059108734131
-0.500440597534179688 0.0198769830167293549 0.0320172011852264404
0.24247606098651886 0.000513808103278279305 0.322126984596252441
0.140899971127510071 -0.290027022361755371 0.31161460280418396
0.307639062404632568 -0.207167476415634155 0.248025372624397278
-0.386425673961639404 0.255334019660949707 0.0344574041664600372
0.530660390853881836 -0.261958926916122437 0.102726548910140991
0.223693981766700745 0.0231665428727865219 0.30529022216796875
0.530122280120849609 -0.147157639265060425 -0.308432310819625854
-0.645169854164123535 0.2317466139793396 -0.0473464280366897583
0.540793657302856445 -0.310656696557998657 -0.0446331053972244263
0.507314682006835938 -0.267503052949905396 -0.311661958694458008
0.513792216777801514 -0.315846532583236694 -0.295247495174407959
0.458318948745727539 -0.290622621774673462 -0.296752572059631348
-0.543438076972961426 0.268527746200561523 -0.189223766326904297
-0.621684610843658447 0.289363384246826172 0.0668308883905410767
0.362871348857879639 -0.383934736251831055 -0.206269904971122742
-0.0927833840250968933 0.267747431993484497 0.189336761832237244
-0.448838591575622559 0.131748795509338379 -0.20869743824005127
-0.575775086879730225 0.204187005758285522 -0.126965448260307312
-0.630381345748901367 0.192113801836967468 -0.0397747792303562164
-0.470140844583511353 0.139383137226104736 -0.230999454855918884
0.25717693567276001 -0.0166861116886138916 -0.0722989290952682495
0.230075284838676453 0.0542662516236305237 -0.0453710742294788361
0.112711779773235321 0.110257506370544434 0.301528751850128174
-0.584454178810119629 0.218779340386390686 -0.221338346600532532
-0.598505079746246338 0.235650345683097839 -0.0106423227116465569
-0.367400586605072021 -0.0912116989493370056 0.122899368405342102
-0.3304024338722229 -0.124843314290046692 0.137331381440162659
-0.634909570217132568 0.200029641389846802 -0.0381904654204845428
-0.426054388284683228 -0.0543928556144237518 0.0993207916617393494
-0.478443354368209839 0.0206368304789066315 -0.0364442504942417145
0.208272770047187805 0.00904759857803583145 0.300673454999923706
-0.634472489356994629 0.248496979475021362 -0.00586708821356296539
-0.128366470336914062 0.270398169755935669 0.132216602563858032
0.270548880100250244 -0.329869747161865234 0.179941385984420776
0.532571375370025635 -0.209807753562927246 -0.0990771949291229248
-0.126980945467948914 -0.112149678170681 -0.0548386536538600922
0.453612148761749268 -0.338586717844009399 -0.298262923955917358
-0.213057219982147217 0.0367520041763782501 -0.059703923761844635
-0.553495943546295166 0.17624315619468689 0.0129144955426454544
-0.198918089270591736 0.140168190002441406 0.0211133360862731934
-0.013079201802611351 -0.102019630372524261 -0.0430327393114566803
0.264244347810745239 -0.274474740028381348 0.202284425497055054
0.348124504089355469 -0.320710122585296631 -0.000231837708270177245
-0.156364992260932922 0.0703293904662132263 0.0274905599653720856
-0.249610364437103271 0.131329238414764404 -0.0344520621001720428
0.198661908507347107 0.0021287095732986927 0.0188821107149124146
0.0759259164333343506 0.0813761726021766663 0.0238036904484033585
-0.283796101808547974 0.288818418979644775 -0.00592045625671744347
0.476404309272766113 -0.289512783288955688 -0.301912605762481689
-0.557179510593414307 0.266210973262786865 -0.0171278640627861023
-0.237809330224990845 0.0981751978397369385 -0.0324704349040985107
0.137327149510383606 -0.280357837677001953 0.149950802326202393
0.2958240807056427 -0.296958833932876587 0.0567377358675003052
-0.28640139102935791 0.257796406745910645 0.000565317634027451277
-0.021533917635679245 -0.0398207195103168488 0.0889078155159950256
0.204070597887039185 0.0432283245027065277 0.0655034258961677551
-0.144193366169929504 -0.0846408754587173462 0.0916759297251701355
0.372044295072555542 -0.0729773938655853271 0.0313115976750850677
0.520871639251708984 -0.198745414614677429 -0.0987736880779266357
0.486551105976104736 -0.297512352466583252 -0.305563867092132568
0.479949235916137695 -0.314442038536071777 0.122079819440841675
0.513083577156066895 -0.306839346885681152 -0.102640897035598755
0.495475888252258301 -0.309143036603927612 -0.309926331043243408
0.505652666091918945 -0.327454268932342529 -0.0043607223778963089
0.511256217956542969 -0.324147492647171021 0.1181158646941185
0.465327709913253784 -0.288412600755691528 -0.296769887208938599
0.437429577112197876 -0.263082444667816162 -0.1945229172706604
0.134714215993881226 0.117474287748336792 0.336896389722824097
0.396100789308547974 -0.243917763233184814 0.318541347980499268
-0.601912856101989746 0.354763329029083252 0.0657048076391220093
-0.505486786365509033 0.357713580131530762 0.178468108177185059
0.542164325714111328 -0.282125204801559448 0.0976738482713699341
0.255920141935348511 0.0373555980622768402 -0.0723135918378829956
-0.233604401350021362 0.15653035044670105 -0.00531035475432872772
0.505642354488372803 -0.331621378660202026 -0.00278279557824134827
0.444239109754562378 -0.249676421284675598 -0.228241890668869019
-0.639462709426879883 0.254988670349121094 0.0547114051878452301
0.532137274742126465 -0.262295544147491455 0.0929862111806869507
-0.393605738878250122 -0.0587173774838447571 0.100496686995029449
0.523394405841827393 -0.289302945137023926 -0.0923400670289993286
0.0273767188191413879 -0.273659110069274902 -0.03540048748254776
0.384614050388336182 -0.30563509464263916 0.118579506874084473
-0.582577884197235107 0.367322355508804321 0.131895557045936584
0.239741265773773193 0.00344434310682117939 0.180912986397743225
-0.113416135311126709 0.166088730096817017 0.3474864661693573
0.481641888618469238 -0.367993205785751343 -0.0223022680729627609
0.411638617515563965 -0.320816487073898315 -0.211248338222503662
0.506820976734161377 -0.155103951692581177 0.123742938041687012
0.528305113315582275 -0.334346681833267212 0.0125758107751607895
-0.584552466869354248 0.336909264326095581 0.0342784188687801361
-0.591152727603912354 0.382416754961013794 0.131453707814216614
0.525783419609069824 -0.244043141603469849 -0.310857832431793213
0.473872154951095581 -0.290434181690216064 -0.299665540456771851
-0.597614705562591553 0.354203462600708008 0.169853627681732178
-0.587742924690246582 0.371948152780532837 0.101307198405265808
-0.212668433785438538 -0.129040107131004333 -0.0577094145119190216
0.233852386474609375 -0.292579621076583862 0.314805895090103149
0.237609729170799255 0.0676603540778160095 0.319875985383987427
0.541346967220306396 -0.313498347997665405 -0.0583527013659477234
-0.445180594921112061 -0.0478513538837432861 0.127162322402000427
0.358910262584686279 -0.38801044225692749 -0.209212034940719604
-0.557050645351409912 0.211658433079719543 -0.113536402583122253
0.520290732383728027 -0.279223322868347168 -0.177347809076309204
0.241458520293235779 0.035298909991979599 0.314352452754974365
0.242236435413360596 0.000955434166826307774 0.0234360452741384506
0.380199342966079712 0.0393299572169780731 0.0116212107241153717
0.526257693767547607 -0.230341538786888123 -0.310367733240127563
0.326505273580551147 0.0966917127370834351 -0.0361851714551448822
-0.374818682670593262 -0.059743199497461319 -0.132848188281059265
0.512447476387023926 -0.167103365063667297 0.13563886284828186
-0.57492375373840332 0.322519034147262573 0.0496473535895347595
-0.55939483642578125 0.283965826034545898 0.364270716905593872
0.223895445466041565 0.0324745401740074158 -0.0584188289940357208
-0.574842154979705811 0.215099334716796875 -0.220974937081336975
-0.0447866655886173248 0.157192230224609375 0.0811188593506813049
0.113578841090202332 0.11064399778842926 0.0252810213714838028
0.342141002416610718 -0.246579557657241821 -0.097107522189617157
-0.285579949617385864 0.301014333963394165 -0.00280596432276070118
0.152745276689529419 -0.00382379628717899323 -0.00375016173347830772
0.0685635656118392944 0.139446854591369629 0.0755192115902900696
-0.270573794841766357 0.280769139528274536 0.00170958240050822496
0.502820014953613281 -0.292267858982086182 -0.159588813781738281
0.136406317353248596 -0.0252450853586196899 0.0129483779892325401
-0.3395882248878479 -0.031430371105670929 0.0228398684412240982
0.372855097055435181 -0.0913710072636604309 0.0440273769199848175
0.199416518211364746 0.101819813251495361 -0.00204629590734839439
-0.297831058502197266 -0.0244582481682300568 0.0359565764665603638
0.131202757358551025 -0.0172450784593820572 -0.0262578725814819336
0.100855723023414612 0.0166568644344806671 0.0910701975226402283
0.175178021192550659 0.119940236210823059 0.0378300361335277557
-0.231067731976509094 -0.0630942955613136292 0.104649931192398071
0.485534757375717163 -0.296375304460525513 -0.303793281316757202
-0.603589534759521484 0.290022373199462891 0.185302704572677612
0.466666549444198608 -0.308318525552749634 0.119836084544658661
0.37773662805557251 -0.0139910178259015083 0.00610974011942744255
0.513835430145263672 -0.294973492622375488 -0.103735052049160004
0.51832127571105957 -0.239432111382484436 -0.307867377996444702
0.477362722158432007 -0.309440165758132935 -0.300545692443847656
0.482841759920120239 -0.274226278066635132 -0.300181388854980469
0.116761691868305206 0.119379691779613495 0.297472000122070312
-0.584614753723144531 0.356834143400192261 0.0659259185194969177
0.383159756660461426 -0.336925268173217773 0.12527640163898468
-0.574923872947692871 0.318169265985488892 -0.0264611821621656418
-0.604925215244293213 0.21760869026184082 -0.0868270173668861389
0.267190456390380859 0.0397454686462879181 -0.0865155681967735291
-0.356990009546279907 -0.021646205335855484 -0.131147891283035278
-0.564727246761322021 0.314807116985321045 -0.00781444832682609558
0.189988583326339722 -0.340376794338226318 -0.0749392211437225342
0.40355333685874939 -0.357308298349380493 -0.224294975399971008
-0.500632882118225098 0.146154597401618958 0.354719251394271851
0.509123027324676514 -0.151066675782203674 0.114714004099369049
0.496314018964767456 -0.263634413480758667 -0.304661273956298828
0.457409143447875977 -0.280583709478378296 -0.2900199294090271
0.440366297960281372 -0.264659583568572998 -0.283975750207901001
-0.588432967662811279 0.357936382293701172 0.0618383772671222687
0.504733443260192871 -0.126381486654281616 0.124130472540855408
-0.206683650612831116 0.313015580177307129 0.108737871050834656
0.267669558525085449 -0.28361886739730835 0.318975746631622314
0.23207363486289978 0.00405900180339813232 0.317655712366104126
0.51273953914642334 -0.175370708107948303 -0.282048195600509644
-0.115793764591217041 0.0104514937847852707 0.00582146365195512772
0.403284549713134766 -0.359337300062179565 -0.224918082356452942
0.417066186666488647 -0.312860786914825439 0.143524676561355591
-0.55586540699005127 0.376985639333724976 0.186931639909744263
-0.176099777221679688 0.309686720371246338 0.118406116962432861
-0.390247434377670288 0.276553809642791748 -0.0850219801068305969
0.364765703678131104 0.0522738024592399597 0.02433001808822155
0.128736540675163269 0.116267643868923187 0.318695574998855591
-0.287124872207641602 -0.100072383880615234 -0.0920970216393470764
0.257605701684951782 0.101382032036781311 -0.0622915178537368774
-0.361836701631546021 -0.0593031421303749084 -0.144117012619972229
0.133691519498825073 0.114225901663303375 0.337640166282653809
-0.563615202903747559 0.199759170413017273 -0.228955581784248352
-0.276906281709671021 0.288544684648513794 -0.000920145073905587196
0.454333066940307617 -0.246152564883232117 -0.288567394018173218
0.45967516303062439 -0.275115370750427246 -0.291087836027145386
-0.635249972343444824 0.308635801076889038 0.170507460832595825
0.511961042881011963 -0.317125052213668823 -0.0388295873999595642
0.468387693166732788 -0.265515118837356567 -0.298216313123703003
0.477600812911987305 -0.29473501443862915 -0.300488531589508057
0.4575919508934021 -0.245936781167984009 -0.290138900279998779
0.380505770444869995 -0.360666960477828979 -0.214105963706970215
-0.479849666357040405 -0.0120085468515753746 0.185930564999580383
-0.516858100891113281 0.366280466318130493 0.174171552062034607
-0.619008958339691162 0.202497735619544983 -0.0870893821120262146
-0.237857311964035034 0.019346555694937706 -0.0725924521684646606
-0.383100688457489014 -0.0584994927048683167 0.0237438753247261047
0.474324613809585571 -0.36797863245010376 0.0215658470988273621
-0.649690568447113037 0.237227067351341248 0.0323329977691173553
0.411986231803894043 -0.346406728029251099 -0.221894055604934692
0.525561511516571045 -0.336776763200759888 0.0798234790563583374
0.505510091781616211 -0.238733097910881042 -0.308329969644546509
0.249023750424385071 -0.281795263290405273 0.318039357662200928
0.238763242959976196 0.0670900791883468628 0.314419835805892944
0.539063572883605957 -0.301502496004104614 -0.0939118564128875732
-0.448332905769348145 -0.040853746235370636 0.126596331596374512
-0.0442818813025951385 0.105058960616588593 0.31771928071975708
0.247511684894561768 0.0215386655181646347 0.321979403495788574
-0.285449087619781494 -0.0992067977786064148 -0.099114246666431427
-0.138331577181816101 -0.0145669626072049141 -0.0488883368670940399
-0.278330832719802856 0.338398873805999756 0.0470037087798118591
-0.255196183919906616 0.290435731410980225 -0.00325562106445431709
-0.219358354806900024 0.322426170110702515 0.0698332935571670532
-0.5737190842628479 0.152749449014663696 -0.0744100213050842285
-0.290423691272735596 0.293246835470199585 0.0160419754683971405
0.525125741958618164 -0.320297479629516602 0.0269342605024576187
0.345583915710449219 -0.03007466159760952 -0.034745093435049057
0.521743297576904297 -0.362538963556289673 0.089161314070224762
-0.0838810428977012634 -0.111286893486976624 0.0783953368663787842
-0.404387742280960083 0.326589852571487427 0.121304571628570557
0.50423276424407959 -0.366715610027313232 -0.00472482386976480484
-0.119149431586265564 0.266648530960083008 0.12089826911687851
0.518215656280517578 -0.342589437961578369 0.0356066487729549408
0.129735127091407776 -0.334199786186218262 0.301090538501739502
0.466104447841644287 -0.310671091079711914 0.0722154155373573303
0.482336550951004028 -0.373632520437240601 0.052090819925069809
0.420619070529937744 -0.0256295874714851379 0.064580090343952179
0.493620216846466064 -0.363176912069320679 -0.015775047242641449
-0.233408406376838684 0.287704557180404663 0.084127962589263916
0.530716478824615479 -0.331402391195297241 -0.00746379327028989792
-0.272383242845535278 0.315953463315963745 0.113982021808624268
0.307736992835998535 0.00304335379041731358 0.04604383185505867
0.466869205236434937 -0.263123005628585815 -0.296288430690765381
0.473314613103866577 -0.303941279649734497 0.113987088203430176
0.510651946067810059 -0.313303142786026001 -0.104628585278987885
0.508659124374389648 -0.245080888271331787 -0.308646827936172485
0.447380930185317993 -0.292213797569274902 -0.292972266674041748
0.465831279754638672 -0.282983064651489258 -0.297494381666183472
0.137923717498779297 0.113342717289924622 0.336577922105789185
-0.652496874332427979 0.286188244819641113 0.0981552526354789734
-0.638740420341491699 0.24529661238193512 -0.0381003469228744507
0.135889455676078796 0.0698242932558059692 0.337698400020599365
-0.57753223180770874 0.304287046194076538 -0.0554644949734210968
0.261965811252593994 0.0309293773025274277 -0.0737198591232299805
0.541493833065032959 -0.216342911124229431 0.111305758357048035
-0.360623836517333984 -0.0352883003652095795 -0.134324550628662109
-0.575165212154388428 0.327972739934921265 -0.0294694062322378159
-0.362307101488113403 -0.0704417303204536438 -0.0339781828224658966
-0.131154447793960571 -0.267104744911193848 0.119015254080295563
0.494592815637588501 -0.365469545125961304 -0.000613012409303337336
0.373193025588989258 -0.359062314033508301 -0.210271477699279785
-0.378881514072418213 -0.106402009725570679 0.101339995861053467
-0.0676190406084060669 -0.263572573661804199 0.296371728181838989
0.519345343112945557 -0.243034914135932922 -0.309665292501449585
0.508941709995269775 -0.330202162265777588 0.0150281758978962898
-0.593726396560668945 0.369488298892974854 0.120713762938976288
-0.655819594860076904 0.176128864288330078 -0.102930545806884766
-0.223609760403633118 -0.143677294254302979 -0.0537838414311408997
-0.191680639982223511 0.317193359136581421 0.100686267018318176
0.256127804517745972 -0.283088803291320801 0.319470733404159546
0.238723218441009521 0.0327301621437072754 0.318890392780303955
-0.120684735476970673 -0.0455820076167583466 0.00721815740689635277
-0.641943156719207764 0.309136331081390381 0.10200095921754837
0.364069968461990356 -0.37360537052154541 -0.207184955477714539
0.537288248538970947 -0.217354297637939453 0.161589503288269043
-0.553105831146240234 0.382989078760147095 0.158100336790084839
-0.122935838997364044 0.259866088628768921 0.115031018853187561
0.118959859013557434 0.103007622063159943 0.0892508327960968018
-0.375922322273254395 0.266398370265960693 -0.0895700454711914062
0.51637732982635498 -0.348686814308166504 0.0985243767499923706
-0.294104844331741333 -0.106687098741531372 -0.109342947602272034
0.274524599313735962 0.103429242968559265 -0.0579388886690139771
-0.575574278831481934 0.220008701086044312 -0.212568402290344238
-0.115953616797924042 0.269159257411956787 0.179721817374229431
0.235477656126022339 -0.287563443183898926 0.314164876937866211
0.309630692005157471 -0.186895906925201416 0.240785583853721619
0.541251838207244873 -0.325490653514862061 -0.0211591757833957672
0.0784064158797264099 -0.337281942367553711 0.282061994075775146
-0.00703523959964513779 -0.171360358595848083 0.00413289712741971016
-0.282721608877182007 0.262301772832870483 0.00700370548292994499
0.512596011161804199 -0.236805394291877747 -0.309663742780685425
-0.647311806678771973 0.278754949569702148 0.0796715468168258667
-0.646748363971710205 0.183645650744438171 -0.0907787829637527466
0.51358264684677124 -0.322160214185714722 0.0240380708128213882
-0.407412678003311157 -0.0631167143583297729 0.113544665277004242
0.516293764114379883 -0.355357825756072998 -0.020863877609372139
-0.566920578479766846 0.374856710433959961 0.152610048651695251
0.235480546951293945 0.0435457192361354828 0.313439220190048218
-0.665216505527496338 0.227619528770446777 0.0232145320624113083
-0.448540061712265015 -0.0379551015794277191 0.127105504274368286
0.502456843852996826 -0.301953285932540894 -0.179113611578941345
-0.589480876922607422 0.361545473337173462 0.0862143635749816895
-0.194520920515060425 0.315468877553939819 0.104805350303649902
0.246496722102165222 0.0244431272149085999 0.323573827743530273
0.530392110347747803 -0.323461353778839111 -0.0583224184811115265
-0.183264583349227905 0.307575047016143799 0.128416180610656738
0.246738031506538391 0.00751550169661641121 0.323705583810806274
0.0582349859178066254 0.140245452523231506 0.345572113990783691
-0.506056845188140869 0.149954140186309814 0.35692286491394043
0.27018389105796814 -0.31084907054901123 0.326011896133422852
-0.254282772541046143 0.0240867659449577332 -0.0707985982298851013
0.240528523921966553 -0.294881582260131836 0.322266101837158203
0.248534664511680603 0.0443259812891483307 0.314161747694015503
0.467891782522201538 -0.101562820374965668 0.0343148931860923767
-0.125210419297218323 0.195686474442481995 0.11529502272605896
0.239413172006607056 -0.32621002197265625 0.317720144987106323
0.49971538782119751 -0.366232246160507202 0.0743990764021873474
0.522916913032531738 -0.324364930391311646 0.0259581468999385834
0.444143444299697876 -0.252877026796340942 0.332085847854614258
0.320917457342147827 -0.131051182746887207 -0.106939032673835754
0.062880396842956543 -0.0101999621838331223 0.321513652801513672
0.510771036148071289 -0.360537290573120117 0.0472632795572280884
0.13510836660861969 -0.1001906618475914 0.0403208136558532715
0.0490004308521747589 0.0120809478685259819 0.0295323971658945084
0.0202769488096237183 0.0487793795764446259 0.0424056723713874817
0.0876219570636749268 -0.0655305609107017517 0.289441347122192383
-0.162672415375709534 -0.265200138092041016 0.147912338376045227
0.264437645673751831 -0.0196999534964561462 0.0612681321799755096
-0.0294003300368785858 -0.0284812171012163162 0.295404583215713501
0.501659512519836426 -0.240048140287399292 -0.302250117063522339
0.475398242473602295 -0.314672917127609253 -0.302178800106048584
-0.631230592727661133 0.306787103414535522 0.16749119758605957
0.474953949451446533 -0.320458173751831055 0.120755217969417572
0.508564293384552002 -0.300529211759567261 -0.105793662369251251
0.52771371603012085 -0.274630099534988403 -0.317413687705993652
0.49301794171333313 -0.332143485546112061 -0.310923546552658081
0.503006219863891602 -0.319784462451934814 0.0977522432804107666
0.473645657300949097 -0.305506139993667603 -0.298335433006286621
-0.559633970260620117 0.268618732690811157 0.364592105150222778
0.124599717557430267 0.117401033639907837 0.313998639583587646
-0.633910715579986572 0.28272777795791626 0.0543967187404632568
-0.587662994861602783 0.363301843404769897 0.102556116878986359
0.370912313461303711 -0.373760521411895752 -0.212961971759796143
0.437934398651123047 -0.34762948751449585 0.154086366295814514
0.0577110350131988525 0.121871694922447205 0.320945858955383301
-0.57485586404800415 0.369335442781448364 0.215668231248855591
0.264225035905838013 0.0250394400209188461 -0.05892224982380867
0.36825329065322876 -0.336432754993438721 0.160377413034439087
0.510007262229919434 -0.301250070333480835 -0.112241052091121674
0.133021846413612366 -0.320214688777923584 -0.0979371443390846252
0.516073167324066162 -0.348482519388198853 -0.0205216743052005768
0.388721436262130737 -0.346489042043685913 -0.214323058724403381
-0.5773506760597229 0.319579124450683594 0.0409023799002170563
0.535534143447875977 -0.277601927518844604 -0.32081487774848938
0.467352569103240967 -0.310641735792160034 -0.299470186233520508
0.506693601608276367 -0.346814006567001343 0.0176936518400907516
-0.556221723556518555 0.310238420963287354 0.102375566959381104
0.193301394581794739 -0.338992685079574585 -0.0593507625162601471
0.0695211291313171387 -0.281828463077545166 -0.0780392363667488098
0.252004384994506836 -0.249931246042251587 0.319935470819473267
0.239516735076904297 0.0313720367848873138 0.316667854785919189
-0.121546044945716858 -0.0473808906972408295 0.00807288940995931625
0.178235992789268494 -0.0997708439826965332 -0.0150152873247861862
0.531978070735931396 -0.332010090351104736 -0.0134018426761031151
0.369785398244857788 -0.34920954704284668 -0.209100931882858276
0.534541189670562744 -0.245519533753395081 0.177006468176841736
0.560670077800750732 -0.315558522939682007 -0.331132203340530396
0.554118454456329346 -0.211405932903289795 0.133658260107040405
-0.543568551540374756 0.381294786930084229 0.164637058973312378
0.122475020587444305 0.117669396102428436 0.132927268743515015
-0.582547783851623535 0.352425456047058105 0.0979436784982681274
-0.481974542140960693 0.186470970511436462 -0.0914717838168144226
0.515156269073486328 -0.338885635137557983 0.0385983586311340332
0.253009706735610962 -0.278862297534942627 0.321756243705749512
0.277939140796661377 -0.355661630630493164 -0.126260817050933838
0.507426261901855469 -0.28641018271446228 -0.313888192176818848
-0.43253934383392334 -0.0567970164120197296 0.116778671741485596
0.201580896973609924 0.090942777693271637 0.223141074180603027
0.24386344850063324 0.104941055178642273 -0.0574939437210559845
-0.196020275354385376 0.202064380049705505 0.349245548248291016
0.250079184770584106 0.0253291018307209015 0.323096632957458496
0.239434197545051575 0.0194247346371412277 0.320792734622955322
-0.031773097813129425 0.163224160671234131 0.38254961371421814
-0.482850998640060425 -0.015227428637444973 0.18028278648853302
0.483335435390472412 -0.368801534175872803 0.0458448603749275208
-0.643830001354217529 0.287569046020507812 0.0863898321986198425
0.275441259145736694 -0.165504425764083862 -0.0707194805145263672
-0.412221789360046387 -0.0564670786261558533 0.0789867118000984192
-0.64340507984161377 0.176116257905960083 -0.0818632766604423523
-0.226446807384490967 -0.133569240570068359 -0.0522423461079597473
0.254514306783676147 -0.265270084142684937 0.320917129516601562
-0.345795571804046631 0.0177184063941240311 -0.116886265575885773
-0.287626564502716064 -0.0911930277943611145 -0.106516584753990173
-0.585473716259002686 0.210216879844665527 -0.217873334884643555
0.267165958881378174 -0.296740889549255371 0.314991086721420288
-0.0261422619223594666 -0.186922386288642883 -0.0435589589178562164
-0.618399202823638916 0.277369678020477295 0.0315677374601364136
-0.609153389930725098 0.298698157072067261 0.0926545411348342896
-0.397956132888793945 -0.0624678991734981537 0.118960827589035034
-0.452077895402908325 -0.0377850271761417389 0.119591385126113892
0.430714637041091919 -0.271510064601898193 0.32896345853805542
-0.0528331883251667023 0.141263335943222046 0.0916179642081260681
-0.503322839736938477 0.151579499244689941 0.355537682771682739
0.240377217531204224 -0.31903374195098877 0.322617292404174805
0.49672245979309082 -0.370622783899307251 0.0571636483073234558
0.398900777101516724 -0.256621360778808594 0.322243869304656982
-0.158809155225753784 -0.263191372156143188 0.18154105544090271
-0.499518066644668579 0.0144207412376999855 0.158214136958122253
0.417187005281448364 -0.297144293785095215 0.32851526141166687
0.534901916980743408 -0.340001702308654785 -0.0186293479055166245
0.343790620565414429 -0.26719290018081665 -0.128055676817893982
-0.496795415878295898 0.0723966136574745178 0.204111233353614807
0.443262189626693726 -0.271956801414489746 0.333189249038696289
0.52163851261138916 -0.3352012038230896 0.0326016917824745178
0.452906280755996704 -0.319773435592651367 -0.293211042881011963
0.473834723234176636 -0.311469942331314087 0.116492271423339844
0.516811788082122803 -0.278299212455749512 -0.313000023365020752
0.502234518527984619 -0.32582932710647583 -0.314488768577575684
0.517734944820404053 -0.326912045478820801 0.101717859506607056
0.478878021240234375 -0.311308950185775757 -0.302349686622619629
0.114190921187400818 0.119012005627155304 0.288862138986587524
-0.122272975742816925 0.269098013639450073 0.1587381511926651
-0.615144550800323486 0.265848994255065918 0.0522714927792549133
-0.4797249436378479 0.00345294293947517872 0.181462943553924561
0.426265180110931396 -0.354820877313613892 0.158369317650794983
-0.292802006006240845 -0.110270790755748749 -0.105767957866191864
0.130132719874382019 0.0659043565392494202 0.321065276861190796
0.253292322158813477 0.0389638729393482208 -0.0780336633324623108
0.235082536935806274 0.0941713452339172363 -0.0533122755587100983
0.417223364114761353 -0.261404156684875488 -0.202550008893013
0.521286368370056152 -0.354481905698776245 -0.0196457467973232269
-0.609167158603668213 0.381493300199508667 0.18143598735332489
0.51716315746307373 -0.279200255870819092 -0.314921915531158447
0.498713046312332153 -0.349822819232940674 0.0238849762827157974
-0.588144779205322266 0.369676262140274048 0.113240331411361694
0.505634963512420654 -0.104498602449893951 0.147029966115951538
-0.198378577828407288 0.312005728483200073 0.112925581634044647
0.263617485761642456 -0.286324381828308105 0.319580882787704468
0.236558109521865845 0.0624873228371143341 0.310331135988235474
-0.144982606172561646 -0.0431213416159152985 0.00414588954299688339
-0.658142685890197754 0.215020865201950073 -0.0460163801908493042
-0.289075314998626709 -0.0756348967552185059 -0.0686083287000656128
0.22681543231010437 0.0424576811492443085 -0.0483752116560935974
0.551206707954406738 -0.144277229905128479 0.131791934370994568
0.519382953643798828 -0.295179784297943115 0.0746856778860092163
0.517177224159240723 -0.283929526805877686 -0.18137812614440918
-0.358508914709091187 -0.0167407076805830002 -0.0278943926095962524
0.0910606160759925842 0.0886026099324226379 0.0856186076998710632
0.466211557388305664 -0.361725151538848877 -0.0108653586357831955
-0.433329015970230103 0.158128947019577026 -0.0663980990648269653
0.52340775728225708 -0.335465878248214722 0.0686997920274734497
0.262476921081542969 -0.28569263219833374 0.31830441951751709
0.00883464794605970383 -0.0906458497047424316 -0.0262154452502727509
0.0320224836468696594 -0.130046308040618896 0.0217592976987361908
-0.631063461303710938 0.265352368354797363 0.0292304921895265579
0.241768479347229004 0.0746563747525215149 0.318597018718719482
0.239824429154396057 0.0298964790999889374 0.318681001663208008
-0.17517244815826416 0.301284134387969971 0.116291388869285583
0.304215937852859497 -0.151031151413917542 0.307582259178161621
0.261511147022247314 -0.290495246648788452 0.320790588855743408
-0.47656482458114624 -0.00782527495175600052 0.166335240006446838
0.24240487813949585 0.0820946991443634033 0.311954855918884277
0.519827723503112793 -0.351118505001068115 0.0817358642816543579
-0.0354413017630577087 -0.237267360091209412 0.124015554785728455
-0.638642609119415283 0.290354222059249878 0.0990161746740341187
-0.234760776162147522 -0.132543578743934631 -0.0580246485769748688
-0.379726678133010864 -0.108485601842403412 0.105604596436023712
-0.23697228729724884 -0.147570103406906128 -0.0578697472810745239
-0.658351540565490723 0.214716508984565735 -0.0337197519838809967
0.528470098972320557 -0.352452754974365234 0.0776802003383636475
-0.621501386165618896 0.270622283220291138 0.0526693537831306458
-0.40457722544670105 -0.0640129819512367249 0.112138062715530396
-0.446739286184310913 -0.0411723516881465912 0.122093275189399719
0.267581671476364136 -0.285387247800827026 0.323263466358184814
0.127159222960472107 -0.326357632875442505 0.312422215938568115
0.151819556951522827 -0.342858701944351196 0.317687690258026123
0.447229325771331787 -0.33553275465965271 -0.29318121075630188
0.515313506126403809 -0.302828162908554077 -0.108160711824893951
0.514782845973968506 -0.28017088770866394 -0.313018321990966797
0.484390497207641602 -0.327593743801116943 -0.309973806142807007
0.463851779699325562 -0.345800429582595825 -0.30284881591796875
0.549172043800354004 -0.210139304399490356 -0.316180795431137085
0.523651063442230225 -0.299960702657699585 -0.322661310434341431
0.517512679100036621 -0.300770401954650879 -0.318559139966964722
0.246482804417610168 0.0573712736368179321 0.3161887526512146
0.240975573658943176 0.0878495723009109497 0.312522858381271362
-0.29225313663482666 -0.100271940231323242 -0.101903900504112244
-0.453999996185302734 -0.0516580641269683838 0.117190651595592499
0.404370099306106567 -0.272047728300094604 0.322287708520889282
-0.502770960330963135 0.00411713868379592896 0.189255565404891968
0.400659024715423584 -0.287030637264251709 0.324604630470275879
0.398808807134628296 -0.273342996835708618 0.323083996772766113
0.34174346923828125 -0.258735686540603638 0.0898934528231620789
-0.0193449482321739197 -0.24406115710735321 0.128583058714866638
-0.464870989322662354 0.0363459177315235138 0.189661204814910889
-0.194776713848114014 0.222034797072410583 0.172038346529006958
0.366320610046386719 -0.329080939292907715 -0.0237182006239891052
0.322839945554733276 -0.389935195446014404 -0.159058481454849243
0.534987807273864746 -0.323469638824462891 -0.0584230199456214905
-0.442158699035644531 -0.00438051996752619743 0.152801036834716797
-0.0196308773010969162 -0.0591396540403366089 0.141635611653327942
-0.000796773936599493027 -0.235793247818946838 0.106298074126243591
0.525784850120544434 -0.20163436233997345 -0.0802618786692619324
0.449293524026870728 -0.308216661214828491 -0.293071448802947998
0.526384830474853516 -0.275332152843475342 -0.315868884325027466
0.499428361654281616 -0.324778616428375244 -0.312859475612640381
0.474725961685180664 -0.304935693740844727 -0.297588318586349487
-0.127848520874977112 0.24706152081489563 0.13892073929309845
-0.649344146251678467 0.282370060682296753 0.0944093614816665649
-0.199308723211288452 0.287109225988388062 0.335881263017654419
0.497617095708847046 -0.0865105092525482178 0.13639521598815918
0.20014604926109314 -0.358923852443695068 -0.0909707844257354736
0.504948854446411133 -0.367504924535751343 -0.0229046214371919632
0.526856124401092529 -0.242463618516921997 0.172709673643112183
-0.586283028125762939 0.379717856645584106 0.170827358961105347
0.444506585597991943 -0.314808011054992676 -0.287945687770843506
0.498184680938720703 -0.110879741609096527 0.111909776926040649
-0.656198501586914062 0.175812855362892151 -0.103627584874629974
-0.202359646558761597 0.309198945760726929 0.0891400575637817383
0.20088571310043335 -0.0132484463974833488 0.295061051845550537
0.159510627388954163 -0.0618447400629520416 -0.0442350804805755615
-0.579863905906677246 0.302655547857284546 0.368808984756469727
0.274626374244689941 0.0986696332693099976 -0.0293639469891786575
-0.435704350471496582 0.155827119946479797 -0.0859223082661628723
0.534008264541625977 -0.332862168550491333 0.0125390449538826942
-0.569194018840789795 0.197672829031944275 -0.228964179754257202
-0.498079478740692139 0.0453774705529212952 -0.0867239087820053101
0.0308929942548274994 -0.103643238544464111 0.0329104103147983551
0.533642947673797607 -0.264371931552886963 -0.316515594720840454
0.00937040988355875015 0.198075100779533386 0.0274692121893167496
0.301699608564376831 0.0391514971852302551 -0.0847244784235954285
-0.332642883062362671 -0.0156032107770442963 -0.107654005289077759
0.236093670129776001 0.0147824725136160851 0.321599215269088745
0.124649077653884888 0.0133816227316856384 0.298795104026794434
0.52708590030670166 -0.354971975088119507 0.0661286264657974243
0.466602176427841187 -0.309694021940231323 -0.233321845531463623
-0.652321219444274902 0.285710275173187256 0.104517512023448944
0.546204507350921631 -0.219741597771644592 0.163267478346824646
0.527602672576904297 -0.323191046714782715 -0.0162490792572498322
-0.383408069610595703 -0.0560006760060787201 0.0763087496161460876
0.45641791820526123 -0.310699224472045898 -0.292768388986587524
0.504505813121795654 -0.339702785015106201 -0.318091303110122681
0.478345662355422974 -0.314184099435806274 -0.299708575010299683
0.519921362400054932 -0.301175236701965332 -0.317523270845413208
-0.00280211889185011387 -0.139633595943450928 -0.0248829349875450134
0.397142469882965088 -0.272900700569152832 0.323259294033050537
0.40081450343132019 -0.271327733993530273 0.323563754558563232
0.505672872066497803 -0.331767827272415161 0.105644464492797852
-0.467869549989700317 0.0428830794990062714 0.170778408646583557
0.409591138362884521 -0.345636487007141113 0.156391531229019165
-0.361237794160842896 -0.034900221973657608 -0.148026823997497559
-0.128691986203193665 -0.267342984676361084 0.1123780757188797
0.512171745300292969 -0.368842363357543945 -0.0148481894284486771
-0.213979408144950867 0.313002705574035645 0.0976784676313400269
0.250179827213287354 -0.286832600831985474 0.32273256778717041
0.208509236574172974 0.00975381210446357727 -0.0462954491376876831
0.0694741159677505493 -0.151166155934333801 -0.0173299740999937057
-0.1700124591588974 0.305236250162124634 0.118853643536567688
0.470667719841003418 -0.364140450954437256 0.00685510179027915001
-0.291373491287231445 -0.0990623608231544495 -0.103161819279193878
0.0359636321663856506 -0.149323344230651855 -0.0217805579304695129
0.231851339340209961 0.0566057600080966949 0.309017419815063477
0.252985507249832153 -0.288395106792449951 0.320513516664505005
-0.471978187561035156 0.00157283234875649214 0.168798059225082397
0.240674912929534912 0.063058704137802124 0.312912940979003906
0.508555829524993896 -0.351811677217483521 0.0637755244970321655
0.227003335952758789 -0.314541220664978027 0.314426928758621216
-0.37572634220123291 -0.0927371680736541748 0.0862892270088195801
-0.0631036162376403809 -0.241287350654602051 0.30248415470123291
-0.223112881183624268 -0.12728118896484375 -0.0530899204313755035
-0.410195857286453247 -0.0650282204151153564 0.0986350551247596741
-0.445281773805618286 -0.044295288622379303 0.132864803075790405
0.238567650318145752 -0.29377448558807373 0.314293980598449707
0.15349501371383667 -0.324060201644897461 0.319997549057006836
0.42496374249458313 -0.255811572074890137 0.328405618667602539
0.437776148319244385 -0.342758148908615112 -0.292833477258682251
0.505926430225372314 -0.334404706954956055 -0.318237066268920898
0.444627314805984497 -0.352105468511581421 -0.286890357732772827
0.237941637635231018 0.0661237835884094238 0.312193244695663452
0.402887403964996338 -0.287259757518768311 0.325728625059127808
-0.49499085545539856 0.00715499045327305794 0.188537657260894775
0.485467374324798584 -0.0629401728510856628 0.131522312760353088
0.0120811741799116135 -0.170354247093200684 0.00979680847376585007
0.53118741512298584 -0.307402491569519043 -0.0623918622732162476
0.314337193965911865 -0.30201759934425354 -0.126974180340766907
0.445478856563568115 -0.291146367788314819 -0.285812407732009888
-0.337079733610153198 0.225189253687858582 0.125819265842437744
-0.401131421327590942 -0.0277327056974172592 -0.00178246595896780491
0.402800887823104858 -0.271470874547958374 0.32394680380821228
-0.13349449634552002 0.196276232600212097 0.167751461267471313
0.398849368095397949 -0.271407186985015869 0.323760747909545898
-0.446769356727600098 -0.0245107710361480713 0.0215645898133516312
-0.138150602579116821 0.245335012674331665 0.191713005304336548
-0.612865626811981201 0.294467538595199585 0.183958619832992554
0.124313704669475555 0.116532981395721436 0.316587775945663452
-0.121095672249794006 0.251066654920578003 0.161841675639152527
-0.583390712738037109 0.348586440086364746 0.058353763073682785
0.426507055759429932 -0.347812294960021973 0.152873560786247253
-0.566866457462310791 0.295500129461288452 -0.0687894076108932495
0.251545995473861694 0.0270916260778903961 -0.0797572806477546692
0.247385576367378235 0.10078757256269455 -0.0485366545617580414
-0.357718855142593384 -0.0552549250423908234 -0.141765087842941284
0.198461130261421204 0.120651066303253174 0.0356033556163311005
0.545333743095397949 -0.131217747926712036 0.111788593232631683
-0.581735312938690186 0.322194367647171021 -0.0226379074156284332
0.205884039402008057 0.0251123923808336258 0.176703736186027527
-0.595374524593353271 0.375591307878494263 0.172239139676094055
0.444490522146224976 -0.318900227546691895 0.12720237672328949
0.254788637161254883 -0.278357326984405518 0.316356867551803589
0.235312536358833313 0.0242220368236303329 0.316444575786590576
-0.363131552934646606 -0.0492555908858776093 -0.0236654095351696014
-0.182843729853630066 0.118669234216213226 0.0423320196568965912
0.254502266645431519 -0.28779950737953186 0.319173574447631836
0.241753682494163513 0.0335962288081645966 0.321706712245941162
0.399619907140731812 0.0237355586141347885 0.114971771836280823
-0.340764492750167847 -0.0656113848090171814 -0.147220179438591003
0.0754700601100921631 -0.332533597946166992 0.298896729946136475
-0.38692784309387207 -0.0602521412074565887 0.0939423739910125732
-0.448314011096954346 -0.0407693423330783844 0.127876609563827515
0.43911173939704895 -0.278944492340087891 0.333476901054382324
0.0341222994029521942 -0.12237316370010376 -0.0256892349570989609
0.414067506790161133 -0.280394315719604492 0.326824992895126343
0.432780712842941284 -0.295696943998336792 0.33298194408416748
0.367559760808944702 -0.278330326080322266 -0.130455911159515381
-0.477429091930389404 0.00204971618950366974 0.188495054841041565
-0.291785508394241333 -0.0957709252834320068 -0.104492254555225372
0.241115882992744446 -0.312567859888076782 0.30954134464263916
0.472898930311203003 -0.353862762451171875 0.00686532584950327873
-0.296614110469818115 -0.0960196405649185181 -0.10693734884262085
0.244478687644004822 -0.288146018981933594 0.319929897785186768
0.062005121260881424 -0.329233616590499878 0.296985805034637451
0.157633259892463684 -0.267287671566009521 -0.10564132034778595
0.249973192811012268 0.0638649687170982361 0.315334796905517578
-0.482575982809066772 -0.00733956461772322655 0.178103968501091003
0.236113458871841431 0.0670406967401504517 0.314695686101913452
0.238454923033714294 -0.331380724906921387 0.321271747350692749
-0.382420390844345093 -0.0914228111505508423 0.0368478037416934967
-0.216382548213005066 -0.139519497752189636 -0.0543267801403999329
-0.382836908102035522 -0.0630607306957244873 0.0836567655205726624
0.149707108736038208 -0.331174790859222412 0.331788063049316406
0.445634543895721436 -0.27947700023651123 0.333399325609207153
0.407176971435546875 -0.280104696750640869 0.324938774108886719
-0.502080798149108887 0.00713232718408107758 0.188854262232780457
-0.322067350149154663 0.0978028997778892517 -0.0701916888356208801
0.532293617725372314 -0.207163318991661072 -0.0528392083942890167
0.450673878192901611 -0.293586909770965576 -0.290700167417526245
