ply
format ascii 1.0
element vertex 737
property float x
property float y
property float z
end_header
-0.518500387668609619 0.202209144830703735 0.0491266585886478424
-0.385348379611968994 0.183070793747901917 0.0922278985381126404
-0.572239935398101807 0.328430503606796265 -0.0117313303053379059
-0.339689403772354126 -0.0879362970590591431 -0.0538490228354930878
-0.137334614992141724 -0.269208729267120361 0.130577743053436279
0.275280296802520752 -0.16574820876121521 0.0554365925490856171
0.313220381736755371 -0.302743107080459595 -0.127946391701698303
-0.381611019372940063 0.250661939382553101 0.233465805649757385
0.310991734266281128 -0.216986149549484253 0.201672419905662537
0.496495366096496582 -0.254941344261169434 -0.104955032467842102
-0.119125276803970337 0.0728223696351051331 0.173835039138793945
0.512646377086639404 -0.36196434497833252 -0.030217314139008522
-0.509604215621948242 0.269251883029937744 -0.00494678178802132607
-0.595646262168884277 0.244136109948158264 -0.00276189693249762058
-0.586725592613220215 0.251351803541183472 0.194247603416442871
-0.548352420330047607 0.12127271294593811 -0.134160414338111877
-0.245215535163879395 0.18311271071434021 0.357105821371078491
0.46249738335609436 -0.264381051063537598 -0.289910286664962769
0.456271082162857056 -0.256035476922988892 -0.186424776911735535
0.519619643688201904 -0.302751719951629639 0.0450430326163768768
-0.626139402389526367 0.200459733605384827 0.0448737815022468567
-0.256299674510955811 -0.00473860511556267738 -0.0619733631610870361
0.245906263589859009 0.0992303118109703064 -0.0685674324631690979
0.50529789924621582 -0.159735411405563354 0.131403625011444092
0.343586266040802002 -0.0697514191269874573 0.162548243999481201
0.400159895420074463 -0.2369842529296875 0.130861133337020874
-0.360220611095428467 -0.118901021778583527 0.11665663868188858
-0.479480445384979248 0.189806610345840454 0.0640325471758842468
-0.575109183788299561 0.342299520969390869 0.0252492353320121765
-0.359563052654266357 -0.0633881166577339172 0.0910307392477989197
-0.343369603157043457 0.0114996293559670448 -0.114235579967498779
0.303248316049575806 -0.295825004577636719 0.16256733238697052
-0.505072891712188721 0.221229508519172668 0.141952916979789734
-0.485796302556991577 0.0283780097961425781 -0.0467962548136711121
0.0333617627620697021 0.0881965681910514832 0.0881410613656044006
-0.231717124581336975 0.347620010375976562 0.149002701044082642
0.031984768807888031 0.0106355585157871246 0.042374197393655777
-0.366327345371246338 -0.0368542075157165527 -0.0325740240514278412
-0.0483567900955677032 -0.234255403280258179 0.302030026912689209
0.185971692204475403 -0.29302668571472168 0.00412244442850351334
0.235113412141799927 -0.0113125620409846306 0.230681777000427246
-0.526955783367156982 0.140824884176254272 0.0680798590183258057
-0.520826637744903564 0.201524555683135986 -0.0672983601689338684
-0.552661895751953125 0.286040782928466797 0.107544563710689545
0.144090980291366577 0.00807368941605091095 0.308156311511993408
0.0677471309900283813 -0.286490678787231445 -0.0811299383640289307
-0.362620443105697632 0.0351137332618236542 -0.160990521311759949
0.307558625936508179 -0.293744295835494995 0.0300298295915126801
-0.339625418186187744 0.213706493377685547 0.159381076693534851
-0.188352778553962708 0.200448691844940186 0.368005275726318359
-0.540591299533843994 0.255014032125473022 -0.0840420052409172058
0.522807836532592773 -0.199675798416137695 -0.0921505764126777649
-0.519502639770507812 0.185571387410163879 0.136562228202819824
-0.544142007827758789 0.270210176706314087 -0.00237100105732679367
0.471305340528488159 -0.326317042112350464 0.0451218374073505402
0.289359450340270996 0.0312172155827283859 0.054197799414396286
0.433298408985137939 -0.306394755840301514 -0.284609138965606689
-0.519263923168182373 0.0899765565991401672 -0.134980693459510803
-0.601038098335266113 0.285672038793563843 0.183982506394386292
0.467867672443389893 -0.321197092533111572 0.127904966473579407
0.467660397291183472 -0.260887950658798218 -0.293173849582672119
-0.404417812824249268 0.300879299640655518 0.142971307039260864
-0.4549083411693573 0.119344316422939301 -0.223761469125747681
0.481545984745025635 -0.312198877334594727 -0.30199819803237915
0.468359977006912231 -0.330831199884414673 -0.00248290970921516418
0.457289218902587891 -0.305639088153839111 -0.291935950517654419
0.524393796920776367 -0.262083470821380615 -0.101531431078910828
-0.409175783395767212 0.319007307291030884 0.162826612591743469
-0.561275362968444824 0.267970383167266846 0.365293115377426147
-0.576779067516326904 0.210588023066520691 -0.200707733631134033
0.447471857070922852 -0.296883523464202881 -0.222554564476013184
0.310819745063781738 -0.0760966017842292786 0.149293974041938782
0.534910202026367188 -0.248259186744689941 0.101695619523525238
-0.563278138637542725 0.119698435068130493 -0.233155921101570129
-0.408839493989944458 0.0766099616885185242 -0.11636931449174881
-0.580163359642028809 0.356729358434677124 0.0826382264494895935
0.0415398068726062775 0.114827394485473633 0.312605202198028564
-0.457256615161895752 0.00896387826651334763 0.181767478585243225
0.409642457962036133 -0.34400603175163269 0.160415291786193848
-0.555269718170166016 0.288702189922332764 -0.0491712279617786407
0.543410301208496094 -0.255914300680160522 0.114132069051265717
0.0238330215215682983 -0.249912366271018982 0.205342456698417664
0.195935100317001343 0.130284905433654785 0.0352327153086662292
0.315522819757461548 -0.370848268270492554 -0.15657004714012146
0.110845476388931274 0.0598319694399833679 0.319352626800537109
-0.315265625715255737 0.306860029697418213 0.284317851066589355
-0.255133599042892456 -0.133002206683158875 -0.0729540809988975525
-0.387151330709457397 -0.0602498799562454224 0.106587901711463928
0.453480958938598633 -0.0727253109216690063 -0.115958288311958313
0.316033154726028442 -0.333164721727371216 0.196257606148719788
0.298218101263046265 0.0383672527968883514 0.0505035035312175751
0.476110786199569702 -0.331014841794967651 0.13687741756439209
0.43985864520072937 -0.267807036638259888 -0.281790941953659058
0.461701363325119019 -0.273066550493240356 0.138441309332847595
0.504232048988342285 -0.346492886543273926 0.0179309099912643433
0.519129395484924316 -0.269671529531478882 -0.0866615325212478638
0.499118000268936157 -0.0878872126340866089 0.162287473678588867
0.542588412761688232 -0.215191826224327087 0.111322000622749329
-0.577591598033905029 0.327219218015670776 0.0804587900638580322
0.247063219547271729 0.111496664583683014 -0.054017338901758194
0.0336899273097515106 0.0686331838369369507 0.272790402173995972
-0.562591075897216797 0.27551501989364624 0.0239953920245170593
-0.614516258239746094 0.272304773330688477 0.0385657735168933868
0.535931825637817383 -0.239196673035621643 0.10335204005241394
-0.576693594455718994 0.212813273072242737 -0.116645343601703644
-0.425802648067474365 0.0304869022220373154 -0.188373610377311707
0.304714500904083252 -0.12651669979095459 -0.107891850173473358
-0.38576430082321167 -0.0557622984051704407 0.100829660892486572
-0.603829324245452881 0.259815216064453125 0.0174739714711904526
-0.461190789937973022 0.306629568338394165 0.0813266634941101074
0.505072593688964844 -0.264059394598007202 -0.108777210116386414
0.534929037094116211 -0.192311868071556091 0.0291666556149721146
-0.616818726062774658 0.210638150572776794 -0.0560878142714500427
0.45297965407371521 -0.123481482267379761 0.0898368284106254578
0.0333564877510070801 -0.279801219701766968 -0.0355166532099246979
0.402226775884628296 -0.318845599889755249 0.131385505199432373
-0.0940108597278594971 0.074259243905544281 0.293419808149337769
0.243444249033927917 -0.136792689561843872 0.0115257268771529198
0.161388933658599854 -0.271676450967788696 0.0442554503679275513
-0.591102361679077148 0.369534760713577271 0.090227857232093811
0.0270300209522247314 -0.0116352038457989693 0.0282365474849939346
0.196149334311485291 0.0342720635235309601 0.178528830409049988
-0.306704491376876831 -0.0914194881916046143 0.305636703968048096
0.493904024362564087 -0.366929680109024048 0.020313359797000885
0.521843910217285156 -0.31142917275428772 0.0465283207595348358
0.503015220165252686 -0.153361082077026367 0.119456842541694641
0.0806703567504882812 -0.272324651479721069 -0.0592087209224700928
-0.326059162616729736 -0.10334835946559906 0.0886155888438224792
-0.586746573448181152 0.335122168064117432 0.0186091270297765732
-0.0741779059171676636 -0.235824733972549438 0.301889777183532715
0.194321349263191223 -0.340148776769638062 -0.0619569458067417145
-0.399422109127044678 0.27224394679069519 -0.0544427931308746338
-0.522445559501647949 0.0440922342240810394 -0.0576274655759334564
-0.258205771446228027 0.142418727278709412 0.0915302708745002747
-0.214143663644790649 -0.136017531156539917 -0.0630213543772697449
0.50893789529800415 -0.104475371539592743 0.144776016473770142
0.214210644364356995 -0.279816955327987671 -0.00888501293957233429
0.238453686237335205 -0.0759188383817672729 0.127287343144416809
-0.140577509999275208 0.296947300434112549 0.148074477910995483
-0.6566428542137146 0.171550765633583069 -0.112441927194595337
0.253725111484527588 -0.00917036551982164383 0.250351309776306152
0.250476181507110596 -0.178696706891059875 0.303093135356903076
-0.263720244169235229 -0.137295141816139221 -0.0674383044242858887
-0.201057270169258118 0.314742624759674072 0.0991970226168632507
0.257930517196655273 -0.27797892689704895 0.323408633470535278
0.179014816880226135 -0.054034791886806488 -0.0505998209118843079
-0.443961381912231445 -0.0667078495025634766 0.129225403070449829
-0.504405081272125244 0.0301893185824155807 0.247245475649833679
-0.49770808219909668 0.0364935733377933502 -0.0115592861548066139
0.233037188649177551 0.023164575919508934 0.314430356025695801
-0.371998995542526245 -0.045773383229970932 0.143544897437095642
-0.349438279867172241 0.10668163001537323 0.0661822184920310974
0.307850420475006104 -0.19868043065071106 0.243338719010353088
0.308840334415435791 -0.00522138085216283798 0.219995394349098206
-0.443332791328430176 0.266770541667938232 -0.0371121242642402649
0.517256736755371094 -0.326639831066131592 -0.0808150023221969604
-0.539423942565917969 0.138482928276062012 -0.0970728248357772827
0.466115355491638184 -0.124317832291126251 0.00248179212212562561
-0.385828912258148193 0.255573570728302002 0.0329488180577754974
0.494177907705307007 -0.301873445510864258 0.121605738997459412
0.465700685977935791 -0.106008812785148621 0.0600756630301475525
0.204013228416442871 0.0153244119137525558 -0.0418104417622089386
-0.224844276905059814 0.296128600835800171 0.158916890621185303
-0.125475585460662842 -0.0490074530243873596 0.0111785801127552986
-0.232009261846542358 0.228770270943641663 0.348367094993591309
-0.38140028715133667 -0.0543434545397758484 0.145653843879699707
0.341585516929626465 -0.0736125633120536804 0.0481569878756999969
-0.436587870121002197 -0.0122735053300857544 0.0342232845723628998
0.205729484558105469 0.0168403610587120056 0.0708201304078102112
0.0562617629766464233 -0.0858334824442863464 0.239622414112091064
-0.384498506784439087 -0.0595542192459106445 0.116766810417175293
-0.137272968888282776 -0.265132606029510498 -0.000910064845811575651
-0.244134515523910522 0.0637456849217414856 0.245051592588424683
-0.542605221271514893 0.211119234561920166 0.162835240364074707
-0.591247141361236572 0.287396728992462158 -0.00721257738769054413
0.307398736476898193 0.0178531110286712646 0.0433359779417514801
0.478539019823074341 -0.315024703741073608 -0.304876983165740967
0.503906607627868652 -0.345601528882980347 -0.0632247701287269592
0.471918970346450806 -0.305102080106735229 0.115620329976081848
0.527269184589385986 -0.302962809801101685 -0.108809322118759155
-0.40329355001449585 0.311825782060623169 0.134874328970909119
0.518008589744567871 -0.251466870307922363 -0.306852728128433228
0.507641255855560303 -0.329296767711639404 -0.314238756895065308
0.519065916538238525 -0.331321746110916138 0.0921671167016029358
0.477430731058120728 -0.304492682218551636 -0.302512049674987793
0.52773815393447876 -0.285693228244781494 -0.107422515749931335
-0.560391247272491455 0.267585813999176025 0.36567986011505127
-0.640617430210113525 0.289868980646133423 0.0852134451270103455
0.371450811624526978 -0.401431798934936523 -0.217009946703910828
-0.450337111949920654 -0.000968727399595081806 0.175259053707122803
0.176772028207778931 0.0731755867600440979 0.00706953927874565125
-0.454190552234649658 0.134594947099685669 -0.213464081287384033
0.403366357088088989 -0.335862874984741211 0.129525065422058105
-0.599419236183166504 0.207550853490829468 0.000896025332622230053
0.24777674674987793 -0.114542081952095032 -0.070321984589099884
-0.483773559331893921 0.182688102126121521 -0.209885656833648682
-0.37667497992515564 -0.0631212443113327026 0.0919079557061195374
0.523155510425567627 -0.320937812328338623 0.0364604443311691284
0.542728781700134277 -0.217260658740997314 0.108848795294761658
0.526005446910858154 -0.273465991020202637 0.0559022724628448486
0.111462891101837158 0.0844124704599380493 0.317647874355316162
-0.351431697607040405 -0.0479438155889511108 0.045230276882648468
0.105365104973316193 0.0725385174155235291 0.295886814594268799
-0.165481910109519958 0.133276432752609253 0.151637181639671326
0.502983510494232178 -0.256524950265884399 -0.101892843842506409
0.429219961166381836 -0.303817719221115112 0.136508390307426453
-0.356243908405303955 -0.10145539790391922 0.159259170293807983
0.498878031969070435 -0.201632946729660034 -0.107349075376987457
-0.578858375549316406 0.348423302173614502 0.152208462357521057
0.105219632387161255 -0.0113892275840044022 0.0215800497680902481
-0.341748565435409546 -0.123452484607696533 0.104822114109992981
-0.121053531765937805 -0.275778204202651978 0.174364447593688965
-0.161292895674705505 0.167621389031410217 0.325441241264343262
0.515238702297210693 -0.358598440885543823 0.0273881591856479645
0.521304905414581299 -0.28756403923034668 -0.0110847065225243568
0.479291290044784546 -0.139790713787078857 0.108229279518127441
-0.181160330772399902 0.0293717421591281891 0.0262100454419851303
-0.342464298009872437 -0.121672101318836212 0.103965073823928833
-0.600557088851928711 0.377163976430892944 0.188444584608078003
-0.120029613375663757 -0.266859650611877441 0.218609169125556946
0.523663103580474854 -0.308861315250396729 -0.0741998255252838135
0.516453146934509277 -0.252283871173858643 -0.308976709842681885
0.455087840557098389 -0.308450847864151001 -0.293926477432250977
0.240952491760253906 -0.095806710422039032 0.159149989485740662
-0.62060624361038208 0.272492200136184692 0.0372531116008758545
-0.43040621280670166 -0.00371379614807665348 0.177507862448692322
-0.250913441181182861 -0.137068048119544983 -0.070815742015838623
0.317568451166152954 -0.318987846374511719 0.123088210821151733
0.539638102054595947 -0.249604836106300354 0.107229538261890411
0.453103244304656982 -0.139660865068435669 0.0160281527787446976
0.429644465446472168 -0.320983946323394775 0.124295353889465332
0.413431495428085327 -0.33099675178527832 -0.209250003099441528
0.474243015050888062 -0.128358229994773865 0.110113851726055145
-0.549305379390716553 0.37895771861076355 0.172688350081443787
0.190601140260696411 -0.339959204196929932 -0.0128399878740310669
-0.202145501971244812 -0.135576233267784119 -0.0681403279304504395
-0.185670226812362671 0.31247258186340332 0.118192970752716064
0.103642456233501434 0.108078993856906891 0.174890428781509399
-0.444813251495361328 -0.0542828775942325592 0.0920428633689880371
-0.48984980583190918 0.030140584334731102 0.0170272253453731537
0.231800556182861328 0.011358192190527916 0.315507471561431885
-0.0246270373463630676 0.113531135022640228 0.312807977199554443
0.243650183081626892 -0.0383635908365249634 0.205171078443527222
-0.385178446769714355 0.24558296799659729 0.034540913999080658
-0.654478967189788818 0.216916441917419434 -0.0391457825899124146
0.483409494161605835 -0.116067610681056976 0.0240559540688991547
0.122503779828548431 0.0798327177762985229 0.139019280672073364
-0.382386714220046997 -0.0725618302822113037 0.0958526059985160828
0.32011491060256958 -0.0721698850393295288 0.0629768446087837219
-0.441145718097686768 -0.0116196945309638977 0.00706973951309919357
-0.502599418163299561 0.233850032091140747 -0.0709134712815284729
-0.547671914100646973 0.20359368622303009 -0.0683447271585464478
0.0888649895787239075 0.0920026972889900208 0.0804852023720741272
-0.520290851593017578 0.204711735248565674 -0.0469831749796867371
-0.168393239378929138 0.0726587027311325073 0.232805207371711731
-0.0575430057942867279 -0.186907753348350525 0.0271915346384048462
-0.212651506066322327 0.291147470474243164 0.109439663589000702
0.250042110681533813 -0.0052010146901011467 0.0228955186903476715
-0.556140601634979248 0.204628139734268188 0.118488319218158722
-0.457687228918075562 0.21665365993976593 0.024746239185333252
-0.462979644536972046 0.266710907220840454 -0.0025143700186163187
-0.575854063034057617 0.247766703367233276 -0.0762896090745925903
-0.389735579490661621 0.275320261716842651 -0.0838584005832672119
0.344171375036239624 -0.134419903159141541 0.319363623857498169
-0.498990654945373535 0.207021176815032959 -0.0114182913675904274
-0.346315979957580566 0.293065428733825684 -0.0498565211892127991
0.526241481304168701 -0.361012816429138184 0.04229016974568367
-0.540303409099578857 0.215429231524467468 0.201200380921363831
-0.569658279418945312 0.294637978076934814 -0.00301822228357195854
0.317086696624755859 0.0239879302680492401 0.0493227839469909668
0.482163429260253906 -0.307164907455444336 -0.303182065486907959
0.48000827431678772 -0.326227515935897827 0.125893339514732361
0.523420929908752441 -0.307012379169464111 -0.0981956645846366882
0.490512430667877197 -0.310929626226425171 -0.306944519281387329
0.516522109508514404 -0.324938684701919556 0.120358832180500031
0.444698959589004517 -0.300369769334793091 -0.290163516998291016
0.523439943790435791 -0.304561376571655273 -0.0968577861785888672
0.134595245122909546 0.116760089993476868 0.33750346302986145
-0.642800748348236084 0.2428121417760849 -0.00933880265802145004
-0.293157875537872314 -0.114058569073677063 -0.105401307344436646
0.539569377899169922 -0.255352973937988281 0.0927282124757766724
0.129441380500793457 0.0979525670409202576 0.317778974771499634
-0.235702216625213623 -0.143714115023612976 -0.0710438191890716553
0.252825438976287842 0.0302092563360929489 -0.0853969007730484009
0.531225323677062988 -0.323094487190246582 0.00734768854454159737
-0.599708378314971924 0.30765765905380249 0.104594431817531586
0.532430648803710938 -0.244525060057640076 0.0870822370052337646
-0.374557733535766602 -0.0608150660991668701 0.0925688594579696655
0.526792287826538086 -0.275324732065200806 -0.122735224664211273
-0.501559019088745117 0.149003833532333374 0.353179365396499634
0.385477006435394287 -0.297577917575836182 0.132347866892814636
0.132684648036956787 -0.332217305898666382 -0.100028090178966522
0.522998452186584473 -0.354849040508270264 -0.0144232213497161865
-0.436942070722579956 0.150592565536499023 -0.0847666636109352112
0.516067326068878174 -0.300026625394821167 0.0652297362685203552
0.393240571022033691 -0.368066936731338501 -0.213212132453918457
0.500923812389373779 -0.171272605657577515 0.130586251616477966
0.533497929573059082 -0.333956360816955566 0.0289045553654432297
-0.580290794372558594 0.349152535200119019 0.0404056757688522339
0.520141005516052246 -0.241032898426055908 -0.308216720819473267
-0.60137253999710083 0.370973765850067139 0.104745633900165558
-0.501060724258422852 0.147374376654624939 0.355383932590484619
0.234184011816978455 -0.277771204710006714 0.317792028188705444
-0.181760281324386597 -0.137184396386146545 -0.0552927851676940918
-0.228846341371536255 -0.138150110840797424 -0.0532062426209449768
-0.204444140195846558 0.298762261867523193 0.127020597457885742
0.2627602219581604 -0.28957638144493103 0.324095427989959717
-0.362749665975570679 -0.030470043420791626 0.119790293276309967
-0.500628173351287842 0.0194837935268878937 0.0320545285940170288
0.243287667632102966 0.000431919819675385952 0.322751373052597046
0.141443803906440735 -0.290392071008682251 0.312084078788757324
0.308420926332473755 -0.207399755716323853 0.248673751950263977
-0.386487007141113281 0.255114287137985229 0.0345928668975830078
0.531440913677215576 -0.262145400047302246 0.103453181684017181
0.224498465657234192 0.0230841413140296936 0.305905640125274658
0.530817627906799316 -0.147425949573516846 -0.307714372873306274
-0.645331084728240967 0.23156420886516571 -0.0473743267357349396
0.541512489318847656 -0.310910642147064209 -0.0439338237047195435
0.507963061332702637 -0.26787915825843811 -0.311005234718322754
0.514430761337280273 -0.316234856843948364 -0.294609904289245605
0.458995670080184937 -0.2910442054271698 -0.296093165874481201
-0.543607771396636963 0.268270671367645264 -0.189163833856582642
-0.621831238269805908 0.289269059896469116 0.0667637065052986145
0.363598555326461792 -0.38441506028175354 -0.205634981393814087
-0.0924816206097602844 0.267688214778900146 0.189682230353355408
-0.449004083871841431 0.131310299038887024 -0.208566129207611084
-0.575950026512145996 0.203913077712059021 -0.126929759979248047
-0.630547463893890381 0.191898107528686523 -0.0397954508662223816
-0.470317035913467407 0.138951048254966736 -0.230883985757827759
0.258028119802474976 -0.0169040188193321228 -0.0715929120779037476
0.230919778347015381 0.0541078299283981323 -0.0446748547255992889
0.113379485905170441 0.110159538686275482 0.302039414644241333
-0.58463895320892334 0.218486696481704712 -0.221293643116950989
-0.598658919334411621 0.235469669103622437 -0.0106604471802711487
-0.36752694845199585 -0.0917001888155937195 0.123035430908203125
-0.330503225326538086 -0.125359147787094116 0.137494340538978577
-0.635073959827423096 0.199823200702667236 -0.0382142588496208191
-0.426215887069702148 -0.0548498779535293579 0.0994145423173904419
-0.478633850812911987 0.0201959311962127686 -0.0363768897950649261
0.209061190485954285 0.00894350558519363403 0.301280051469802856
-0.634626448154449463 0.248345851898193359 -0.00590834347531199455
-0.128110095858573914 0.270311355590820312 0.132552042603492737
0.271294176578521729 -0.330226749181747437 0.180541366338729858
0.533310651779174805 -0.21002805233001709 -0.0983439609408378601
-0.126813769340515137 -0.112699985504150391 -0.0544897466897964478
0.454276919364929199 -0.339029073715209961 -0.297627091407775879
-0.212988406419754028 0.0363336578011512756 -0.0593856237828731537
-0.553649365901947021 0.176001787185668945 0.0129239493981003761
-0.198784857988357544 0.139892667531967163 0.0214423574507236481
-0.0126934163272380829 -0.102492615580558777 -0.0425999164581298828
0.265001863241195679 -0.274797439575195312 0.202893525362014771
0.348920345306396484 -0.32107970118522644 0.00044747427455149591
-0.1561785489320755 0.0700155347585678101 0.027839217334985733
-0.249560683965682983 0.130995959043502808 -0.0341506265103816986
0.199484363198280334 0.00193705956917256117 0.0195391625165939331
0.0765596553683280945 0.0811823979020118713 0.0243474338203668594
-0.283769994974136353 0.288629680871963501 -0.00564519269391894341
0.477071195840835571 -0.289925545454025269 -0.301253974437713623
-0.557326138019561768 0.266036927700042725 -0.0171278156340122223
-0.237753197550773621 0.0978188663721084595 -0.0321647189557552338
0.137936681509017944 -0.280806064605712891 0.150449320673942566
0.296619415283203125 -0.297332614660263062 0.0573883615434169769
-0.286369889974594116 0.257582604885101318 0.000820067652966827154
-0.0211106669157743454 -0.0401579700410366058 0.0893384367227554321
0.204903244972229004 0.0430900268256664276 0.0661580786108970642
-0.144020780920982361 -0.0850834697484970093 0.0920081883668899536
0.372953861951828003 -0.0731247738003730774 0.0320665128529071808
0.521623671054840088 -0.198965594172477722 -0.0980329513549804688
0.487206399440765381 -0.297919660806655884 -0.304913818836212158
0.48073849081993103 -0.314682036638259888 0.122792191803455353
0.513798296451568604 -0.307132095098495483 -0.101944424211978912
0.496119648218154907 -0.309549182653427124 -0.309285938739776611
0.506402492523193359 -0.327723890542984009 -0.00365343294106423855
0.512024462223052979 -0.324376791715621948 0.118822835385799408
0.466003775596618652 -0.2888316810131073 -0.296107321977615356
0.438163548707962036 -0.26344609260559082 -0.193826660513877869
0.135404229164123535 0.117408081889152527 0.337419688701629639
0.396863460540771484 -0.244099989533424377 0.319209754467010498
-0.602055609226226807 0.354708284139633179 0.0656340718269348145
-0.505630552768707275 0.357641905546188354 0.178441539406776428
0.542933225631713867 -0.282317250967025757 0.0983943939208984375
0.256784141063690186 0.0371870733797550201 -0.0715969353914260864
-0.233520865440368652 0.156240284442901611 -0.00499982573091983795
0.506391286849975586 -0.331892490386962891 -0.00207679113373160362
0.444961309432983398 -0.250044137239456177 -0.227548480033874512
-0.639612555503845215 0.254867225885391235 0.0546480752527713776
0.532916665077209473 -0.262483566999435425 0.093713223934173584
-0.393745005130767822 -0.0591819137334823608 0.100616976618766785
0.524111628532409668 -0.289575457572937012 -0.0916368886828422546
0.0277828071266412735 -0.274283349514007568 -0.0349810570478439331
0.385439068078994751 -0.305924326181411743 0.119274087250232697
-0.582724511623382568 0.367286801338195801 0.131816178560256958
0.240601003170013428 0.00332534476183354855 0.18156886100769043
-0.113183982670307159 0.165952444076538086 0.347790449857711792
0.482391327619552612 -0.368302434682846069 -0.0216018594801425934
0.412360310554504395 -0.32123681902885437 -0.210583850741386414
0.507657647132873535 -0.155222684144973755 0.124503254890441895
0.529043316841125488 -0.334600061178207397 0.013277190737426281
-0.584695756435394287 0.336823374032974243 0.0342296361923217773
-0.591296672821044922 0.382392674684524536 0.131369203329086304
0.526430010795593262 -0.24439026415348053 -0.310193777084350586
0.474542051553726196 -0.290849626064300537 -0.299005389213562012
-0.597770094871520996 0.354170292615890503 0.169763356447219849
-0.58789217472076416 0.371922910213470459 0.10121510922908783
-0.212642237544059753 -0.129650399088859558 -0.057423856109380722
0.234505951404571533 -0.292875915765762329 0.31535831093788147
0.238436430692672729 0.0676235631108283997 0.320500195026397705
0.542058825492858887 -0.313758641481399536 -0.0576571002602577209
-0.445355802774429321 -0.0482855625450611115 0.127236142754554749
0.359628587961196899 -0.388497382402420044 -0.208583369851112366
-0.557219862937927246 0.211386844515800476 -0.113492146134376526
0.520983278751373291 -0.279530644416809082 -0.176659911870956421
0.242282241582870483 0.0352401882410049438 0.314980208873748779
0.243096873164176941 0.000789359735790640116 0.0241227801889181137
0.381148219108581543 0.0392788723111152649 0.0123969046398997307
0.526909708976745605 -0.230679109692573547 -0.309696108102798462
0.327437520027160645 0.0966352894902229309 -0.035414673388004303
-0.374974548816680908 -0.0603490620851516724 -0.1326884925365448
0.513273656368255615 -0.167226746678352356 0.136393621563911438
-0.575065135955810547 0.322423756122589111 0.0496037304401397705
-0.55957329273223877 0.283912599086761475 0.36421850323677063
0.224725723266601562 0.0322859287261962891 -0.0577306970953941345
-0.575026512145996094 0.214798018336296082 -0.220923975110054016
-0.0443708822131156921 0.157026395201683044 0.0815512761473655701
0.114281199872493744 0.110495857894420624 0.0258661378175020218
0.342922508716583252 -0.246956095099449158 -0.0964169502258300781
-0.285548239946365356 0.30083918571472168 -0.00255334516987204552
0.153483927249908447 -0.00406560488045215607 -0.00313996779732406139
0.0691924616694450378 0.139315754175186157 0.0760524272918701172
-0.270525842905044556 0.280582904815673828 0.00198158272542059422
0.503525614738464355 -0.292585998773574829 -0.158898055553436279
0.137112081050872803 -0.0255130492150783539 0.0135351503267884254
-0.339677661657333374 -0.0319092422723770142 0.0230255778878927231
0.373758286237716675 -0.0915299281477928162 0.0447786822915077209
0.20028156042098999 0.101707473397254944 -0.0013515641912817955
-0.297872424125671387 -0.0249155163764953613 0.0361785367131233215
0.13189387321472168 -0.0175265409052371979 -0.0256720781326293945
0.101547114551067352 0.016444103792309761 0.0916266068816184998
0.175977528095245361 0.119839228689670563 0.038474738597869873
-0.231029227375984192 -0.0635403022170066833 0.104911543428897858
0.486192226409912109 -0.29678267240524292 -0.303141564130783081
-0.603751242160797119 0.289952188730239868 0.185217335820198059
0.467465013265609741 -0.308562815189361572 0.120550572872161865
0.378693044185638428 -0.014077313244342804 0.00687586981803178787
0.5145530104637146 -0.295260220766067505 -0.103034153580665588
0.518975436687469482 -0.239780411124229431 -0.307197809219360352
0.478022068738937378 -0.309856802225112915 -0.29989856481552124
0.483509749174118042 -0.274623513221740723 -0.299516975879669189
0.11743558943271637 0.119291998445987701 0.297987520694732666
-0.584757149219512939 0.356775879859924316 0.0658614039421081543
0.383966356515884399 -0.337230980396270752 0.125956833362579346
-0.575072348117828369 0.318040609359741211 -0.0264807604253292084
-0.605094075202941895 0.217379719018936157 -0.0868209376931190491
0.268064647912979126 0.0395803861320018768 -0.0857875049114227295
-0.357122123241424561 -0.0222077462822198868 -0.130962461233139038
-0.564872086048126221 0.314681082963943481 -0.00783483963459730148
0.190634980797767639 -0.340937912464141846 -0.0743954330682754517
0.404265105724334717 -0.357756733894348145 -0.223648592829704285
-0.500810086727142334 0.14595717191696167 0.354727655649185181
0.509961426258087158 -0.151182636618614197 0.115476742386817932
0.49697384238243103 -0.264013916254043579 -0.303997665643692017
0.458093047142028809 -0.280998408794403076 -0.289353221654891968
0.441062182188034058 -0.265068739652633667 -0.283303827047348022
-0.588575124740600586 0.357878208160400391 0.0617736987769603729
0.505587399005889893 -0.126476764678955078 0.124898515641689301
-0.206548780202865601 0.312927097082138062 0.10900542140007019
0.268357783555984497 -0.283884614706039429 0.319559395313262939
0.23287685215473175 0.00397118460386991501 0.318273186683654785
0.51344001293182373 -0.175664961338043213 -0.281333565711975098
-0.115555055439472198 0.0100952228531241417 0.00618892349302768707
0.403995722532272339 -0.359787046909332275 -0.224272564053535461
0.417871445417404175 -0.313128888607025146 0.144220918416976929
-0.55604177713394165 0.376969724893569946 0.186833456158638
-0.175921410322189331 0.309610694646835327 0.118697196245193481
-0.390333026647567749 0.276292085647583008 -0.0848597511649131775
0.365715175867080688 0.0522282198071479797 0.0250995904207229614
0.129421904683113098 0.116191759705543518 0.319217562675476074
-0.287237077951431274 -0.1007193922996521 -0.0918172523379325867
0.258485972881317139 0.101275436580181122 -0.0615592561662197113
-0.361981838941574097 -0.0599155165255069733 -0.143946006894111633
0.134379670023918152 0.11415669322013855 0.338162392377853394
-0.563802182674407959 0.199434965848922729 -0.228897199034690857
-0.276870846748352051 0.288360714912414551 -0.000642798549961298704
0.455026596784591675 -0.246542870998382568 -0.287887036800384521
0.460358917713165283 -0.275525659322738647 -0.290419191122055054
-0.635405957698822021 0.308585286140441895 0.170408129692077637
0.512697577476501465 -0.317398011684417725 -0.0381252840161323547
0.469065427780151367 -0.265915006399154663 -0.297546923160552979
0.478266149759292603 -0.29514843225479126 -0.299832254648208618
0.458283454179763794 -0.246325582265853882 -0.289458781480789185
0.38123089075088501 -0.361129015684127808 -0.213461935520172119
-0.48006904125213623 -0.0123805515468120575 0.185963749885559082
-0.517002105712890625 0.366218805313110352 0.174135759472846985
-0.619180738925933838 0.202263385057449341 -0.0870900377631187439
-0.237832009792327881 0.0188922137022018433 -0.0722942054271697998
-0.383236050605773926 -0.0590082928538322449 0.0238874386996030807
0.475092917680740356 -0.368277430534362793 0.0222715344280004501
-0.649842917919158936 0.237085103988647461 0.0322765782475471497
0.412697851657867432 -0.346843302249908447 -0.2212420254945755
0.526315927505493164 -0.337013661861419678 0.0805262625217437744
0.506171464920043945 -0.239090859889984131 -0.30765688419342041
0.24969559907913208 -0.282074093818664551 0.318607240915298462
0.239592880010604858 0.0670523792505264282 0.315046459436416626
0.539764881134033203 -0.301771670579910278 -0.0932173505425453186
-0.448508709669113159 -0.0412802621722221375 0.126667425036430359
-0.0439199917018413544 0.10489363968372345 0.318081289529800415
0.248335540294647217 0.0214762184768915176 0.322609573602676392
-0.28555712103843689 -0.0998548418283462524 -0.0988364741206169128
-0.138152390718460083 -0.0149984396994113922 -0.0485303625464439392
-0.278284013271331787 0.33828088641166687 0.0472229234874248505
-0.255126088857650757 0.290263772010803223 -0.00297845550812780857
-0.219237864017486572 0.322327852249145508 0.0701005831360816956
-0.573898732662200928 0.152455493807792664 -0.0743890479207038879
-0.290395438671112061 0.29307141900062561 0.0162828359752893448
0.525874972343444824 -0.320541262626647949 0.0276418458670377731
0.346489012241363525 -0.0302273482084274292 -0.033992961049079895
0.522491753101348877 -0.362787961959838867 0.0898573622107505798
-0.0836050435900688171 -0.111738346517086029 0.0787725821137428284
-0.404464513063430786 0.326464325189590454 0.121380522847175598
0.504972338676452637 -0.367004275321960449 -0.00402690749615430832
-0.118874318897724152 0.266562402248382568 0.121246576309204102
0.518963038921356201 -0.3428458571434021 0.0363083705306053162
0.130251377820968628 -0.334597527980804443 0.301538974046707153
0.466901302337646484 -0.310929954051971436 0.0729327648878097534
0.483098089694976807 -0.37391960620880127 0.0527895502746105194
0.421549886465072632 -0.0256964471191167831 0.065356329083442688
0.494365215301513672 -0.363474279642105103 -0.0150749590247869492
-0.233306810259819031 0.287575125694274902 0.0843865349888801575
0.531447947025299072 -0.331659406423568726 -0.00676379632204771042
-0.272334307432174683 0.315840810537338257 0.114185705780982971
0.308655887842178345 0.00293167959898710251 0.0467729344964027405
0.467549175024032593 -0.263521194458007812 -0.295617491006851196
0.474115759134292603 -0.304180532693862915 0.114706747233867645
0.511365413665771484 -0.313601493835449219 -0.103934623301029205
0.509316205978393555 -0.245440483093261719 -0.307978034019470215
0.448062539100646973 -0.292639225721359253 -0.292314320802688599
0.46650812029838562 -0.283399015665054321 -0.296829760074615479
0.138618797063827515 0.113275341689586639 0.337104648351669312
-0.652646243572235107 0.286153316497802734 0.0980340912938117981
-0.638898849487304688 0.245128020644187927 -0.038131028413772583
0.136576056480407715 0.069723471999168396 0.338222801685333252
-0.57768625020980835 0.304134607315063477 -0.0554712563753128052
0.262835234403610229 0.0307590477168560028 -0.0729995742440223694
0.542284727096557617 -0.216491177678108215 0.112046070396900177
-0.360761851072311401 -0.0358669459819793701 -0.134145870804786682
-0.575313925743103027 0.327850222587585449 -0.0294905044138431549
-0.362436652183532715 -0.0709989443421363831 -0.0338102839887142181
-0.131012693047523499 -0.267706066370010376 0.119313806295394897
0.495344847440719604 -0.365762084722518921 9.05064807739108801e-05
0.373921126127243042 -0.359527677297592163 -0.209628283977508545
-0.379019379615783691 -0.106915667653083801 0.101464986801147461
-0.0674120411276817322 -0.26404339075088501 0.296691924333572388
0.51999664306640625 -0.243385612964630127 -0.308998525142669678
0.509694218635559082 -0.330464541912078857 0.015735190361738205
-0.593872129917144775 0.3694571852684021 0.120628722012042999
-0.655997276306152344 0.175890952348709106 -0.102946311235427856
-0.223601639270782471 -0.144306421279907227 -0.0535116307437419891
-0.191523745656013489 0.317114025354385376 0.100968495011329651
0.256805449724197388 -0.283362418413162231 0.320044159889221191
0.239541828632354736 0.0326687619090080261 0.31951451301574707
-0.120470069348812103 -0.0460092127323150635 0.00757826259359717369
-0.642090380191802979 0.309078425168991089 0.101908303797245026
0.364800184965133667 -0.374081641435623169 -0.206547021865844727
0.538074016571044922 -0.217498376965522766 0.162322998046875
-0.553253054618835449 0.382954418659210205 0.15803411602973938
-0.122666090726852417 0.259770393371582031 0.115379601716995239
0.119686238467693329 0.102877601981163025 0.08982839435338974
-0.37599608302116394 0.266126751899719238 -0.089389503002166748
0.517134904861450195 -0.348930060863494873 0.0992248654365539551
-0.294193059206008911 -0.107331685721874237 -0.109111659228801727
0.275422900915145874 0.103337623178958893 -0.0571936741471290588
-0.575756847858428955 0.21971505880355835 -0.212518557906150818
-0.115688115358352661 0.269085139036178589 0.180051401257514954
0.236135050654411316 -0.287856608629226685 0.314720273017883301
0.310427874326705933 -0.18711601197719574 0.241441875696182251
0.541974127292633057 -0.32574307918548584 -0.0204614624381065369
0.0788519009947776794 -0.337726354598999023 0.282467544078826904
-0.00665791518986225128 -0.171894297003746033 0.00455711642280220985
-0.282685548067092896 0.262096434831619263 0.00725982571020722389
0.513253509998321533 -0.237157121300697327 -0.308991730213165283
-0.647460281848907471 0.278677791357040405 0.0795817449688911438
-0.646923243999481201 0.183415234088897705 -0.0907936468720436096
0.514337539672851562 -0.322412788867950439 0.0247472375631332397
-0.4075641930103302 -0.0635785385966300964 0.113651342689990997
0.517021000385284424 -0.355639517307281494 -0.0201698746532201767
-0.567069828510284424 0.374822705984115601 0.15253564715385437
0.236300408840179443 0.0434884652495384216 0.314062416553497314
-0.665369927883148193 0.227470323443412781 0.0231572836637496948
-0.44871559739112854 -0.0383784137666225433 0.127176240086555481
0.503153026103973389 -0.302286267280578613 -0.178430750966072083
-0.58962637186050415 0.361503183841705322 0.0861352831125259399
-0.194368466734886169 0.315387755632400513 0.105084292590618134
0.247319802641868591 0.0243824515491724014 0.324202835559844971
0.531107425689697266 -0.323733299970626831 -0.0576278939843177795
-0.183098629117012024 0.307495146989822388 0.12869812548160553
0.247556164860725403 0.00744252465665340424 0.324333757162094116
0.0587920732796192169 0.1401568204164505 0.346018761396408081
-0.506234169006347656 0.149762243032455444 0.356927096843719482
0.270861208438873291 -0.311122536659240723 0.326586931943893433
-0.254278570413589478 0.0236318483948707581 -0.0705123618245124817
0.241185352206230164 -0.29517054557800293 0.322821676731109619
0.249368384480476379 0.0442786850035190582 0.314795732498168945
0.468769669532775879 -0.101681523025035858 0.0350967012345790863
-0.124941736459732056 0.195527151226997375 0.115653462707996368
0.240058958530426025 -0.326515108346939087 0.318266898393630981
0.500477313995361328 -0.366499215364456177 0.0750995203852653503
0.523665785789489746 -0.324612408876419067 0.0266647133976221085
0.44489249587059021 -0.253041386604309082 0.332763046026229858
0.321742832660675049 -0.131355404853820801 -0.106220133602619171
0.0634296461939811707 -0.0104096913710236549 0.321967363357543945
0.511518657207489014 -0.360803186893463135 0.0479612983763217926
0.135785102844238281 -0.100531265139579773 0.040889546275138855
0.0495664551854133606 0.0118104238063097 0.0300369169563055038
0.020798778161406517 0.0485350042581558228 0.0428880825638771057
0.0882042646408081055 -0.0657870620489120483 0.289920210838317871
-0.162589713931083679 -0.265793740749359131 0.148185387253761292
0.265319555997848511 -0.0198556743562221527 0.0619637481868267059
-0.0290273278951644897 -0.0287540983408689499 0.29578167200088501
0.502325594425201416 -0.24040687084197998 -0.301575034856796265
0.47605597972869873 -0.315093129873275757 -0.301534861326217651
-0.631386339664459229 0.306733071804046631 0.167394742369651794
0.475743025541305542 -0.320704370737075806 0.121465243399143219
0.50928264856338501 -0.300823241472244263 -0.105094142258167267
0.528344571590423584 -0.274997472763061523 -0.316768139600753784
0.493656784296035767 -0.332561135292053223 -0.310293108224868774
0.503782510757446289 -0.320020437240600586 0.0984639525413513184
0.474309742450714111 -0.305923879146575928 -0.297684669494628906
-0.559809088706970215 0.26855093240737915 0.364544391632080078
0.125280052423477173 0.11732194572687149 0.314517706632614136
-0.634058296680450439 0.28262782096862793 0.0543294660747051239
-0.587810635566711426 0.363266497850418091 0.102471210062503815
0.371639102697372437 -0.374234288930892944 -0.212323427200317383
0.438719451427459717 -0.347901403903961182 0.154776692390441895
0.0582721047103404999 0.1217617467045784 0.321398437023162842
-0.575021982192993164 0.369314104318618774 0.215577408671379089
0.265097141265869141 0.0248724780976772308 -0.0582038760185241699
0.369049578905105591 -0.336736172437667847 0.161043882369995117
0.510722219944000244 -0.301546216011047363 -0.111543856561183929
0.133582547307014465 -0.320830196142196655 -0.0974454954266548157
0.516803145408630371 -0.348761141300201416 -0.0198255833238363266
0.389444082975387573 -0.346939414739608765 -0.213673636317253113
-0.577492773532867432 0.319479525089263916 0.0408604703843593597
0.536157548427581787 -0.277966827154159546 -0.320174276828765869
0.468017011880874634 -0.311065196990966797 -0.298822611570358276
0.507442712783813477 -0.347084850072860718 0.0183962099254131317
-0.55636131763458252 0.310147315263748169 0.10232919454574585
0.193955227732658386 -0.3395405113697052 -0.0588013716042041779
0.0699903890490531921 -0.282462239265441895 -0.0775901824235916138
0.252691090106964111 -0.250192552804946899 0.320513218641281128
0.240336552262306213 0.0313096717000007629 0.317293226718902588
-0.121333286166191101 -0.047810334712266922 0.00843220576643943787
0.178980425000190735 -0.100109294056892395 -0.0143893267959356308
0.53270643949508667 -0.332268685102462769 -0.0127031244337558746
0.370512336492538452 -0.349673479795455933 -0.208457216620445251
0.535314440727233887 -0.24568098783493042 0.177728772163391113
0.561263203620910645 -0.315930098295211792 -0.330521225929260254
0.554903209209442139 -0.211541220545768738 0.134394988417625427
-0.543715715408325195 0.381255507469177246 0.16457735002040863
0.123196370899677277 0.117560848593711853 0.133495420217514038
-0.582693815231323242 0.352376610040664673 0.0978684946894645691
-0.482141852378845215 0.186117276549339294 -0.0913617536425590515
0.515907645225524902 -0.339141160249710083 0.0393018722534179688
0.253685146570205688 -0.279135346412658691 0.322327286005020142
0.278658121824264526 -0.356169462203979492 -0.125654458999633789
0.508067429065704346 -0.286797910928726196 -0.313241332769393921
-0.432706981897354126 -0.0572474151849746704 0.116864480078220367
0.20240551233291626 0.0908775776624679565 0.223758280277252197
0.244728818535804749 0.104830347001552582 -0.0567735657095909119
-0.195923194289207458 0.201922580599784851 0.349490851163864136
0.250906407833099365 0.0252715107053518295 0.323728770017623901
0.240249216556549072 0.019354628399014473 0.321416407823562622
-0.0313891395926475525 0.163125425577163696 0.382908016443252563
-0.483061522245407104 -0.0156018845736980438 0.180315360426902771
0.484096765518188477 -0.369087725877761841 0.0465447269380092621
-0.643978118896484375 0.287501901388168335 0.0862961560487747192
0.276230752468109131 -0.165861725807189941 -0.0700379833579063416
-0.412373602390289307 -0.0569384954869747162 0.0790952146053314209
-0.643580794334411621 0.175876796245574951 -0.0818779021501541138
-0.226439371705055237 -0.134186163544654846 -0.051969379186630249
0.255196750164031982 -0.265536308288574219 0.321493059396743774
-0.345906466245651245 0.0172078907489776611 -0.116681598126888275
-0.287711381912231445 -0.0918209925293922424 -0.106265872716903687
-0.585659801959991455 0.20991814136505127 -0.217828541994094849
0.267850399017333984 -0.297014445066452026 0.315571963787078857
-0.0258166268467903137 -0.187505722045898438 -0.043156944215297699
-0.618547320365905762 0.277250885963439941 0.0315162725746631622
-0.609299421310424805 0.298615753650665283 0.0925834551453590393
-0.398101240396499634 -0.0629274323582649231 0.119074486196041107
-0.45225447416305542 -0.0382102131843566895 0.11966010183095932
0.431460380554199219 -0.271690249443054199 0.329633265733718872
-0.052434086799621582 0.141083046793937683 0.0920403376221656799
-0.503499269485473633 0.15138716995716095 0.355544090270996094
0.24102485179901123 -0.319332897663116455 0.323165655136108398
0.497477948665618896 -0.370898574590682983 0.0578617677092552185
0.399657338857650757 -0.256807863712310791 0.322909265756607056
-0.158729687333106995 -0.263762593269348145 0.181813687086105347
-0.499713689088821411 0.0140744764357805252 0.158234626054763794
0.417925745248794556 -0.297341972589492798 0.329174518585205078
0.535623729228973389 -0.34026414155960083 -0.0179347842931747437
0.344556540250778198 -0.267596572637557983 -0.127377033233642578
-0.496986538171768188 0.0721071809530258179 0.204124897718429565
0.444003969430923462 -0.272131472826004028 0.333861291408538818
0.522385776042938232 -0.335452914237976074 0.0333050154149532318
0.453577727079391479 -0.320206552743911743 -0.292566031217575073
0.474629819393157959 -0.311712771654129028 0.117207027971744537
0.517450273036956787 -0.278674840927124023 -0.312351614236831665
0.502867400646209717 -0.326239258050918579 -0.313858926296234131
0.518499255180358887 -0.327142864465713501 0.102424450218677521
0.479534924030303955 -0.311725646257400513 -0.301704466342926025
0.114863976836204529 0.118919804692268372 0.289377361536026001
-0.122012414038181305 0.269016236066818237 0.159069538116455078
-0.615292489528656006 0.265726834535598755 0.0522179603576660156
-0.4799460768699646 0.00309259165078401566 0.181495264172554016
0.427049994468688965 -0.35510137677192688 0.159053802490234375
-0.292889416217803955 -0.110917389392852783 -0.105536021292209625
0.130813717842102051 0.0657922029495239258 0.321588099002838135
0.254152983427047729 0.0387921333312988281 -0.0773178860545158386
0.235938295722007751 0.0940474197268486023 -0.0526018291711807251
0.417962580919265747 -0.261784791946411133 -0.201857820153236389
0.522010982036590576 -0.354759722948074341 -0.018952544778585434
-0.609320402145385742 0.381482750177383423 0.181334808468818665
0.51780015230178833 -0.279576927423477173 -0.31427466869354248
0.499467909336090088 -0.350097954273223877 0.0245884023606777191
-0.588291764259338379 0.369645982980728149 0.11315416544675827
0.506497800350189209 -0.104570440948009491 0.147799372673034668
-0.198232501745223999 0.31192132830619812 0.113199293613433838
0.264300823211669922 -0.286593973636627197 0.320160031318664551
0.23738551139831543 0.0624437406659126282 0.310956776142120361
-0.144811168313026428 -0.0435595810413360596 0.00449038855731487274
-0.658305644989013672 0.214829534292221069 -0.0460477620363235474
-0.289138972759246826 -0.0762128382921218872 -0.0683685839176177979
0.227653026580810547 0.0422850735485553741 -0.0476838946342468262
0.552025675773620605 -0.144363060593605042 0.132548987865447998
0.520156323909759521 -0.295399010181427002 0.0754041969776153564
0.517868757247924805 -0.284243613481521606 -0.180692300200462341
-0.358623504638671875 -0.0172355566173791885 -0.0277163498103618622
0.0917629748582839966 0.0884489193558692932 0.0861739292740821838
