ply
format ascii 1.0
element vertex 737
property float x
property float y
property float z
end_header
0.171346008777618408 -0.272226482629776001 0.0369102172553539276
-0.344546854496002197 0.103046782314777374 0.00656788097694516182
-0.365848749876022339 0.282516449689865112 0.0869978815317153931
0.386595815420150757 -0.230114772915840149 -0.121292643249034882
-0.352994620800018311 0.0020558421965688467 0.0353073254227638245
-0.517966747283935547 0.201605260372161865 0.0491182431578636169
-0.384838759899139404 0.182376712560653687 0.0921711921691894531
-0.571709573268890381 0.327795028686523438 -0.0117135671898722649
-0.339001715183258057 -0.088114716112613678 -0.0539203807711601257
-0.136746317148208618 -0.269340634346008301 0.130467444658279419
0.275204509496688843 -0.165990114212036133 0.05541263148188591
0.313246399164199829 -0.302716344594955444 -0.127942606806755066
-0.381113290786743164 0.249883636832237244 0.233411386609077454
0.310898393392562866 -0.217283949255943298 0.201624378561973572
0.496326208114624023 -0.255064487457275391 -0.1049395352602005
-0.118743136525154114 0.0722391903400421143 0.17376941442489624
0.512499868869781494 -0.362088203430175781 -0.0302347112447023392
-0.50905919075012207 0.268631696701049805 -0.00496287131682038307
-0.595108211040496826 0.243564188480377197 -0.00273726461455225945
-0.586229979991912842 0.250655293464660645 0.194271460175514221
-0.547719895839691162 0.120906606316566467 -0.13416445255279541
-0.244775563478469849 0.182346925139427185 0.357047557830810547
0.462417483329772949 -0.264316380023956299 -0.289857178926467896
0.456158548593521118 -0.256065994501113892 -0.186392784118652344
0.519404232501983643 -0.302962213754653931 0.045025356113910675
-0.62561345100402832 0.199898123741149902 0.0449126102030277252
-0.255679786205291748 -0.00503419805318117142 -0.0620356053113937378
0.245719388127326965 0.0987588390707969666 -0.0685473531484603882
0.504983961582183838 -0.160105764865875244 0.131397902965545654
0.343340128660202026 -0.0701826587319374084 0.16253305971622467
0.399979174137115479 -0.237246692180633545 0.130836144089698792
-0.35957673192024231 -0.119193464517593384 0.11657416820526123
-0.478948891162872314 0.189185112714767456 0.0640081390738487244
-0.574597299098968506 0.341629326343536377 0.0252701845020055771
-0.358939260244369507 -0.0637409985065460205 0.0909570083022117615
-0.342701315879821777 0.0112312352284789085 -0.114294327795505524
0.303205996751785278 -0.296033740043640137 0.16251586377620697
-0.504562556743621826 0.220547810196876526 0.141939133405685425
-0.485149919986724854 0.0280251763761043549 -0.0468239709734916687
0.0335022062063217163 0.0876335576176643372 0.088104248046875
-0.231335252523422241 0.346809238195419312 0.14892752468585968
0.0321978181600570679 0.0102041671052575111 0.0423360466957092285
-0.365665644407272339 -0.0371351800858974457 -0.0326387770473957062
-0.047908291220664978 -0.234515964984893799 0.301939308643341064
0.18610033392906189 -0.293071210384368896 0.00407683290541172028
0.234973996877670288 -0.0118338223546743393 0.230644434690475464
-0.526411235332489014 0.140265196561813354 0.0680772960186004639
-0.520239353179931641 0.201016217470169067 -0.0673115849494934082
-0.552174627780914307 0.285344183444976807 0.107549548149108887
0.144088968634605408 0.00749961240217089653 0.308102726936340332
0.0681319087743759155 -0.286435157060623169 -0.0811807736754417419
-0.361947059631347656 0.0348618403077125549 -0.161044344305992126
0.307523876428604126 -0.293858349323272705 0.0300026964396238327
-0.339134067296981812 0.212985515594482422 0.15932154655456543
-0.187955066561698914 0.199654638767242432 0.367940545082092285
-0.54001086950302124 0.254483342170715332 -0.0840486958622932434
0.522584378719329834 -0.199872374534606934 -0.0921323299407958984
-0.518985092639923096 0.184926882386207581 0.136555939912796021
-0.543603777885437012 0.269599407911300659 -0.0023676813580095768
0.471132487058639526 -0.326487928628921509 0.0451022572815418243
0.289113342761993408 0.0307338573038578033 0.0542034134268760681
0.433262437582015991 -0.306293368339538574 -0.28456348180770874
-0.518614768981933594 0.0896386802196502686 -0.134995654225349426
-0.600550532341003418 0.284961551427841187 0.184012159705162048
0.467681884765625 -0.321418493986129761 0.127875238656997681
0.467576920986175537 -0.260827332735061646 -0.293120741844177246
-0.403926670551300049 0.300107121467590332 0.142917752265930176
-0.454247236251831055 0.119052402675151825 -0.223801657557487488
0.481484115123748779 -0.312112331390380859 -0.301949471235275269
0.468206733465194702 -0.330965369939804077 -0.0024960602167993784
0.457235336303710938 -0.305544823408126831 -0.291886299848556519
0.52421271800994873 -0.262223184108734131 -0.101520262658596039
-0.408687829971313477 0.318216472864151001 0.162772968411445618
-0.560780763626098633 0.267194867134094238 0.365321040153503418
-0.576166391372680664 0.210204437375068665 -0.200715139508247375
0.447400420904159546 -0.296851009130477905 -0.222520247101783752
0.310617744922637939 -0.076508060097694397 0.14927305281162262
0.534642994403839111 -0.248548001050949097 0.101678527891635895
-0.562627851963043213 0.119429364800453186 -0.233166724443435669
-0.408185571432113647 0.076254330575466156 -0.116416238248348236
-0.579677164554595947 0.356013357639312744 0.0826606675982475281
0.0416512638330459595 0.114136949181556702 0.312551945447921753
-0.456663727760314941 0.00845633633434772491 0.181725621223449707
0.409521579742431641 -0.344208806753158569 0.160375013947486877
-0.554712951183319092 0.288120567798614502 -0.0491670034825801849
0.543142795562744141 -0.256207317113876343 0.114111796021461487
0.0241956338286399841 -0.250130057334899902 0.205252155661582947
0.195767462253570557 0.129710420966148376 0.0352334342896938324
0.315588474273681641 -0.370757848024368286 -0.156567707657814026
0.110865883529186249 0.0591970086097717285 0.319302737712860107
-0.314803868532180786 0.306021541357040405 0.284248620271682739
-0.254451751708984375 -0.133087217807769775 -0.073029644787311554
-0.386527329683303833 -0.0606194101274013519 0.10651881992816925
0.453204989433288574 -0.0730119273066520691 -0.11592043936252594
0.316002875566482544 -0.333368748426437378 0.196201488375663757
0.297955811023712158 0.0378766395151615143 0.0505123361945152283
0.475927472114562988 -0.331238061189651489 0.136845111846923828
0.439796388149261475 -0.267735391855239868 -0.281741917133331299
0.461490720510482788 -0.273325353860855103 0.138416305184364319
0.504060029983520508 -0.346651643514633179 0.0179101452231407166
0.518949031829833984 -0.269813030958175659 -0.0866534188389778137
0.498746633529663086 -0.088343396782875061 0.162290766835212708
0.542296290397644043 -0.215515822172164917 0.111308634281158447
-0.577099204063415527 0.326524585485458374 0.0804774835705757141
0.246860593557357788 0.111000761389732361 -0.0539984405040740967
0.0338475517928600311 0.0680065527558326721 0.272732943296432495
-0.562067925930023193 0.274886637926101685 0.0240090060979127884
-0.614001631736755371 0.271689176559448242 0.0386001728475093842
0.53565901517868042 -0.239493981003761292 0.103336125612258911
-0.576099038124084473 0.212354183197021484 -0.116642393171787262
-0.425113111734390259 0.0302704814821481705 -0.188419729471206665
0.304633617401123047 -0.126676872372627258 -0.107877790927886963
-0.385141521692276001 -0.0561342239379882812 0.100761137902736664
-0.603303313255310059 0.259219348430633545 0.0175035484135150909
-0.460688561201095581 0.305899232625961304 0.0812899470329284668
0.504905462265014648 -0.264178454875946045 -0.108762919902801514
0.5346413254737854 -0.192607074975967407 0.029167763888835907
-0.61625218391418457 0.210141077637672424 -0.0560617893934249878
0.452667713165283203 -0.123847134411334991 0.0898417010903358459
0.0337780602276325226 -0.279794216156005859 -0.0355830453336238861
0.40209314227104187 -0.319046348333358765 0.131351456046104431
-0.093647293746471405 0.0736183822154998779 0.293352574110031128
0.243409886956214905 -0.137027278542518616 0.0115064280107617378
0.16155301034450531 -0.271783351898193359 0.0442014709115028381
-0.590622484683990479 0.368809908628463745 0.0902565792202949524
0.0272737760096788406 -0.0120256654918193817 0.0281976573169231415
0.196033403277397156 0.0337243564426898956 0.17849692702293396
-0.306102573871612549 -0.0918280929327011108 0.305565983057022095
0.493745863437652588 -0.367072224617004395 0.0202894695103168488
0.521632611751556396 -0.311636269092559814 0.0465088039636611938
0.502696335315704346 -0.153730764985084534 0.119453929364681244
0.081016935408115387 -0.272309184074401855 -0.0592600367963314056
-0.325425028800964355 -0.103638999164104462 0.0885326266288757324
-0.58623194694519043 0.334465831518173218 0.0186346471309661865
-0.073694184422492981 -0.23608042299747467 0.301796019077301025
0.194506183266639709 -0.340114831924438477 -0.0619915388524532318
-0.398856669664382935 0.27163398265838623 -0.0544953383505344391
-0.521805942058563232 0.0437364839017391205 -0.0576378144323825836
-0.257725626230239868 0.141803860664367676 0.0914710238575935364
-0.213487178087234497 -0.136109963059425354 -0.0630982667207717896
0.508575439453125 -0.104910753667354584 0.144778639078140259
0.214310407638549805 -0.279878854751586914 -0.00892066024243831635
0.238353058695793152 -0.0763085559010505676 0.127256244421005249
-0.140285283327102661 0.296170175075531006 0.148007258772850037
-0.656051337718963623 0.171138167381286621 -0.112409219145774841
0.253557860851287842 -0.00970495119690895081 0.250315546989440918
0.250441014766693115 -0.1790657639503479 0.303032755851745605
-0.263034403324127197 -0.137379914522171021 -0.0675149708986282349
-0.200693145394325256 0.313974499702453613 0.0991294458508491516
0.257944345474243164 -0.278270065784454346 0.323343336582183838
0.179046869277954102 -0.0543132014572620392 -0.0506105907261371613
-0.443334013223648071 -0.0670797303318977356 0.129169970750808716
-0.503826618194580078 0.0296468306332826614 0.247234374284744263
-0.497083216905593872 0.0360995680093765259 -0.011580239050090313
0.232878148555755615 0.0225690156221389771 0.314392268657684326
-0.371389240026473999 -0.0461854599416255951 0.143475666642189026
-0.348891079425811768 0.106122575700283051 0.0661273226141929626
0.307754933834075928 -0.199016302824020386 0.243287444114685059
0.308587640523910522 -0.00574922282248735428 0.219976156949996948
-0.442770808935165405 0.266160011291503906 -0.0371534302830696106
0.517108619213104248 -0.326749294996261597 -0.0808173194527626038
-0.538807928562164307 0.138063877820968628 -0.0970776230096817017
0.465818226337432861 -0.124634623527526855 0.00249894196167588234
-0.385304659605026245 0.254900366067886353 0.0328946001827716827
0.493959784507751465 -0.302114784717559814 0.121580064296722412
0.465370684862136841 -0.10638214647769928 0.0600879490375518799
0.20394541323184967 0.0149390837177634239 -0.0418093614280223846
-0.224453911185264587 0.295345544815063477 0.158845439553260803
-0.124973863363265991 -0.0493132844567298889 0.0111149623990058899
-0.231593102216720581 0.227968961000442505 0.348303318023681641
-0.380784869194030762 -0.0547444969415664673 0.145585104823112488
0.341358006000518799 -0.0739749819040298462 0.0481587722897529602
-0.435958832502365112 -0.0126508371904492378 0.0341742038726806641
0.205615535378456116 0.016371261328458786 0.0708046257495880127
0.0564744509756565094 -0.0862561538815498352 0.239549458026885986
-0.383877068758010864 -0.0599310919642448425 0.116697512567043304
-0.136643707752227783 -0.265146970748901367 -0.00100740022026002407
-0.243630945682525635 0.0631429627537727356 0.244982615113258362
-0.542097628116607666 0.210449710488319397 0.162839055061340332
-0.590716004371643066 0.286791890859603882 -0.00718580605462193489
0.307141572237014771 0.0173888914287090302 0.0433449260890483856
0.478482246398925781 -0.314933121204376221 -0.3048287034034729
0.503769636154174805 -0.345704942941665649 -0.0632326528429985046
0.471712350845336914 -0.305328011512756348 0.115595638751983643
0.527113258838653564 -0.303071916103363037 -0.108803361654281616
-0.402804642915725708 0.311050623655319214 0.134820058941841125
0.517898142337799072 -0.251444846391677856 -0.306803375482559204
0.507579624652862549 -0.329216867685317993 -0.314194530248641968
0.518858015537261963 -0.331540703773498535 0.0921389684081077576
0.477366328239440918 -0.304404258728027344 -0.302460640668869019
0.527571320533752441 -0.285814344882965088 -0.107414118945598602
-0.559896647930145264 0.266810178756713867 0.365707427263259888
-0.640127062797546387 0.289216548204421997 0.0852636769413948059
0.371496081352233887 -0.401305407285690308 -0.216994479298591614
-0.449740707874298096 -0.00145797280129045248 0.175214663147926331
0.176682308316230774 0.072679571807384491 0.00706711504608392715
-0.453536659479141235 0.134275466203689575 -0.213504210114479065
0.403242498636245728 -0.336051255464553833 0.129489585757255554
-0.598877370357513428 0.207005336880683899 0.000923164596315473318
0.247751981019973755 -0.114734455943107605 -0.0703234449028968811
-0.483134657144546509 0.182314410805702209 -0.209921941161155701
-0.376047998666763306 -0.0634765923023223877 0.091836392879486084
0.522952795028686523 -0.321133702993392944 0.0364404581487178802
0.542438030242919922 -0.217581704258918762 0.108835391700267792
0.525765657424926758 -0.273706346750259399 0.0558875389397144318
0.1114664226770401 0.0837508067488670349 0.317600280046463013
-0.350802093744277954 -0.048279833048582077 0.0451596640050411224
0.105389989912509918 0.0718950778245925903 0.295836508274078369
-0.165084660053253174 0.132638633251190186 0.151574581861495972
0.502810418605804443 -0.256653636693954468 -0.101878635585308075
0.429054886102676392 -0.304041624069213867 0.136477485299110413
-0.35561254620552063 -0.101797908544540405 0.159178927540779114
0.498674958944320679 -0.201798707246780396 -0.107325732707977295
-0.578378140926361084 0.347680866718292236 0.152227893471717834
0.105320483446121216 -0.011784721165895462 0.0215510297566652298
-0.341104716062545776 -0.123728103935718536 0.104737237095832825
-0.120481371879577637 -0.275934994220733643 0.174253001809120178
-0.16091492772102356 0.166877597570419312 0.325376302003860474
0.515066206455230713 -0.358762800693511963 0.0273630451411008835
0.521097898483276367 -0.287749439477920532 -0.0110919279977679253
0.478973686695098877 -0.140158936381340027 0.108230091631412506
-0.180655449628829956 0.0289418306201696396 0.0261527113616466522
-0.341820895671844482 -0.121949732303619385 0.103880524635314941
-0.60008472204208374 0.37639850378036499 0.188477233052253723
-0.119469620287418365 -0.267047315835952759 0.218501418828964233
0.523498296737670898 -0.308989912271499634 -0.0742007717490196228
0.516344964504241943 -0.252258330583572388 -0.308927059173583984
0.455038636922836304 -0.308353334665298462 -0.293877840042114258
0.24086230993270874 -0.0961909815669059753 0.159110993146896362
-0.620091497898101807 0.271879523992538452 0.0372901521623134613
-0.429809808731079102 -0.00419997470453381538 0.177457988262176514
-0.250233173370361328 -0.137149542570114136 -0.0708919167518615723
0.317521125078201294 -0.319156825542449951 0.123044304549694061
0.539369106292724609 -0.249897554516792297 0.107211314141750336
0.452827960252761841 -0.139963343739509583 0.0160398539155721664
0.429488986730575562 -0.321188926696777344 0.12426428496837616
0.413400620222091675 -0.330935657024383545 -0.209223747253417969
0.473917096853256226 -0.128737643361091614 0.110116623342037201
-0.548828601837158203 0.378176480531692505 0.172693133354187012
0.190771177411079407 -0.33997073769569397 -0.0128855379298329353
-0.201494351029396057 -0.135663703083992004 -0.0682162344455718994
-0.185325279831886292 0.311696559190750122 0.118124634027481079
0.103639490902423859 0.107444263994693756 0.17485104501247406
-0.444184839725494385 -0.0546476580202579498 0.0919893383979797363
-0.489233940839767456 0.0297275837510824203 0.0170022044330835342
0.231652125716209412 0.010774761438369751 0.315467119216918945
-0.0244001634418964386 0.112842388451099396 0.312748342752456665
0.243515506386756897 -0.0388407334685325623 0.205134615302085876
-0.384653270244598389 0.24491746723651886 0.0344874449074268341
-0.653925895690917969 0.216411605477333069 -0.0391049608588218689
0.483085721731185913 -0.116415694355964661 0.0240718405693769455
0.122485369443893433 0.0792520493268966675 0.138987138867378235
-0.381755143404006958 -0.0729088708758354187 0.0957793295383453369
0.319907933473587036 -0.0725382417440414429 0.0629724934697151184
-0.440504401922225952 -0.0119757466018199921 0.00702180899679660797
-0.502015829086303711 0.233312129974365234 -0.0709349438548088074
-0.547088682651519775 0.203092947602272034 -0.068347148597240448
0.0888940021395683289 0.0914302319288253784 0.0804598778486251831
-0.519714176654815674 0.20418316125869751 -0.0469950921833515167
-0.167955368757247925 0.072049751877784729 0.232735574245452881
-0.057051289826631546 -0.187041133642196655 0.0271086264401674271
-0.212270081043243408 0.290388554334640503 0.109372317790985107
0.249891430139541626 -0.00561556126922369003 0.0228932388126850128
-0.555636227130889893 0.203989624977111816 0.118498288094997406
-0.457143485546112061 0.216035082936286926 0.0247119516134262085
-0.462431758642196655 0.26607164740562439 -0.00255194935016334057
-0.575280368328094482 0.247245907783508301 -0.076281130313873291
-0.389145433902740479 0.274724453687667847 -0.0839177221059799194
0.343992173671722412 -0.134857133030891418 0.319323271512985229
-0.498429745435714722 0.206450402736663818 -0.0114386184141039848
-0.345774710178375244 0.29243004322052002 -0.0499163791537284851
0.526061058044433594 -0.361190974712371826 0.0422619134187698364
-0.539796292781829834 0.214738130569458008 0.201204657554626465
-0.56913226842880249 0.29401126503944397 -0.00299280625768005848
0.316810756921768188 0.0235116723924875259 0.0493335500359535217
0.482098489999771118 -0.307079434394836426 -0.303131967782974243
0.47981753945350647 -0.326449543237686157 0.125863268971443176
0.523265063762664795 -0.307124137878417969 -0.0981919094920158386
0.490447163581848145 -0.310847878456115723 -0.30689626932144165
0.516310930252075195 -0.325174868106842041 0.120328478515148163
0.444652259349822998 -0.300273120403289795 -0.290115058422088623
0.523282051086425781 -0.304675549268722534 -0.0968538522720336914
0.13453298807144165 0.116061091423034668 0.337462633848190308
-0.642264068126678467 0.242261350154876709 -0.00929621793329715729
-0.29244840145111084 -0.114134460687637329 -0.105472102761268616
0.539303839206695557 -0.255633682012557983 0.0927108153700828552
0.129403054714202881 0.0972780957818031311 0.317735224962234497
-0.235027387738227844 -0.143785834312438965 -0.0711204707622528076
0.252685844898223877 0.0298335831612348557 -0.0853794887661933899
0.531029224395751953 -0.32327568531036377 0.00733051123097538948
-0.599220931529998779 0.306970566511154175 0.104622557759284973
0.532164037227630615 -0.244807898998260498 0.0870677009224891663
-0.373932451009750366 -0.061173904687166214 0.0924974679946899414
0.526626110076904297 -0.275441020727157593 -0.122722364962100983
-0.501035869121551514 0.148305103182792664 0.353186160326004028
0.385343044996261597 -0.297788441181182861 0.132314398884773254
0.132980272173881531 -0.332131415605545044 -0.100065477192401886
0.52283477783203125 -0.354993671178817749 -0.0144426394253969193
-0.436327695846557617 0.150127395987510681 -0.0848065987229347229
0.515845537185668945 -0.300248920917510986 0.0652102157473564148
0.393243789672851562 -0.367969930171966553 -0.213189810514450073
0.500620484352111816 -0.171629145741462708 0.130578741431236267
0.533300638198852539 -0.334145784378051758 0.0288823395967483521
-0.579787313938140869 0.348470062017440796 0.0404285527765750885
0.520024478435516357 -0.241019144654273987 -0.308167070150375366
-0.600896358489990234 0.370247334241867065 0.104778341948986053
-0.500537455081939697 0.146676376461982727 0.355390846729278564
0.234228149056434631 -0.278054267168045044 0.317724734544754028
-0.181129083037376404 -0.137285202741622925 -0.055369596928358078
-0.228184446692466736 -0.138250246644020081 -0.053284909576177597
-0.204075068235397339 0.297991275787353516 0.126951739192008972
0.26277458667755127 -0.289859741926193237 0.324029862880706787
-0.362147033214569092 -0.0308912601321935654 0.119721449911594391
-0.500015199184417725 0.0190742909908294678 0.0320333205163478851
0.243129432201385498 -0.000142421326017938554 0.322711795568466187
0.141626954078674316 -0.290640145540237427 0.312008857727050781
0.308331400156021118 -0.207730695605278015 0.248621180653572083
-0.385963350534439087 0.254440516233444214 0.0345388762652873993
0.531182408332824707 -0.262422859668731689 0.103433854877948761
0.224353194236755371 0.0224914923310279846 0.305865496397018433
0.530631422996520996 -0.14750884473323822 -0.30766451358795166
-0.644776403903961182 0.231051996350288391 -0.0473376885056495667
0.541326463222503662 -0.311071246862411499 -0.0439420156180858612
0.507868170738220215 -0.267833828926086426 -0.310954928398132324
0.514350414276123047 -0.316181004047393799 -0.294566720724105835
0.458932250738143921 -0.290951937437057495 -0.29603886604309082
-0.543001890182495117 0.267821699380874634 -0.18918195366859436
-0.621330916881561279 0.28862529993057251 0.0668018907308578491
0.363632529973983765 -0.384298324584960938 -0.205617591738700867
-0.0922428444027900696 0.266909182071685791 0.189613372087478638
-0.448349833488464355 0.130988806486129761 -0.208606928586959839
-0.575350344181060791 0.203470185399055481 -0.126928180456161499
-0.629985272884368896 0.191406533122062683 -0.0397614352405071259
-0.469662517309188843 0.138646692037582397 -0.230922013521194458
0.257911533117294312 -0.017231205478310585 -0.0715813115239143372
0.23078097403049469 0.0536731593310832977 -0.0446641482412815094
0.113364353775978088 0.109475560486316681 0.301993757486343384
-0.584024965763092041 0.218116328120231628 -0.221301913261413574
-0.598116099834442139 0.23491157591342926 -0.0106355035677552223
-0.366894572973251343 -0.0920366048812866211 0.122957527637481689
-0.329867392778396606 -0.125653207302093506 0.137408033013343811
-0.634515106678009033 0.199325203895568848 -0.0381784923374652863
-0.425589263439178467 -0.0552196875214576721 0.0993558615446090698
-0.47798803448677063 0.0198419895023107529 -0.0364081859588623047
0.208951249718666077 0.0083649512380361557 0.30123177170753479
-0.634091436862945557 0.247785702347755432 -0.00586797995492815971
-0.127825796604156494 0.269560247659683228 0.132489249110221863
0.271313250064849854 -0.330413222312927246 0.180480495095252991
0.533092200756072998 -0.21021735668182373 -0.0983272641897201538
-0.126245990395545959 -0.112842313945293427 -0.0545583441853523254
0.454246401786804199 -0.338916361331939697 -0.297583669424057007
-0.212422206997871399 0.0359763726592063904 -0.0594397522509098053
-0.553101897239685059 0.175457507371902466 0.0129340169951319695
-0.198326662182807922 0.13933330774307251 0.0213882382959127426
-0.0122900344431400299 -0.102677047252655029 -0.0426528453826904297
0.264997154474258423 -0.275037676095962524 0.202832087874412537
0.348866522312164307 -0.321167021989822388 0.000428369559813290834
-0.155725598335266113 0.0695310682058334351 0.0277875419706106186
-0.249029979109764099 0.130496248602867126 -0.0342050418257713318
0.199404239654541016 0.00151739595457911491 0.0195285659283399582
0.0766443982720375061 0.0806693583726882935 0.0243264064192771912
-0.283260375261306763 0.287938386201858521 -0.00571554619818925858
0.476994961500167847 -0.289839595556259155 -0.301197081804275513
-0.556782066822052002 0.265445351600646973 -0.0171189922839403152
-0.237214997410774231 0.0973549932241439819 -0.0322186537086963654
0.138126075267791748 -0.280984938144683838 0.150376468896865845
0.296591430902481079 -0.297462970018386841 0.0573541037738323212
-0.285874009132385254 0.256928473711013794 0.000757903268095105886
-0.0207875166088342667 -0.040551263839006424 0.0892767533659934998
0.204775348305702209 0.0425931885838508606 0.0661472827196121216
-0.143507316708564758 -0.0854054912924766541 0.091924034059047699
0.372693181037902832 -0.0734861940145492554 0.0320762954652309418
0.521402895450592041 -0.199157670140266418 -0.0980135649442672729
0.487133651971817017 -0.29784044623374939 -0.304862082004547119
0.480537921190261841 -0.314909964799880981 0.122764430940151215
0.513648927211761475 -0.307234108448028564 -0.10193885862827301
0.496051758527755737 -0.309471279382705688 -0.309237957000732422
0.506225705146789551 -0.327880501747131348 -0.00366773176938295364
0.51181495189666748 -0.324610471725463867 0.118793010711669922
0.46593049168586731 -0.288739889860153198 -0.296048909425735474
0.438071638345718384 -0.263454586267471313 -0.193794563412666321
0.135340094566345215 0.116708539426326752 0.337379038333892822
0.396716296672821045 -0.244452014565467834 0.319163084030151367
-0.601564943790435791 0.354014962911605835 0.0656661316752433777
-0.505144000053405762 0.356853753328323364 0.178421944379806519
0.542675614356994629 -0.282582610845565796 0.0983715727925300598
0.256628483533859253 0.0367905981838703156 -0.0715799406170845032
-0.233028635382652283 0.155686825513839722 -0.00505529297515749931
0.506216585636138916 -0.332047790288925171 -0.00209213024936616421
0.444868236780166626 -0.250038594007492065 -0.227508991956710815
-0.639102041721343994 0.254262924194335938 0.0546917617321014404
0.532658040523529053 -0.262756317853927612 0.0936949700117111206
-0.393119364976882935 -0.0595486164093017578 0.100549481809139252
0.523942410945892334 -0.289703011512756348 -0.0916314870119094849
0.0282113123685121536 -0.274279952049255371 -0.0350481308996677399
0.385306864976882935 -0.306119620800018311 0.119242295622825623
-0.582248687744140625 0.366543322801589966 0.131838560104370117
0.240436658263206482 0.00281089730560779572 0.181541293859481812
-0.112863190472126007 0.165201559662818909 0.347728103399276733
0.482255548238754272 -0.368409723043441772 -0.0216192789375782013
0.412325650453567505 -0.321178913116455078 -0.210555925965309143
0.507338404655456543 -0.155595064163208008 0.124499283730983734
0.528853535652160645 -0.33477705717086792 0.0132572418078780174
-0.584187865257263184 0.336154907941818237 0.0342537611722946167
-0.590826094150543213 0.381644964218139648 0.13139621913433075
0.526312828063964844 -0.244377568364143372 -0.310144573450088501
0.474465340375900269 -0.290760606527328491 -0.298947036266326904
-0.597292661666870117 0.353424638509750366 0.169792845845222473
-0.587415397167205811 0.371187955141067505 0.101242817938327789
-0.211991548538208008 -0.129758596420288086 -0.0575009472668170929
0.234558179974555969 -0.293146073818206787 0.315290123224258423
0.238235056400299072 0.0669804513454437256 0.320470601320266724
0.541880786418914795 -0.313908278942108154 -0.0576635971665382385
-0.444736659526824951 -0.0486814118921756744 0.127184122800827026
0.359671860933303833 -0.388375431299209595 -0.208567246794700623
-0.556622922420501709 0.210921138525009155 -0.113495886325836182
0.520840942859649658 -0.27959778904914856 -0.176636114716529846
0.242099955677986145 0.0346317477524280548 0.314946115016937256
0.2429523766040802 0.000367601722246035933 0.0241197012364864349
0.380792528390884399 0.038791067898273468 0.0124265942722558975
0.526784420013427734 -0.230677276849746704 -0.309646457433700562
0.327123969793319702 0.096128515899181366 -0.0353852584958076477
-0.374265313148498535 -0.0604875832796096802 -0.132748350501060486
0.512962222099304199 -0.16759549081325531 0.136385902762413025
-0.574560344219207764 0.321751266717910767 0.0496218688786029816
-0.559079229831695557 0.283124685287475586 0.364244341850280762
0.224618524312973022 0.0318897329270839691 -0.0577217042446136475
-0.574410319328308105 0.214428916573524475 -0.220934957265853882
-0.044145386666059494 0.156399935483932495 0.0815072730183601379
0.114275343716144562 0.109947070479393005 0.0258529800921678543
0.342875093221664429 -0.247013211250305176 -0.0964098125696182251
-0.285057425498962402 0.300149232149124146 -0.0026192076038569212
0.153501644730567932 -0.0044521065428853035 -0.00315615395084023476
0.0692349448800086975 0.138706162571907043 0.0760260075330734253
-0.270040810108184814 0.279903233051300049 0.00191585277207195759
0.50339430570602417 -0.292645961046218872 -0.158878147602081299
0.137170612812042236 -0.0258816219866275787 0.0135104898363351822
-0.339049607515335083 -0.0322490781545639038 0.0229567252099514008
0.37350735068321228 -0.0918775647878646851 0.0447842590510845184
0.200116395950317383 0.101171649992465973 -0.00134271360002458096
-0.297267705202102661 -0.0252760425209999084 0.0361076928675174713
0.131971240043640137 -0.0178728662431240082 -0.0256903842091560364
0.101607657968997955 0.0159578584134578705 0.0915888771414756775
0.175850152969360352 0.119273707270622253 0.0384709574282169342
-0.230461299419403076 -0.0638986825942993164 0.104828499257564545
0.486118018627166748 -0.296703547239303589 -0.303089052438735962
-0.603264391422271729 0.289239823818206787 0.185248509049415588
0.467267543077468872 -0.308787882328033447 0.120524086058139801
0.37836948037147522 -0.0145044233649969101 0.00690519670024514198
0.514396548271179199 -0.295368850231170654 -0.103026404976844788
0.518858373165130615 -0.23976743221282959 -0.307148128747940063
0.477959603071212769 -0.309769243001937866 -0.299848884344100952
0.483422964811325073 -0.274556070566177368 -0.299461513757705688
0.117406755685806274 0.118601605296134949 0.297943443059921265
-0.584265768527984619 0.356073558330535889 0.0658857822418212891
0.383859872817993164 -0.337409406900405884 0.125920042395591736
-0.574534177780151367 0.317425012588500977 -0.0264637749642133713
-0.60451507568359375 0.216899096965789795 -0.0868035554885864258
0.26789519190788269 0.0391899719834327698 -0.0857664942741394043
-0.356432348489761353 -0.0224077515304088593 -0.131021648645401001
-0.564341187477111816 0.314049303531646729 -0.00782040227204561234
0.190829992294311523 -0.340889662504196167 -0.0744279474020004272
0.404259324073791504 -0.357664108276367188 -0.223623096942901611
-0.500286221504211426 0.145260617136955261 0.354734420776367188
0.509637236595153809 -0.151555523276329041 0.115474730730056763
0.496879488229751587 -0.263966679573059082 -0.303946256637573242
0.458021342754364014 -0.280915439128875732 -0.289297878742218018
0.440998256206512451 -0.264998555183410645 -0.283254474401473999
-0.58808290958404541 0.357179552316665649 0.061799950897693634
0.505244433879852295 -0.126878395676612854 0.124899819493293762
-0.206179797649383545 0.31215551495552063 0.108936980366706848
0.26836240291595459 -0.284172177314758301 0.319494158029556274
0.232732042670249939 0.00339484866708517075 0.318231940269470215
0.51327282190322876 -0.175723537802696228 -0.281283318996429443
-0.115093991160392761 0.00970162265002727509 0.00614334316924214363
0.403991460800170898 -0.35969272255897522 -0.224247217178344727
0.417722702026367188 -0.313346892595291138 0.144186794757843018
-0.555560529232025146 0.376180946826934814 0.186842456459999084
-0.175587177276611328 0.308836519718170166 0.118629597127437592
-0.389741480350494385 0.275695770978927612 -0.0849193930625915527
0.365363568067550659 0.0517230555415153503 0.0251263044774532318
0.129371434450149536 0.115498937666416168 0.319175451993942261
-0.286484390497207642 -0.100812874734401703 -0.0918958485126495361
0.258275389671325684 0.10079435259103775 -0.0615378320217132568
-0.361273616552352905 -0.0600411184132099152 -0.144005924463272095
0.134319394826889038 0.113459989428520203 0.338121384382247925
-0.563179314136505127 0.199084937572479248 -0.228912100195884705
-0.276370733976364136 0.287667572498321533 -0.000712504726834595203
0.454944521188735962 -0.246491849422454834 -0.287836343050003052
0.460283637046813965 -0.275447428226470947 -0.290363729000091553
-0.634924352169036865 0.307881295680999756 0.170454055070877075
0.512527108192443848 -0.317540973424911499 -0.0381329543888568878
0.46898457407951355 -0.265847057104110718 -0.297492653131484985
0.47819170355796814 -0.29506230354309082 -0.299776524305343628
0.458199501037597656 -0.246275410056114197 -0.289407789707183838
0.381240725517272949 -0.361027836799621582 -0.213439002633094788
-0.479464828968048096 -0.0128689585253596306 0.185924217104911804
-0.516519427299499512 0.365432769060134888 0.174122422933578491
-0.618600130081176758 0.201798364520072937 -0.0870671719312667847
-0.237232059240341187 0.018572857603430748 -0.0723517835140228271
-0.382584750652313232 -0.059310372918844223 0.0238192416727542877
0.474943071603775024 -0.368409782648086548 0.0222482550889253616
-0.649321317672729492 0.236512735486030579 0.0323227383196353912
0.412679374217987061 -0.346763670444488525 -0.221215486526489258
0.526109993457794189 -0.337226688861846924 0.0804979801177978516
0.506061255931854248 -0.239067539572715759 -0.307606101036071777
0.249722272157669067 -0.282357990741729736 0.318540900945663452
0.239390388131141663 0.0664116442203521729 0.315017044544219971
0.539595603942871094 -0.301901102066040039 -0.0932155400514602661
-0.447892874479293823 -0.0416853837668895721 0.126617386937141418
-0.0436588339507579803 0.104213356971740723 0.318020433187484741
0.248154059052467346 0.0208791512995958328 0.322574317455291748
-0.284808099269866943 -0.0999434664845466614 -0.0989136174321174622
-0.13763129711151123 -0.0152962552383542061 -0.0485819689929485321
-0.277839452028274536 0.337533086538314819 0.0471564941108226776
-0.254661649465560913 0.289587318897247314 -0.00304156821221113205
-0.218849495053291321 0.321575343608856201 0.0700345486402511597
-0.573301613330841064 0.152011841535568237 -0.0743791386485099792
-0.289909511804580688 0.292373508214950562 0.0162172429263591766
0.525673210620880127 -0.320733487606048584 0.0276228711009025574
0.346250712871551514 -0.0305894911289215088 -0.0339724272489547729
0.522301077842712402 -0.362989127635955811 0.0898240730166435242
-0.0831396356225013733 -0.11201852560043335 0.0786897614598274231
-0.403977334499359131 0.32568734884262085 0.121326029300689697
0.504818081855773926 -0.367137700319290161 -0.00404836330562829971
-0.118601851165294647 0.265818536281585693 0.121185973286628723
0.518776357173919678 -0.343026518821716309 0.0362847559154033661
0.130475685000419617 -0.334805458784103394 0.30146026611328125
0.466710180044174194 -0.311125516891479492 0.0729124397039413452
0.482944250106811523 -0.374073505401611328 0.0527609661221504211
0.421190857887268066 -0.0261499118059873581 0.0653753876686096191
0.49421808123588562 -0.363595813512802124 -0.0150932697579264641
-0.232898920774459839 0.286836802959442139 0.0843208432197570801
0.531262636184692383 -0.33182680606842041 -0.00678061461076140404
-0.271906733512878418 0.315064013004302979 0.114116095006465912
0.308407306671142578 0.00248282356187701225 0.0467795990407466888
0.467467784881591797 -0.263456106185913086 -0.295563817024230957
0.47390592098236084 -0.304407298564910889 0.114682517945766449
0.511222004890441895 -0.313696771860122681 -0.103929623961448669
0.509207844734191895 -0.245414823293685913 -0.307927697896957397
0.448009282350540161 -0.292546004056930542 -0.29226374626159668
0.466432332992553711 -0.283310681581497192 -0.29677116870880127
0.138551533222198486 0.112580060958862305 0.337064117193222046
-0.652169644832611084 0.285487383604049683 0.0981018468737602234
-0.638349950313568115 0.244596332311630249 -0.0380943790078163147
0.136541098356246948 0.0690719783306121826 0.338177859783172607
-0.577131927013397217 0.303553938865661621 -0.0554571673274040222
0.262675553560256958 0.0303703881800174713 -0.0729819312691688538
0.54199373722076416 -0.216814354062080383 0.112032413482666016
-0.360065549612045288 -0.0360419116914272308 -0.134205237030982971
-0.574775874614715576 0.327230125665664673 -0.0294732619076967239
-0.361759155988693237 -0.0712259262800216675 -0.0338798798620700836
-0.130428224802017212 -0.267831504344940186 0.119204230606555939
0.495189040899276733 -0.365892529487609863 6.97248760843649507e-05
0.373935163021087646 -0.359426110982894897 -0.209606260061264038
-0.37837374210357666 -0.10722649097442627 0.101381585001945496
-0.0669216886162757874 -0.26426967978477478 0.2965964674949646
0.519881784915924072 -0.243369385600090027 -0.308948874473571777
0.509510576725006104 -0.330634236335754395 0.0157173089683055878
-0.593397021293640137 0.368721604347229004 0.12065713107585907
-0.655409753322601318 0.175465002655982971 -0.102908767759799957
-0.222939908504486084 -0.14439728856086731 -0.0535908155143260956
-0.191171139478683472 0.316343307495117188 0.100901052355766296
0.256823897361755371 -0.283647656440734863 0.319978266954421997
0.23936539888381958 0.032061498612165451 0.319479495286941528
-0.119974009692668915 -0.046316828578710556 0.00751664955168962479
-0.641605198383331299 0.308407217264175415 0.101957641541957855
0.364827394485473633 -0.373969465494155884 -0.206527650356292725
0.537791132926940918 -0.217843413352966309 0.162303268909454346
-0.552779197692871094 0.382179975509643555 0.158040881156921387
-0.122384838759899139 0.259035199880599976 0.115319669246673584
0.119655303657054901 0.102293267846107483 0.0898068174719810486
-0.375408023595809937 0.265543699264526367 -0.0894494727253913879
0.516937792301177979 -0.349141210317611694 0.0991932451725006104
-0.293483376502990723 -0.107413306832313538 -0.109181702136993408
0.27518346905708313 0.102847978472709656 -0.0571697577834129333
-0.575143218040466309 0.219334259629249573 -0.212528273463249207
-0.115418046712875366 0.268312305212020874 0.17998349666595459
0.236182451248168945 -0.288130909204483032 0.314652472734451294
0.310321152210235596 -0.18746204674243927 0.241392523050308228
0.541785955429077148 -0.325911223888397217 -0.0204760953783988953
0.0791601091623306274 -0.337912678718566895 0.282383263111114502
-0.00623299693688750267 -0.172025024890899658 0.00448606116697192192
-0.282195180654525757 0.261432290077209473 0.00719683058559894562
0.513138890266418457 -0.237139984965324402 -0.308941394090652466
-0.646967589855194092 0.278037935495376587 0.0796349868178367615
-0.646340489387512207 0.182971879839897156 -0.0907570645213127136
0.514143526554107666 -0.322595655918121338 0.024729238823056221
-0.406937450170516968 -0.0639468282461166382 0.113586492836475372
0.516863405704498291 -0.355776190757751465 -0.0201880075037479401
-0.566594779491424561 0.374060094356536865 0.152549669146537781
0.236121043562889099 0.0428720414638519287 0.31402859091758728
-0.664844393730163574 0.226916715502738953 0.0232075881212949753
-0.448101192712783813 -0.0387878790497779846 0.127126693725585938
0.503033220767974854 -0.30232354998588562 -0.178407728672027588
-0.589142978191375732 0.360786139965057373 0.0861624926328659058
-0.194012880325317383 0.314615845680236816 0.105016455054283142
0.247137561440467834 0.0237818863242864609 0.324167937040328979
0.530940651893615723 -0.323870301246643066 -0.057635132223367691
-0.182755917310714722 0.306717962026596069 0.128629341721534729
0.247386202216148376 0.00685976864770054817 0.324296087026596069
0.0588517636060714722 0.139430269598960876 0.345969974994659424
-0.50571209192276001 0.149063289165496826 0.356936544179916382
0.270878016948699951 -0.311392098665237427 0.326521396636962891
-0.253671020269393921 0.0233037360012531281 -0.0705710053443908691
0.241229772567749023 -0.295443475246429443 0.322754323482513428
0.249168530106544495 0.043660871684551239 0.314764618873596191
0.468441039323806763 -0.102046437561511993 0.0351128056645393372
-0.124628119170665741 0.194844722747802734 0.11559613049030304
0.240122631192207336 -0.326762229204177856 0.318197935819625854
0.500300228595733643 -0.366678893566131592 0.0750692859292030334
0.523468077182769775 -0.324800401926040649 0.0266453046351671219
0.444714963436126709 -0.253400862216949463 0.332721441984176636
0.321644872426986694 -0.131517738103866577 -0.106203973293304443
0.0635798722505569458 -0.0109622813761234283 0.321905314922332764
0.511343717575073242 -0.360976576805114746 0.0479336380958557129
0.135891348123550415 -0.10081927478313446 0.0408495590090751648
0.04975118488073349 0.0113857723772525787 0.0300029516220092773
0.0210038349032402039 0.0480551160871982574 0.0428530946373939514
0.0883484482765197754 -0.0662591084837913513 0.289851486682891846
-0.161983475089073181 -0.265938073396682739 0.148073628544807434
0.26514473557472229 -0.0202791150659322739 0.0619561895728111267
-0.0287065524607896805 -0.0292674638330936432 0.29571002721786499
0.502215564250946045 -0.240384221076965332 -0.301524460315704346
0.475999116897583008 -0.315001815557479858 -0.30148664116859436
-0.630903899669647217 0.306030094623565674 0.167438581585884094
0.475550144910812378 -0.320925682783126831 0.121436700224876404
0.509133040904998779 -0.300923049449920654 -0.105086304247379303
0.528244972229003906 -0.274960368871688843 -0.316719651222229004
0.493602871894836426 -0.332471162080764771 -0.310248613357543945
0.503573000431060791 -0.320242166519165039 0.0984379127621650696
0.474245429039001465 -0.305835157632827759 -0.297633200883865356
-0.559314489364624023 0.267774820327758789 0.364571511745452881
0.125236824154853821 0.116629213094711304 0.314474970102310181
-0.633553028106689453 0.282001286745071411 0.0543724745512008667
-0.587331235408782959 0.362538069486618042 0.102497681975364685
0.371662408113479614 -0.374121338129043579 -0.212302595376968384
0.438576877117156982 -0.348108768463134766 0.154738694429397583
0.0583472438156604767 0.121061511337757111 0.321347713470458984
-0.574543118476867676 0.368531912565231323 0.215598329901695251
0.264933079481124878 0.0244789049029350281 -0.0581883862614631653
0.368961066007614136 -0.33693164587020874 0.160999923944473267
0.510574936866760254 -0.301642149686813354 -0.111535228788852692
0.133871376514434814 -0.320754110813140869 -0.0974821597337722778
0.516641378402709961 -0.348901569843292236 -0.0198424160480499268
0.389441460371017456 -0.346850991249084473 -0.213648959994316101
-0.576984286308288574 0.318815648555755615 0.0408800020813941956
0.536056756973266602 -0.27793160080909729 -0.320126235485076904
0.467961639165878296 -0.310970991849899292 -0.298773258924484253
0.507269382476806641 -0.347245454788208008 0.0183750316500663757
-0.555872738361358643 0.309441477060317993 0.10233645886182785
0.194139227271080017 -0.339509963989257812 -0.0588366761803627014
0.0703683197498321533 -0.28241431713104248 -0.0776409134268760681
0.25269615650177002 -0.250504344701766968 0.320449143648147583
0.240160048007965088 0.0307045374065637589 0.317258089780807495
-0.120835557579994202 -0.0481158643960952759 0.00836985278874635696
0.179026499390602112 -0.100356772541999817 -0.0144131863489747047
0.532523393630981445 -0.332432657480239868 -0.0127193024381995201
0.370525568723678589 -0.349576681852340698 -0.208434835076332092
0.535053074359893799 -0.246008545160293579 0.177702933549880981
0.561173498630523682 -0.315888017416000366 -0.330477505922317505
0.554605543613433838 -0.211884841322898865 0.134379103779792786
-0.54324030876159668 0.380475610494613647 0.164578944444656372
0.123150289058685303 0.116942502558231354 0.133467942476272583
-0.582210242748260498 0.351656407117843628 0.0978914946317672729
-0.481516003608703613 0.185610443353652954 -0.0913973972201347351
0.515719294548034668 -0.339324086904525757 0.0392787829041481018
0.253704935312271118 -0.279424071311950684 0.322261571884155273
0.278750151395797729 -0.356097251176834106 -0.125662118196487427
0.507982909679412842 -0.28673902153968811 -0.313191831111907959
-0.43208235502243042 -0.0576251260936260223 0.116807296872138977
0.202240854501724243 0.0902476385235786438 0.223729729652404785
0.244535490870475769 0.104344002902507782 -0.0567549541592597961
-0.195525661110877991 0.201139554381370544 0.349426388740539551
0.250718206167221069 0.0246700141578912735 0.323694676160812378
0.240081548690795898 0.0187605321407318115 0.321379244327545166
-0.0311913918703794479 0.162363529205322266 0.382853120565414429
-0.48245847225189209 -0.0160752926021814346 0.180279329419136047
0.483941346406936646 -0.369240999221801758 0.0465175248682498932
-0.643489301204681396 0.286849856376647949 0.0863494127988815308
0.276203364133834839 -0.165995970368385315 -0.0700390785932540894
-0.411741465330123901 -0.0572908855974674225 0.0790328159928321838
-0.642998456954956055 0.175433680415153503 -0.081843838095664978
-0.225781023502349854 -0.134293511509895325 -0.0520478151738643646
0.255207210779190063 -0.265836238861083984 0.321428239345550537
-0.345239609479904175 0.0169338714331388474 -0.11673959344625473
-0.286999523639678955 -0.0919255912303924561 -0.10633666068315506
-0.585044741630554199 0.209552198648452759 -0.217835798859596252
0.267863154411315918 -0.297289997339248657 0.315505832433700562
-0.0253428034484386444 -0.187569856643676758 -0.0432230085134506226
-0.618031203746795654 0.276637792587280273 0.0315527878701686859
-0.608808398246765137 0.297944933176040649 0.0926161035895347595
-0.397476702928543091 -0.0633005425333976746 0.119007550179958344
-0.451639354228973389 -0.0386154800653457642 0.119611494243144989
0.431303948163986206 -0.272030621767044067 0.329588651657104492
-0.0521871298551559448 0.140466988086700439 0.0919939130544662476
-0.502977311611175537 0.150686159729957581 0.355552017688751221
0.241082921624183655 -0.319587469100952148 0.323097348213195801
0.497312754392623901 -0.371064633131027222 0.0578324012458324432
0.399516016244888306 -0.257151484489440918 0.322861760854721069
-0.158130437135696411 -0.263929098844528198 0.181702226400375366
-0.499127388000488281 0.013586641289293766 0.158212244510650635
0.417795151472091675 -0.297659009695053101 0.329126447439193726
0.535446465015411377 -0.340422093868255615 -0.0179520025849342346
0.344530075788497925 -0.267610460519790649 -0.127365574240684509
-0.496426671743392944 0.0715291500091552734 0.204109609127044678
0.443839013576507568 -0.272475481033325195 0.333817958831787109
0.522193670272827148 -0.335637897253036499 0.0332828648388385773
0.453536242246627808 -0.320105165243148804 -0.292520284652709961
0.474428862333297729 -0.311936736106872559 0.117180749773979187
0.517356395721435547 -0.278629690408706665 -0.312302738428115845
0.502806723117828369 -0.326156914234161377 -0.313813894987106323
0.518288075923919678 -0.327369421720504761 0.102395802736282349
0.479473799467086792 -0.311637818813323975 -0.301655471324920654
0.114840611815452576 0.118232116103172302 0.289332807064056396
-0.121735133230686188 0.268253922462463379 0.159004196524620056
-0.614781856536865234 0.265107214450836182 0.0522523187100887299
-0.479347139596939087 0.00258209835737943649 0.181455656886100769
0.426921725273132324 -0.355302006006240845 0.159013807773590088
-0.2921791672706604 -0.110997259616851807 -0.105606846511363983
0.130793914198875427 0.0651503801345825195 0.321541368961334229
0.254002213478088379 0.0383988134562969208 -0.0773004591464996338
0.235764637589454651 0.0935709401965141296 -0.0525857061147689819
0.417888790369033813 -0.261775553226470947 -0.201824679970741272
0.521849870681762695 -0.35490080714225769 -0.0189711656421422958
-0.608851194381713867 0.380722403526306152 0.181371867656707764
0.517707407474517822 -0.279530107975006104 -0.314225703477859497
0.499298393726348877 -0.350256204605102539 0.0245664082467556
-0.587815701961517334 0.368909567594528198 0.113180652260780334
0.506136953830718994 -0.105006031692028046 0.147801533341407776
-0.197872787714004517 0.311147749423980713 0.113130815327167511
0.264311820268630981 -0.286878615617752075 0.320094406604766846
0.237190097570419312 0.0618090592324733734 0.310926258563995361
-0.144289478659629822 -0.043865986168384552 0.00442643789574503899
-0.657749474048614502 0.214332818984985352 -0.0460073612630367279
-0.288464128971099854 -0.0763890817761421204 -0.0684393718838691711
0.227529674768447876 0.0418678335845470428 -0.0476746447384357452
