ply
format ascii 1.0
element vertex 738
property float x
property float y
property float z
end_header
-0.385040968656539917 0.254717975854873657 0.0327183268964290619
0.493985027074813843 -0.302437841892242432 0.121133029460906982
0.465414315462112427 -0.106636002659797668 0.0595846585929393768
0.203938677906990051 0.0147384796291589737 -0.0422496162354946136
-0.224290564656257629 0.295187175273895264 0.158598035573959351
-0.124916501343250275 -0.0496269837021827698 0.0108382375910878181
-0.231550797820091248 0.227824300527572632 0.348063439130783081
-0.380629539489746094 -0.0550792478024959564 0.145445495843887329
0.341335028409957886 -0.074219830334186554 0.0476830676198005676
-0.435720831155776978 -0.0129781737923622131 0.0340365320444107056
0.205570682883262634 0.0161449946463108063 0.0703673586249351501
0.056315205991268158 -0.0865569189190864563 0.239212960004806519
-0.383706897497177124 -0.0602740757167339325 0.116553917527198792
-0.1366310715675354 -0.265529990196228027 -0.00122719339560717344
-0.243594512343406677 0.0629080832004547119 0.244776308536529541
-0.541832327842712402 0.210214123129844666 0.162725910544395447
-0.590388715267181396 0.28657609224319458 -0.00725246546790003777
0.307127416133880615 0.0171889439225196838 0.0428721681237220764
0.478645682334899902 -0.315248399972915649 -0.305233180522918701
0.503870129585266113 -0.346020549535751343 -0.063655070960521698
0.471724510192871094 -0.305653363466262817 0.115149833261966705
0.527246057987213135 -0.303373634815216064 -0.109234564006328583
-0.402554690837860107 0.310876995325088501 0.134663194417953491
0.518088638782501221 -0.251740783452987671 -0.307225793600082397
0.507763028144836426 -0.329533427953720093 -0.314588844776153564
0.518912553787231445 -0.331864356994628906 0.0917029157280921936
0.477529585361480713 -0.304717391729354858 -0.302871167659759521
0.527704596519470215 -0.286111444234848022 -0.107852213084697723
-0.559679269790649414 0.266590327024459839 0.365561127662658691
-0.639817655086517334 0.288979470729827881 0.0852062776684761047
0.37156406044960022 -0.401640981435775757 -0.217365279793739319
-0.449539542198181152 -0.00177356472704559565 0.175095498561859131
0.176674842834472656 0.0725001916289329529 0.00662748701870441437
-0.453213304281234741 0.134035080671310425 -0.213612869381904602
0.403195112943649292 -0.336383521556854248 0.129071801900863647
-0.598565161228179932 0.206761628389358521 0.00084737228462472558
0.247734606266021729 -0.114990592002868652 -0.0707652047276496887
-0.482798606157302856 0.1821003258228302 -0.210014522075653076
-0.375872135162353516 -0.0638240128755569458 0.0916857048869132996
0.523033201694488525 -0.321450918912887573 0.0360009297728538513
0.542510807514190674 -0.217884913086891174 0.108354426920413971
0.525843143463134766 -0.274015903472900391 0.0554285459220409393
0.111344620585441589 0.0835444778203964233 0.317222625017166138
-0.350621789693832397 -0.0486162789165973663 0.0449889674782752991
0.105265729129314423 0.0716828927397727966 0.295463234186172485
-0.165010958909988403 0.132425785064697266 0.151297777891159058
0.502926290035247803 -0.256944388151168823 -0.102331168949604034
0.429024398326873779 -0.30436861515045166 0.136042743921279907
-0.355492442846298218 -0.102147452533245087 0.15904216468334198
0.498792767524719238 -0.202070087194442749 -0.107798486948013306
-0.578080236911773682 0.347471326589584351 0.152147963643074036
0.105289414525032043 -0.0120392162352800369 0.0211601946502923965
-0.340973526239395142 -0.124091587960720062 0.104586124420166016
-0.120569169521331787 -0.276309430599212646 0.174041569232940674
-0.160920977592468262 0.166710332036018372 0.325113147497177124
0.515143334865570068 -0.359086602926254272 0.0269387420266866684
0.521196067333221436 -0.288054913282394409 -0.0115428846329450607
0.479007631540298462 -0.140438050031661987 0.107731349766254425
-0.18054749071598053 0.0286640021950006485 0.0258870162069797516
-0.341688275337219238 -0.122312970459461212 0.103729128837585449
-0.59978938102722168 0.376188129186630249 0.188401132822036743
-0.119584105908870697 -0.267419189214706421 0.218288570642471313
0.523617148399353027 -0.30929487943649292 -0.0746348127722740173
0.516534984111785889 -0.252554774284362793 -0.30934906005859375
0.455184251070022583 -0.308667957782745361 -0.294286906719207764
0.240758702158927917 -0.096477903425693512 0.158688381314277649
-0.619776904582977295 0.271647870540618896 0.0372262634336948395
-0.429624706506729126 -0.00451192259788513184 0.177332714200019836
-0.250103235244750977 -0.13751433789730072 -0.0710898861289024353
0.317429840564727783 -0.31949007511138916 0.122644543647766113
0.539437413215637207 -0.250207096338272095 0.106743171811103821
0.452875226736068726 -0.140223041176795959 0.0155461207032203674
0.42946353554725647 -0.321517586708068848 0.123834632337093353
0.413490027189254761 -0.331253349781036377 -0.209630534052848816
0.473947405815124512 -0.129012927412986755 0.109615519642829895
-0.548531532287597656 0.377979457378387451 0.172608494758605957
0.190709367394447327 -0.340320050716400146 -0.0132472533732652664
-0.201392397284507751 -0.136022120714187622 -0.0684386268258094788
-0.185148745775222778 0.311543464660644531 0.117858044803142548
0.10358874499797821 0.10724138468503952 0.174455881118774414
-0.443971157073974609 -0.0549976006150245667 0.0918652191758155823
-0.488962411880493164 0.0294172931462526321 0.0168844852596521378
0.231510788202285767 0.0105394227430224419 0.315052270889282227
-0.0244870856404304504 0.112644359469413757 0.312429368495941162
0.243406340479850769 -0.0391045473515987396 0.204708904027938843
-0.38439255952835083 0.244731679558753967 0.0343095101416110992
-0.653604745864868164 0.216162681579589844 -0.0391540266573429108
0.483152717351913452 -0.116664104163646698 0.0235683582723140717
0.122438140213489532 0.0790401920676231384 0.138584643602371216
-0.381578058004379272 -0.0732635557651519775 0.0956328660249710083
0.319871127605438232 -0.0727891325950622559 0.0625039264559745789
-0.440255105495452881 -0.0123027786612510681 0.00688602356240153313
-0.501698911190032959 0.233108878135681152 -0.0710416063666343689
-0.546769201755523682 0.202867180109024048 -0.068434886634349823
0.0888715162873268127 0.0912246927618980408 0.0800620242953300476
-0.519403338432312012 0.203962802886962891 -0.0471000000834465027
-0.167957574129104614 0.0718204677104949951 0.232487112283706665
-0.0570680983364582062 -0.187399089336395264 0.0268230121582746506
-0.212087944149971008 0.290227711200714111 0.109112076461315155
0.249863192439079285 -0.00583266979083418846 0.0224391967058181763
-0.555356740951538086 0.203749209642410278 0.118392683565616608
-0.456861197948455811 0.215829595923423767 0.024567827582359314
-0.462130635976791382 0.265886783599853516 -0.0026869666762650013
-0.574949920177459717 0.24702751636505127 -0.0763495117425918579
-0.388843268156051636 0.274558484554290771 -0.084078080952167511
0.343850553035736084 -0.135159879922866821 0.318882673978805542
-0.49812924861907959 0.20623566210269928 -0.0115603776648640633
-0.345493108034133911 0.292268037796020508 -0.0500988811254501343
0.52614063024520874 -0.361515611410140991 0.0418387874960899353
-0.539542138576507568 0.214505553245544434 0.201086893677711487
-0.568800568580627441 0.293803423643112183 -0.00306859845295548439
0.316800147294998169 0.0233151502907276154 0.0488579347729682922
0.482264518737792969 -0.307392776012420654 -0.303540527820587158
0.479828149080276489 -0.326776504516601562 0.125428378582000732
0.523391664028167725 -0.307427525520324707 -0.0986236110329627991
0.490618914365768433 -0.31116148829460144 -0.307301312685012817
0.516350984573364258 -0.325498580932617188 0.119891539216041565
0.444789975881576538 -0.300586104393005371 -0.290526986122131348
0.523408353328704834 -0.304978370666503906 -0.0972867459058761597
0.134429335594177246 0.115869410336017609 0.337069392204284668
-0.641944468021392822 0.242019787430763245 -0.00935053452849388123
-0.29227757453918457 -0.11449788510799408 -0.105656422674655914
0.539378166198730469 -0.255943387746810913 0.0922441631555557251
0.129291713237762451 0.0970782190561294556 0.317347168922424316
-0.234908118844032288 -0.144151255488395691 -0.0713236406445503235
0.25270041823387146 0.0296614915132522583 -0.0858343392610549927
0.53112637996673584 -0.32359042763710022 0.00689363013952970505
-0.598915815353393555 0.306748241186141968 0.104549407958984375
0.53223574161529541 -0.245114520192146301 0.0865974500775337219
-0.373757779598236084 -0.0615195631980895996 0.0923456475138664246
0.526763916015625 -0.275735169649124146 -0.123161911964416504
-0.500857055187225342 0.14807458221912384 0.353040814399719238
0.385284155607223511 -0.298116832971572876 0.131885513663291931
0.132950082421302795 -0.332492858171463013 -0.100397951900959015
0.522932946681976318 -0.355313360691070557 -0.0148651404306292534
-0.436035811901092529 0.149903014302253723 -0.0849524140357971191
0.515910923480987549 -0.300565570592880249 0.0647610202431678772
0.393320024013519287 -0.368297547101974487 -0.213579565286636353
0.500658750534057617 -0.171922668814659119 0.130086407065391541
0.533390998840332031 -0.334464341402053833 0.0284490566700696945
-0.579460740089416504 0.348268330097198486 0.0403676331043243408
0.520216882228851318 -0.241311922669410706 -0.308592349290847778
-0.600578367710113525 0.370039314031600952 0.104720026254653931
-0.500359833240509033 0.146445587277412415 0.355245411396026611
0.234017506241798401 -0.278384029865264893 0.317383468151092529
-0.181042522192001343 -0.137641623616218567 -0.0556022077798843384
-0.228072509169578552 -0.138612121343612671 -0.0534944906830787659
-0.203901752829551697 0.297833412885665894 0.126691609621047974
0.262568771839141846 -0.290189445018768311 0.323681801557540894
-0.361983567476272583 -0.0312167089432477951 0.119564488530158997
-0.499746739864349365 0.0187551267445087433 0.0319215729832649231
0.242984205484390259 -0.000382793485186994076 0.322293788194656372
0.141396805644035339 -0.29098173975944519 0.311707437038421631
0.308184117078781128 -0.208048701286315918 0.248211890459060669
-0.385700047016143799 0.254257708787918091 0.0343629345297813416
0.531245887279510498 -0.262735188007354736 0.10297006368637085
0.224218264222145081 0.0222614668309688568 0.305451512336730957
0.530832827091217041 -0.14776235818862915 -0.308111339807510376
-0.64445185661315918 0.230810254812240601 -0.0473867990076541901
0.54144752025604248 -0.311377912759780884 -0.0443771742284297943
0.508053362369537354 -0.268135547637939453 -0.3113727867603302
0.514533102512359619 -0.316493004560470581 -0.294968277215957642
0.459083020687103271 -0.291262805461883545 -0.29645693302154541
-0.542648255825042725 0.267619878053665161 -0.189237251877784729
-0.621019601821899414 0.288395434617996216 0.066737934947013855
0.363689601421356201 -0.384631901979446411 -0.205997869372367859
-0.0921479389071464539 0.266746431589126587 0.189301922917366028
-0.448029279708862305 0.13074822723865509 -0.208719700574874878
-0.575016617774963379 0.203240036964416504 -0.126992002129554749
-0.629667103290557861 0.191153660416603088 -0.039819762110710144
-0.469330787658691406 0.138402596116065979 -0.23101729154586792
0.257910937070846558 -0.0174324754625558853 -0.0720359906554222107
0.230789050459861755 0.0535031110048294067 -0.0451160594820976257
0.113262064754962921 0.109280385076999664 0.30161052942276001
-0.583669126033782959 0.217882901430130005 -0.221338897943496704
-0.597798526287078857 0.234678342938423157 -0.0107068484649062157
-0.366744965314865112 -0.0923920497298240662 0.122813962399959564
-0.329760551452636719 -0.12601006031036377 0.137259334325790405
-0.634196162223815918 0.199074149131774902 -0.0382349342107772827
-0.425387978553771973 -0.0555667281150817871 0.0992254167795181274
-0.477710574865341187 0.0195312164723873138 -0.0365280881524085999
0.208802551031112671 0.00812845584005117416 0.300828397274017334
-0.633771657943725586 0.247547239065170288 -0.0059246760793030262
-0.127693966031074524 0.269400358200073242 0.132191956043243408
0.271171152591705322 -0.330750584602355957 0.18011772632598877
0.533229053020477295 -0.210491657257080078 -0.0987932905554771423
-0.126181825995445251 -0.113183170557022095 -0.0548224933445453644
0.454390525817871094 -0.339237809181213379 -0.297978579998016357
-0.212267205119132996 0.0357055589556694031 -0.0596913248300552368
-0.552799701690673828 0.175211995840072632 0.0128350760787725449
-0.198171958327293396 0.139119699597358704 0.0211113262921571732
-0.0122812800109386444 -0.10299672931432724 -0.0429749824106693268
0.264840662479400635 -0.275366336107254028 0.202457606792449951
0.348843485116958618 -0.321490287780761719 7.0788787525088992e-06
-0.15562032163143158 0.0692808181047439575 0.0275033824145793915
-0.24883587658405304 0.130276039242744446 -0.0344559624791145325
0.199369117617607117 0.00129473104607313871 0.0190874375402927399
0.0766481980681419373 0.0804660394787788391 0.0239342264831066132
-0.283011794090270996 0.287782520055770874 -0.0059678051620721817
0.477159678936004639 -0.290149867534637451 -0.301616370677947998
-0.55646061897277832 0.265233099460601807 -0.0172024164348840714
-0.237036734819412231 0.0971170887351036072 -0.0324719510972499847
0.137984707951545715 -0.281330674886703491 0.150044918060302734
0.296523571014404297 -0.29779013991355896 0.056942421942949295
-0.285637617111206055 0.256757944822311401 0.000525088398717343807
-0.020819440484046936 -0.0408487506210803986 0.0889540761709213257
0.204741805791854858 0.0423845984041690826 0.065707571804523468
-0.143488258123397827 -0.0857365727424621582 0.0916655361652374268
0.372689008712768555 -0.0737226381897926331 0.0315900817513465881
0.521532356739044189 -0.199427798390388489 -0.0984843522310256958
0.487304061651229858 -0.298151493072509766 -0.30527418851852417
0.480551630258560181 -0.315235555171966553 0.122323974967002869
0.513770341873168945 -0.307538300752639771 -0.102371387183666229
0.49622759222984314 -0.309784293174743652 -0.309642523527145386
0.506308615207672119 -0.32819637656211853 -0.00410363543778657913
0.511852502822875977 -0.324934482574462891 0.118355676531791687
0.466087281703948975 -0.289050519466400146 -0.296470791101455688
0.43817487359046936 -0.26375114917755127 -0.194231048226356506
0.135236963629722595 0.116517134010791779 0.336985319852828979
0.396587610244750977 -0.24477154016494751 0.318742871284484863
-0.601242005825042725 0.353807032108306885 0.0656096711754798889
-0.504864215850830078 0.356667309999465942 0.178314819931983948
0.542751193046569824 -0.282899707555770874 0.0979129299521446228
0.256641894578933716 0.03662128746509552 -0.0720372200012207031
-0.232843145728111267 0.155480057001113892 -0.00531737552955746651
0.50629878044128418 -0.332364648580551147 -0.0025263647548854351
0.444987386465072632 -0.250331610441207886 -0.227944865822792053
-0.638793289661407471 0.254020333290100098 0.0546293705701828003
0.532726824283599854 -0.263067901134490967 0.0932309329509735107
-0.392936527729034424 -0.0598947294056415558 0.100406736135482788
0.524067997932434082 -0.290002018213272095 -0.0920709893107414246
0.0281757861375808716 -0.274649679660797119 -0.0353544242680072784
0.385253161191940308 -0.306448966264724731 0.118813261389732361
-0.581940352916717529 0.36633765697479248 0.131768018007278442
0.240349695086479187 0.00256779207848012447 0.181106388568878174
-0.112899184226989746 0.165032222867012024 0.347440779209136963
0.482325911521911621 -0.368734300136566162 -0.0220399647951126099
0.412415027618408203 -0.321494400501251221 -0.210966497659683228
0.507385373115539551 -0.155881047248840332 0.124003037810325623
0.528946578502655029 -0.335094690322875977 0.0128247151151299477
-0.583862364292144775 0.335949689149856567 0.034191720187664032
-0.590514600276947021 0.381441295146942139 0.13133026659488678
0.526509523391723633 -0.24467131495475769 -0.310567766427993774
0.474628359079360962 -0.291071414947509766 -0.299367696046829224
-0.596997261047363281 0.353211045265197754 0.169715657830238342
-0.587093114852905273 0.370980501174926758 0.101186409592628479
-0.211885020136833191 -0.130115583539009094 -0.0577205009758472443
0.234347105026245117 -0.293478012084960938 0.314954459667205811
0.238123208284378052 0.0667720362544059753 0.320043683052062988
0.542006313800811768 -0.31421428918838501 -0.0580956190824508667
-0.444534420967102051 -0.0490252412855625153 0.127063661813735962
0.359729647636413574 -0.388710081577301025 -0.208943635225296021
-0.556292235851287842 0.210698410868644714 -0.113569974899291992
0.520993709564208984 -0.27989429235458374 -0.177067160606384277
0.241973951458930969 0.0344080328941345215 0.314522802829742432
0.242924436926841736 0.000152220556628890336 0.0236676372587680817
0.380823045969009399 0.0386245399713516235 0.0119341528043150902
0.526981770992279053 -0.230966731905937195 -0.310074090957641602
0.327163130044937134 0.0960016846656799316 -0.0358656570315361023
-0.37402614951133728 -0.0608376525342464447 -0.132896408438682556
0.513007223606109619 -0.167887225747108459 0.135892927646636963
-0.574242055416107178 0.321543484926223755 0.0495503917336463928
-0.558857738971710205 0.28290712833404541 0.364098489284515381
0.224623322486877441 0.03170737624168396 -0.0581693686544895172
-0.574055492877960205 0.214196935296058655 -0.220976755023002625
-0.0440833866596221924 0.156209439039230347 0.0811674892902374268
0.114283718168735504 0.109769180417060852 0.0254400018602609634
0.342887789011001587 -0.247310489416122437 -0.0968488901853561401
-0.284806787967681885 0.299992680549621582 -0.00284898141399025917
0.153477177023887634 -0.00468424754217267036 -0.00357346027158200741
0.0692497789859771729 0.138526007533073425 0.0756354779005050659
-0.26980280876159668 0.279742449522018433 0.00167090294416993856
0.503528952598571777 -0.292946815490722656 -0.159308791160583496
0.137136995792388916 -0.0261324960738420486 0.0131050711497664452
-0.338864237070083618 -0.0325759686529636383 0.0227752253413200378
0.373496979475021362 -0.0921267643570899963 0.0442996658384799957
0.200111642479896545 0.101023361086845398 -0.00180612911935895681
-0.297110825777053833 -0.0255953632295131683 0.0359063297510147095
0.131954267621040344 -0.0181145351380109787 -0.0260947886854410172
0.10155206173658371 0.0157062243670225143 0.0911974012851715088
0.175854861736297607 0.119111910462379456 0.0380325354635715485
-0.230388730764389038 -0.0642264112830162048 0.104612283408641815
0.486287534236907959 -0.297014385461807251 -0.303502470254898071
-0.602983236312866211 0.289008617401123047 0.18516094982624054
0.467273294925689697 -0.309113621711730957 0.120081745088100433
0.378379970788955688 -0.0147009668871760368 0.00641567865386605263
0.514519393444061279 -0.295669853687286377 -0.103463560342788696
0.519049882888793945 -0.240059792995452881 -0.307574093341827393
0.478121966123580933 -0.310083270072937012 -0.300257116556167603
0.483591049909591675 -0.27486121654510498 -0.299884527921676636
0.117313526570796967 0.118409685790538788 0.29755595326423645
-0.583942592144012451 0.355869650840759277 0.0658253207802772522
0.383801311254501343 -0.33774268627166748 0.125506594777107239
-0.574200570583343506 0.317223310470581055 -0.0265257377177476883
-0.604185760021209717 0.216664880514144897 -0.086861245334148407
0.267914295196533203 0.0390274487435817719 -0.0862264186143875122
-0.356193035840988159 -0.0227309130132198334 -0.131185412406921387
-0.564011871814727783 0.313847780227661133 -0.00789047125726938248
0.190789997577667236 -0.341237634420394897 -0.0747856274247169495
0.404347211122512817 -0.357988864183425903 -0.224015906453132629
-0.500108778476715088 0.145029261708259583 0.35458943247795105
0.509689807891845703 -0.151838317513465881 0.114976987242698669
0.497056186199188232 -0.264267474412918091 -0.304368048906326294
0.458170235157012939 -0.281223267316818237 -0.289721250534057617
0.441132426261901855 -0.265301048755645752 -0.28367885947227478
-0.587758541107177734 0.356975644826889038 0.061741214245557785
0.505292713642120361 -0.127153053879737854 0.124397501349449158
-0.205992028117179871 0.312000662088394165 0.108680032193660736
0.268159806728363037 -0.284501165151596069 0.319141298532485962
0.232586771249771118 0.0031560002826154232 0.317817836999893188
0.513455986976623535 -0.175989210605621338 -0.281732022762298584
-0.115022271871566772 0.00941707845777273178 0.00585214607417583466
0.404079288244247437 -0.360017925500869751 -0.224639058113098145
0.417679548263549805 -0.313676029443740845 0.14375932514667511
-0.555259883403778076 0.375975340604782104 0.186765536665916443
-0.175415247678756714 0.308683604001998901 0.118358023464679718
-0.389438539743423462 0.275530397891998291 -0.0850792974233627319
0.365387439727783203 0.0515589378774166107 0.0246361382305622101
0.129271849989891052 0.115306422114372253 0.318783879280090332
-0.286318808794021606 -0.101168312132358551 -0.0921136140823364258
0.258305877447128296 0.100663527846336365 -0.0620000958442687988
-0.361038058996200562 -0.0603905580937862396 -0.144157886505126953
0.13421379029750824 0.113267302513122559 0.337728738784790039
-0.562825322151184082 0.198848575353622437 -0.228958338499069214
-0.276126265525817871 0.287511289119720459 -0.000965787214227020741
0.455089956521987915 -0.246787816286087036 -0.288266390562057495
0.46043434739112854 -0.275753557682037354 -0.290788531303405762
-0.634635329246520996 0.307648360729217529 0.170379683375358582
0.512626349925994873 -0.317851275205612183 -0.0385689176619052887
0.469142526388168335 -0.266149967908859253 -0.297917813062667847
0.478356391191482544 -0.295373618602752686 -0.300193697214126587
0.458347558975219727 -0.246571287512779236 -0.289837837219238281
0.381310611963272095 -0.361355215311050415 -0.213829860091209412
-0.47924312949180603 -0.0131979389116168022 0.185819685459136963
-0.516234159469604492 0.365244865417480469 0.174021244049072266
-0.618272483348846436 0.201555967330932617 -0.0871202796697616577
-0.23706500232219696 0.0182897448539733887 -0.0725883245468139648
-0.382380932569503784 -0.0596569851040840149 0.0236626192927360535
0.474992036819458008 -0.368737846612930298 0.0218245387077331543
-0.649010539054870605 0.236264616250991821 0.0322637371718883514
0.412772029638290405 -0.347085326910018921 -0.221613854169845581
0.526174604892730713 -0.337550103664398193 0.0800642594695091248
0.506245076656341553 -0.239360257983207703 -0.308033615350723267
0.249515235424041748 -0.282687544822692871 0.318194776773452759
0.239279940724372864 0.066202990710735321 0.314589470624923706
0.539732098579406738 -0.302201628684997559 -0.0936480239033699036
-0.447686910629272461 -0.0420264154672622681 0.126497000455856323
-0.0437477864325046539 0.10401221364736557 0.317712366580963135
0.248020380735397339 0.0206490606069564819 0.322151005268096924
-0.284641116857528687 -0.100298739969730377 -0.0991293415427207947
-0.137535631656646729 -0.0155907683074474335 -0.0488575734198093414
-0.277595818042755127 0.337380409240722656 0.046943221241235733
-0.254425048828125 0.289429038763046265 -0.00328206201083958149
-0.218638405203819275 0.32142263650894165 0.0697873681783676147
-0.57298433780670166 0.151758506894111633 -0.0744567811489105225
-0.289665400981903076 0.292212784290313721 0.0159887317568063736
0.525759041309356689 -0.321049720048904419 0.0271835830062627792
0.34626343846321106 -0.0307907480746507645 -0.0344508029520511627
0.522358536720275879 -0.363317310810089111 0.0894003808498382568
-0.0831542760133743286 -0.112356573343276978 0.0784025564789772034
-0.403718769550323486 0.325516611337661743 0.12117353081703186
0.504898905754089355 -0.367461711168289185 -0.00446927035227417946
-0.118469111621379852 0.265658199787139893 0.120883181691169739
0.51885300874710083 -0.343347936868667603 0.0358540900051593781
0.130246013402938843 -0.33515658974647522 0.301177322864532471
0.466736346483230591 -0.311447978019714355 0.0724682658910751343
0.482987314462661743 -0.374403536319732666 0.0523410141468048096
0.421215027570724487 -0.0263666678220033646 0.0648751929402351379
0.494294911623001099 -0.363919109106063843 -0.0155155686661601067
-0.232701271772384644 0.286673575639724731 0.0840713232755661011
0.531364500522613525 -0.332142025232315063 -0.00721266446635127068
-0.271698325872421265 0.314904093742370605 0.113893561065196991
0.308388292789459229 0.00227340799756348133 0.0463076308369636536
0.467624098062515259 -0.263758063316345215 -0.295989632606506348
0.473920345306396484 -0.304732561111450195 0.114235691726207733
0.511342227458953857 -0.314002722501754761 -0.104359433054924011
0.509393453598022461 -0.245709434151649475 -0.308352798223495483
0.448150575160980225 -0.292857080698013306 -0.292679160833358765
0.466589748859405518 -0.283619791269302368 -0.297194629907608032
0.138445943593978882 0.112387195229530334 0.336669802665710449
-0.651858747005462646 0.285240650177001953 0.0980551540851593018
-0.638025104999542236 0.244359105825424194 -0.0381454192101955414
0.13640768826007843 0.0688605979084968567 0.337792158126831055
-0.576795578002929688 0.303350180387496948 -0.0555170364677906036
0.262687981128692627 0.0301988516002893448 -0.0734407976269721985
0.542064905166625977 -0.217117592692375183 0.111551418900489807
-0.359827131032943726 -0.0363746881484985352 -0.134364143013954163
-0.574439883232116699 0.327031195163726807 -0.0295316595584154129
-0.36155390739440918 -0.0715759620070457458 -0.0340441502630710602
-0.130474567413330078 -0.26820710301399231 0.118988193571567535
0.495261043310165405 -0.366217613220214844 -0.000353929062839597464
0.373999714851379395 -0.35975375771522522 -0.209997266530990601
-0.378202855587005615 -0.107603006064891815 0.101239562034606934
-0.0671179443597793579 -0.264641612768173218 0.296352416276931763
0.520074307918548584 -0.243662998080253601 -0.309373319149017334
0.509588718414306641 -0.33095213770866394 0.01528170146048069
-0.593084216117858887 0.368514180183410645 0.120592817664146423
-0.655082166194915771 0.175209790468215942 -0.102943539619445801
-0.222832739353179932 -0.144760832190513611 -0.0538012124598026276
-0.190982729196548462 0.316190719604492188 0.100637547671794891
0.256618142127990723 -0.283977001905441284 0.319629877805709839
0.239236012101173401 0.0318365581333637238 0.31905791163444519
-0.119917117059230804 -0.0466285981237888336 0.00723712751641869545
-0.641297519207000732 0.308174967765808105 0.101899087429046631
0.364885270595550537 -0.374300986528396606 -0.206912308931350708
0.53783649206161499 -0.218150123953819275 0.161826416850090027
-0.552478134632110596 0.381984591484069824 0.157958909869194031
-0.122251503169536591 0.258872836828231812 0.115017503499984741
0.119633905589580536 0.102099001407623291 0.0893962830305099487
-0.37511134147644043 0.265375643968582153 -0.0896176770329475403
0.516987025737762451 -0.349467933177947998 0.0987643823027610779
-0.29330897331237793 -0.107774138450622559 -0.10936756432056427
0.275215595960617065 0.102721534669399261 -0.0576373040676116943
-0.574789643287658691 0.219105333089828491 -0.212571486830711365
-0.115313336253166199 0.268151670694351196 0.179682895541191101
0.235972464084625244 -0.288462042808532715 0.314314097166061401
0.310181766748428345 -0.187776133418083191 0.240974605083465576
0.54189985990524292 -0.326223492622375488 -0.0209082849323749542
0.0789358615875244141 -0.338274180889129639 0.282117754220962524
-0.00625592935830354691 -0.172375380992889404 0.00416504219174385071
-0.281960666179656982 0.26126331090927124 0.00696120597422122955
0.513327479362487793 -0.237431913614273071 -0.309368520975112915
-0.646658182144165039 0.277796238660812378 0.079579375684261322
-0.646014094352722168 0.182720348238945007 -0.0907968133687973022
0.514222025871276855 -0.322912484407424927 0.0242901910096406937
-0.406753808259963989 -0.0642946735024452209 0.113452181220054626
0.516959011554718018 -0.356095850467681885 -0.0206100679934024811
-0.566291987895965576 0.37385907769203186 0.152471885085105896
0.235997959971427917 0.0426521115005016327 0.313606292009353638
-0.664533138275146484 0.226663574576377869 0.0231529660522937775
-0.447894573211669922 -0.0391274839639663696 0.127006039023399353
0.503174304962158203 -0.302627593278884888 -0.178832530975341797
-0.588821589946746826 0.360579043626785278 0.0861036255955696106
-0.193826049566268921 0.314462572336196899 0.104753799736499786
0.247004672884941101 0.0235531982034444809 0.323744624853134155
0.531058609485626221 -0.324179410934448242 -0.0580642931163311005
-0.182587400078773499 0.306564092636108398 0.128361314535140991
0.247244879603385925 0.00662290351465344429 0.323875248432159424
0.0587622113525867462 0.139244973659515381 0.345605134963989258
-0.505532205104827881 0.148831620812416077 0.356791228055953979
0.270672827959060669 -0.311723709106445312 0.32617872953414917
-0.253494352102279663 0.0230220351368188858 -0.0708014518022537231
0.241017922759056091 -0.295774996280670166 0.322417229413986206
0.249049201607704163 0.0434416532516479492 0.314336895942687988
0.468495339155197144 -0.10229106992483139 0.0346088558435440063
-0.124525979161262512 0.194661363959312439 0.115289539098739624
0.239910125732421875 -0.327097952365875244 0.317872732877731323
0.5003470778465271 -0.367008835077285767 0.0746452808380126953
0.523552477359771729 -0.325117409229278564 0.0262076500803232193
0.444618195295333862 -0.253716260194778442 0.332293719053268433
0.32165798544883728 -0.131766423583030701 -0.106663122773170471
0.0634009242057800293 -0.0112177599221467972 0.321559518575668335
0.511409938335418701 -0.361302375793457031 0.0475095286965370178
0.135831445455551147 -0.101109564304351807 0.040454912930727005
0.0497385077178478241 0.0111325886100530624 0.0296368934214115143
0.0210073515772819519 0.047816842794418335 0.0424958616495132446
0.0881594717502593994 -0.0665433928370475769 0.289502829313278198
-0.162026301026344299 -0.266312092542648315 0.14787822961807251
0.265102624893188477 -0.0205119624733924866 0.0615007877349853516
-0.0288711898028850555 -0.0295407660305500031 0.295406907796859741
0.502395212650299072 -0.240677028894424438 -0.301952898502349854
0.47616007924079895 -0.315317094326019287 -0.301891833543777466
-0.630614519119262695 0.305797696113586426 0.167363464832305908
0.475560277700424194 -0.321252226829528809 0.12099919468164444
0.509252846240997314 -0.301225930452346802 -0.105521783232688904
0.52844393253326416 -0.27526324987411499 -0.317131608724594116
0.493776232004165649 -0.33278927206993103 -0.310643523931503296
0.503614306449890137 -0.320565670728683472 0.0979970544576644897
0.474405407905578613 -0.306148648262023926 -0.298044472932815552
-0.559096872806549072 0.267555385828018188 0.364425420761108398
0.12513887882232666 0.1164369136095047 0.314084857702255249
-0.633239865303039551 0.281767696142196655 0.0543127693235874176
-0.587012827396392822 0.36232990026473999 0.102436870336532593
0.371726006269454956 -0.374452322721481323 -0.212687313556671143
0.438541710376739502 -0.348441183567047119 0.154322370886802673
0.0582519881427288055 0.120868004858493805 0.320986568927764893
-0.574259281158447266 0.368325620889663696 0.215509191155433655
0.264940410852432251 0.0243012122809886932 -0.0586482957005500793
0.36887630820274353 -0.337266862392425537 0.160597681999206543
0.510697722434997559 -0.301944941282272339 -0.111969001591205597
0.133840382099151611 -0.321112453937530518 -0.0978194475173950195
0.516736686229705811 -0.349219918251037598 -0.0202672760933637619
0.389517158269882202 -0.347174525260925293 -0.214046135544776917
-0.576664268970489502 0.318607360124588013 0.0408097356557846069
0.536261260509490967 -0.278235137462615967 -0.32053568959236145
0.468117117881774902 -0.311285853385925293 -0.299181103706359863
0.507344305515289307 -0.347566932439804077 0.0179459434002637863
-0.555570244789123535 0.30923086404800415 0.102249272167682648
0.194094717502593994 -0.339857131242752075 -0.0591970458626747131
0.0703371837735176086 -0.282778233289718628 -0.0779638513922691345
0.252493083477020264 -0.250829160213470459 0.320088773965835571
0.240030810236930847 0.0304789319634437561 0.316836327314376831
-0.120779052376747131 -0.0484285913407802582 0.00809101201593875885
0.178980723023414612 -0.100628338754177094 -0.014837365597486496
0.532628238201141357 -0.332747370004653931 -0.0131503939628601074
0.370588928461074829 -0.349902510643005371 -0.208828851580619812
0.535085737705230713 -0.246320530772209167 0.177238777279853821
0.561393797397613525 -0.316199183464050293 -0.330868273973464966
0.554675757884979248 -0.212187647819519043 0.133898094296455383
-0.542943060398101807 0.380282491445541382 0.164492174983024597
0.123122982680797577 0.11675184965133667 0.133059918880462646
-0.581894397735595703 0.351448118686676025 0.0978260412812232971
-0.481200575828552246 0.185421869158744812 -0.0915255099534988403
0.515792608261108398 -0.339645236730575562 0.0388463921844959259
0.253498107194900513 -0.279752880334854126 0.321912884712219238
0.278745174407958984 -0.356432527303695679 -0.12604127824306488
0.508168220520019531 -0.28704601526260376 -0.313602983951568604
-0.431885004043579102 -0.0579725094139575958 0.116682082414627075
0.202166646718978882 0.0900458022952079773 0.223302498459815979
0.244565367698669434 0.104210451245307922 -0.057213321328163147
-0.195510908961296082 0.200991213321685791 0.349173188209533691
0.250586867332458496 0.0244418028742074966 0.323269754648208618
0.239944919943809509 0.0185292698442935944 0.320959627628326416
-0.0312631577253341675 0.162190049886703491 0.382524788379669189
-0.482241153717041016 -0.0164056271314620972 0.180174440145492554
0.483987718820571899 -0.369569689035415649 0.0460959076881408691
-0.643179833889007568 0.286610573530197144 0.0862938389182090759
0.276187300682067871 -0.166271433234214783 -0.070483185350894928
-0.411540567874908447 -0.0576385781168937683 0.0788945108652114868
-0.642674624919891357 0.175177425146102905 -0.0818892940878868103
-0.225669607520103455 -0.134653612971305847 -0.0522597506642341614
0.255002647638320923 -0.266163140535354614 0.321073234081268311
-0.345000743865966797 0.016638483852148056 -0.116918206214904785
-0.286825686693191528 -0.0922778025269508362 -0.106535457074642181
-0.584690630435943604 0.20931650698184967 -0.217874392867088318
0.26766049861907959 -0.2976207435131073 0.315158188343048096
-0.0253439880907535553 -0.187924861907958984 -0.0435248985886573792
-0.617714583873748779 0.276408463716506958 0.0314897224307060242
-0.60850149393081665 0.297718614339828491 0.0925463363528251648
-0.397300541400909424 -0.0636463463306427002 0.118870377540588379
-0.45142778754234314 -0.0389564819633960724 0.119491219520568848
0.4311942458152771 -0.272348761558532715 0.329171836376190186
-0.0521344095468521118 0.140266001224517822 0.0916595384478569031
-0.502797842025756836 0.150456130504608154 0.355405926704406738
0.240869417786598206 -0.319922000169754028 0.322769492864608765
0.497364461421966553 -0.371393740177154541 0.05741124227643013
0.399386078119277954 -0.257471770048141479 0.322446703910827637
-0.158195734024047852 -0.264300316572189331 0.181508615612983704
-0.49889683723449707 0.0132667897269129753 0.158105567097663879
0.41767159104347229 -0.297980219125747681 0.328724205493927002
0.535554945468902588 -0.340737909078598022 -0.0183789730072021484
0.344553679227828979 -0.267914086580276489 -0.127794921398162842
-0.496203422546386719 0.0712460801005363464 0.203993514180183411
0.443737804889678955 -0.272792220115661621 0.333398640155792236
0.522274196147918701 -0.335957586765289307 0.032849438488483429
0.453679412603378296 -0.32042229175567627 -0.292923867702484131
0.474441230297088623 -0.312262415885925293 0.116738453507423401
0.517547369003295898 -0.278933852910995483 -0.312715530395507812
0.502987146377563477 -0.326473206281661987 -0.314209997653961182
0.518337845802307129 -0.327692955732345581 0.101958446204662323
0.479637324810028076 -0.311952203512191772 -0.30206221342086792
0.114749155938625336 0.118039906024932861 0.288946270942687988
-0.121618948876857758 0.268093764781951904 0.158705681562423706
-0.614471733570098877 0.264873683452606201 0.0521837137639522552
-0.479115903377532959 0.00225925585255026817 0.181349113583564758
0.42687574028968811 -0.355636000633239746 0.158603355288505554
-0.292007565498352051 -0.111359216272830963 -0.105793140828609467
0.130662620067596436 0.0649362653493881226 0.321158230304718018
0.254017293453216553 0.0382309481501579285 -0.0777566507458686829
0.235788449645042419 0.093428291380405426 -0.053041551262140274
0.417980611324310303 -0.262073040008544922 -0.20225892961025238
0.521948754787445068 -0.355220109224319458 -0.0193932801485061646
-0.608554184436798096 0.380512446165084839 0.181298196315765381
0.517899096012115479 -0.279834657907485962 -0.314637839794158936
0.499364942312240601 -0.350579172372817993 0.0241378974169492722
-0.587499499320983887 0.36870265007019043 0.113118432462215424
0.506180763244628906 -0.105275936424732208 0.147296294569969177
-0.197689846158027649 0.310993343591690063 0.112869478762149811
0.264107733964920044 -0.287208050489425659 0.319744348526000977
0.237077787518501282 0.0615981556475162506 0.310500085353851318
-0.144216656684875488 -0.0441787205636501312 0.00415738113224506378
-0.657427549362182617 0.214083239436149597 -0.0460544079542160034
-0.288295090198516846 -0.0767317786812782288 -0.0686370134353637695
0.227534770965576172 0.0416902825236320496 -0.048124413937330246
0.551754772663116455 -0.145048722624778748 0.132046133279800415
0.519991278648376465 -0.295948922634124756 0.0749325975775718689
0.517883896827697754 -0.284600049257278442 -0.181097164750099182
-0.35775795578956604 -0.0178713779896497726 -0.0279569867998361588
0.0917493253946304321 0.0876609086990356445 0.0857484713196754456
0.466895997524261475 -0.362471938133239746 -0.0106015251949429512
-0.432565957307815552 0.157066598534584045 -0.0664580538868904114
0.524026572704315186 -0.336235493421554565 0.0689425095915794373
0.262968093156814575 -0.286577075719833374 0.318467497825622559
0.00962385442107915878 -0.091616801917552948 -0.0261482186615467072
0.0327797159552574158 -0.131033048033714294 0.0218245722353458405
-0.630379259586334229 0.264393985271453857 0.0291573274880647659
0.24228203296661377 0.0737724974751472473 0.318767905235290527
0.24033704400062561 0.0290031898766756058 0.318849146366119385
-0.174486488103866577 0.300278693437576294 0.116245046257972717
0.30471464991569519 -0.151916548609733582 0.307758718729019165
0.26200103759765625 -0.291378945112228394 0.32095298171043396
-0.475946724414825439 -0.00899851042777299881 0.166228517889976501
0.242922410368919373 0.081213437020778656 0.312127768993377686
0.520444989204406738 -0.351894021034240723 0.0819768235087394714
-0.0347535572946071625 -0.238335698843002319 0.12402036041021347
-0.63799750804901123 0.289388388395309448 0.0989141389727592468
-0.233982428908348083 -0.133628919720649719 -0.0580434054136276245
-0.379054367542266846 -0.109678670763969421 0.105508521199226379
-0.236196652054786682 -0.148657962679862976 -0.0578911267220973969
-0.657641887664794922 0.213774725794792175 -0.0337613783776760101
0.529086470603942871 -0.353226125240325928 0.0779193788766860962
-0.620829105377197266 0.269651979207992554 0.052583005279302597
-0.403917014598846436 -0.0651912763714790344 0.112045943737030029
-0.446090251207351685 -0.0423449613153934479 0.121994175016880035
0.26806911826133728 -0.28626897931098938 0.323428064584732056
0.127658799290657043 -0.327314645051956177 0.312506437301635742
0.1523161381483078 -0.343796074390411377 0.317787766456604004
0.448009371757507324 -0.336185067892074585 -0.292896360158920288
0.516000211238861084 -0.303524494171142578 -0.107890434563159943
0.515519797801971436 -0.280805826187133789 -0.312733680009841919
0.485152095556259155 -0.328238874673843384 -0.309691548347473145
0.46462741494178772 -0.346450954675674438 -0.302565425634384155
0.549883902072906494 -0.210759028792381287 -0.315887808799743652
0.524388611316680908 -0.300597935914993286 -0.322383791208267212
0.518252849578857422 -0.301408529281616211 -0.318279832601547241
0.24699673056602478 0.0564877204596996307 0.316362738609313965
0.241493001580238342 0.0869683325290679932 0.312694579362869263
-0.291454732418060303 -0.101361952722072601 -0.101926140487194061
-0.453347533941268921 -0.0528309494256973267 0.117090418934822083
0.404856294393539429 -0.27289348840713501 0.322493523359298706
-0.502167701721191406 0.00295506557449698448 0.189145341515541077
0.401145786046981812 -0.28787386417388916 0.324810981750488281
0.399295032024383545 -0.274189949035644531 0.323288828134536743
0.342402040958404541 -0.259554415941238403 0.0901177525520324707
-0.0186595376580953598 -0.245123684406280518 0.128593161702156067
-0.46426922082901001 0.0351798646152019501 0.189553588628768921
-0.194136396050453186 0.220969006419181824 0.171977967023849487
0.367046594619750977 -0.32984393835067749 -0.0234695412218570709
0.323653191328048706 -0.390670835971832275 -0.158813759684562683
0.535652399063110352 -0.32418745756149292 -0.0581659190356731415
-0.441531389951705933 -0.00555267231538891792 0.152701467275619507
-0.0189573653042316437 -0.060187164694070816 0.141669034957885742
-9.03740874491631985e-05 -0.236844047904014587 0.106317892670631409
0.526436984539031982 -0.202324405312538147 -0.0799771621823310852
0.450065791606903076 -0.308863341808319092 -0.292781949043273926
0.527115464210510254 -0.275965750217437744 -0.315586447715759277
0.500181972980499268 -0.325422614812850952 -0.31257978081703186
0.475484877824783325 -0.305578082799911499 -0.297297000885009766
-0.127181172370910645 0.246051207184791565 0.138897746801376343
-0.648701667785644531 0.281415998935699463 0.0943107306957244873
-0.198784276843070984 0.286066025495529175 0.335780709981918335
0.498165756464004517 -0.0872802883386611938 0.13666941225528717
0.200958847999572754 -0.359771251678466797 -0.0908088907599449158
0.505622625350952148 -0.368244051933288574 -0.022648397833108902
0.52740478515625 -0.243265137076377869 0.172943979501724243
-0.585666418075561523 0.378727525472640991 0.17068307101726532
0.445281952619552612 -0.315457940101623535 -0.287657678127288818
0.498746573925018311 -0.111642710864543915 0.112186327576637268
-0.655460894107818604 0.174893662333488464 -0.103640682995319366
-0.201653629541397095 0.308191478252410889 0.0890920162200927734
0.201419562101364136 -0.0141767794266343117 0.295213162899017334
0.160268351435661316 -0.0626933500170707703 -0.0440580062568187714
-0.579324781894683838 0.301613509654998779 0.368637800216674805
0.275304138660430908 0.0979460999369621277 -0.0290732458233833313
-0.43493276834487915 0.154773443937301636 -0.0859761089086532593
0.534647166728973389 -0.333609640598297119 0.0127866985276341438
-0.568405687808990479 0.196764305233955383 -0.228966280817985535
-0.497329056262969971 0.0443104244768619537 -0.0867923423647880554
0.0316428914666175842 -0.104630537331104279 0.0329790487885475159
0.534368574619293213 -0.265003293752670288 -0.316232681274414062
0.0100904619321227074 0.197164684534072876 0.0275632850825786591
0.302408427000045776 0.0384546145796775818 -0.0844162628054618835
-0.33185112476348877 -0.0166898686438798904 -0.107686065137386322
0.236604124307632446 0.0138838523998856544 0.321763575077056885
0.125189781188964844 0.0124013843014836311 0.298887938261032104
0.527708709239959717 -0.355741798877716064 0.0663692429661750793
0.467353612184524536 -0.310356676578521729 -0.233035162091255188
-0.651683807373046875 0.284755975008010864 0.104415677487850189
0.546750009059906006 -0.220536664128303528 0.163502290844917297
0.528253614902496338 -0.323926210403442383 -0.0159951336681842804
-0.382721960544586182 -0.0571722611784934998 0.0762227326631546021
0.457186907529830933 -0.311345785856246948 -0.29247891902923584
0.505260944366455078 -0.340348511934280396 -0.317815333604812622
0.47910541296005249 -0.314828634262084961 -0.299421489238739014
0.520660102367401123 -0.301813751459121704 -0.317244559526443481
-0.00201406027190387249 -0.140621960163116455 -0.0248315166682004929
0.397628664970397949 -0.273748248815536499 0.323463737964630127
0.401300132274627686 -0.272174566984176636 0.323768526315689087
0.50627899169921875 -0.332551926374435425 0.105886593461036682
-0.467255949974060059 0.0417218096554279327 0.17067013680934906
0.410206735134124756 -0.346456050872802734 0.156622916460037231
-0.36043626070022583 -0.0359813645482063293 -0.148063510656356812
-0.128005385398864746 -0.268444269895553589 0.11235162615776062
0.512839257717132568 -0.369584351778030396 -0.014594648964703083
-0.213279947638511658 0.311987698078155518 0.0976222977042198181
0.250668168067932129 -0.287722736597061157 0.322888195514678955
0.20924203097820282 0.0089626675471663475 -0.0460655428469181061
0.0702480599284172058 -0.152116298675537109 -0.0172413326799869537
-0.169328510761260986 0.304234564304351807 0.118808716535568237
0.471342742443084717 -0.364893555641174316 0.00711955688893795013
-0.290574193000793457 -0.100151419639587402 -0.103183254599571228
0.0367454998195171356 -0.15029221773147583 -0.0217108819633722305
0.232372686266899109 0.0557122007012367249 0.309183448553085327
0.253475606441497803 -0.289283633232116699 0.320671170949935913
-0.471361875534057617 0.000396918097976595163 0.168690651655197144
0.241192132234573364 0.0621723867952823639 0.313084065914154053
0.509185910224914551 -0.352582365274429321 0.0640209168195724487
0.227500766515731812 -0.315438896417617798 0.314572721719741821
-0.375035345554351807 -0.0939398258924484253 0.0861879214644432068
-0.0626065582036972046 -0.24235612154006958 0.302465349435806274
-0.222333654761314392 -0.128363087773323059 -0.0531052425503730774
-0.409526735544204712 -0.066205143928527832 0.0985417291522026062
-0.444639623165130615 -0.0454690679907798767 0.132766187191009521
0.239063069224357605 -0.29467010498046875 0.314445197582244873
0.153987735509872437 -0.324999183416366577 0.320098280906677246
0.425443023443222046 -0.256655067205429077 0.328611552715301514
0.438562929630279541 -0.343412518501281738 -0.292549490928649902
0.506679654121398926 -0.335049480199813843 -0.317960739135742188
0.445411890745162964 -0.352762162685394287 -0.286606192588806152
0.23845990002155304 0.065236113965511322 0.312362819910049438
0.403373390436172485 -0.288102239370346069 0.325935065746307373
-0.494387060403823853 0.00598560785874724388 0.188426777720451355
0.486017048358917236 -0.0637044310569763184 0.131803110241889954
0.0128538841381669044 -0.171359270811080933 0.00983988214284181595
0.531851112842559814 -0.308116257190704346 -0.0621310882270336151
0.315117776393890381 -0.302759259939193726 -0.126730874180793762
0.446247845888137817 -0.291791588068008423 -0.285519063472747803
-0.336414098739624023 0.224078834056854248 0.125715658068656921
-0.40040019154548645 -0.0288807079195976257 -0.00186439265962690115
0.403286159038543701 -0.272317111492156982 0.324151843786239624
-0.132848143577575684 0.19523128867149353 0.167724445462226868
0.39933505654335022 -0.272254526615142822 0.323965162038803101
-0.446059495210647583 -0.0256585981696844101 0.0214709248393774033
-0.13752099871635437 0.244304269552230835 0.191667348146438599
-0.612257897853851318 0.293460488319396973 0.183820769190788269
0.12485116720199585 0.115568414330482483 0.316673398017883301
-0.120444148778915405 0.250054091215133667 0.161812320351600647
-0.582713961601257324 0.347620993852615356 0.058256443589925766
0.427119255065917969 -0.348626315593719482 0.153108164668083191
-0.566121160984039307 0.294562339782714844 -0.0688401311635971069
0.252275764942169189 0.0263554230332374573 -0.0794839784502983093
0.248082831501960754 0.100053682923316956 -0.0482577160000801086
-0.356920123100280762 -0.0563413500785827637 -0.141804292798042297
0.199130937457084656 0.119842529296875 0.0358235575258731842
0.545888066291809082 -0.131978616118431091 0.112051911652088165
-0.581014931201934814 0.321251720190048218 -0.0227020420134067535
0.20650327205657959 0.0242154747247695923 0.176878407597541809
-0.594758093357086182 0.374603927135467529 0.17209857702255249
