ply
format ascii 1.0
element vertex 737
property float x
property float y
property float z
end_header
0.474909126758575439 -0.126271679997444153 -0.0222516115754842758
0.384921103715896606 -0.0644159615039825439 -0.0663370043039321899
-0.446986913681030273 -0.00647329306229948997 -0.0221173614263534546
0.470422118902206421 -0.202052325010299683 0.0135359670966863632
0.439163893461227417 -0.251651972532272339 -0.210039645433425903
-0.404124081134796143 0.144518628716468811 -0.0549241788685321808
0.45680081844329834 -0.261491864919662476 -0.211541250348091125
-0.105915538966655731 0.0445516929030418396 0.270163267850875854
0.501126527786254883 -0.262244611978530884 0.0206249915063381195
0.323433965444564819 -0.204630717635154724 0.20659211277961731
0.448119670152664185 -0.346607089042663574 -0.229298412799835205
0.482199758291244507 -0.359146207571029663 -0.0710611641407012939
0.500251650810241699 -0.320159614086151123 -0.310985058546066284
-0.112687110900878906 0.144513532519340515 0.367497831583023071
-0.496178984642028809 0.133282631635665894 -0.0522376038134098053
-0.434883385896682739 -0.0299726724624633789 0.166168838739395142
-0.63065648078918457 0.304035604000091553 0.182647079229354858
0.48761981725692749 -0.322162657976150513 0.125328481197357178
-0.250899285078048706 -0.0269950572401285172 0.0656842067837715149
0.389688253402709961 0.046535685658454895 -0.0435971841216087341
0.515061140060424805 -0.309899300336837769 -0.102909654378890991
-0.37478300929069519 0.330118387937545776 0.143449530005455017
-0.364961117506027222 -0.00654989480972290039 -0.126331731677055359
-0.533979296684265137 0.284500479698181152 -0.00428552739322185516
-0.193726107478141785 -0.0198602508753538132 0.17312583327293396
0.357400685548782349 -0.283164441585540771 0.0420092977583408356
-0.214461609721183777 -0.0856954678893089294 0.0358052477240562439
0.0780217871069908142 -0.0513660237193107605 0.263844937086105347
0.464706063270568848 -0.30883219838142395 -0.219240143895149231
-0.573732554912567139 0.360911458730697632 0.267176151275634766
-0.573286831378936768 0.274075925350189209 0.236102655529975891
-0.551186919212341309 0.270211517810821533 -0.106796734035015106
0.532139122486114502 -0.20196811854839325 -0.090434536337852478
0.47132071852684021 -0.307384252548217773 -0.0191700905561447144
-0.584301114082336426 0.260664850473403931 -0.0423500612378120422
0.420696884393692017 -0.302931040525436401 0.0653683915734291077
-0.457526177167892456 0.116711661219596863 -0.232190579175949097
0.313967645168304443 0.043946288526058197 0.0264641791582107544
0.495543301105499268 -0.321824818849563599 -0.309724718332290649
0.34301149845123291 -0.186376944184303284 0.163492441177368164
0.449949294328689575 -0.359588295221328735 -0.0818212330341339111
-0.294821500778198242 0.213866770267486572 0.0125368554145097733
-0.466285437345504761 0.154945895075798035 -0.0450898967683315277
0.44896349310874939 -0.26541253924369812 -0.144673600792884827
0.512954413890838623 -0.330647796392440796 0.111345738172531128
0.477321714162826538 -0.303558975458145142 -0.303154587745666504
-0.382202655076980591 0.333317995071411133 0.16210523247718811
-0.559790432453155518 0.263321131467819214 0.364289283752441406
0.445749759674072266 -0.332136929035186768 -0.229094773530960083
-0.558170557022094727 0.332876771688461304 0.113074734807014465
0.43812185525894165 -0.250361829996109009 0.0917019471526145935
-0.362555712461471558 0.246097862720489502 -0.0158488936722278595
0.442820698022842407 -0.2356882244348526 -0.226816385984420776
0.134399950504302979 0.120717667043209076 0.337123185396194458
0.285311609506607056 -0.0816764160990715027 0.190507382154464722
0.541265249252319336 -0.22141420841217041 0.112359493970870972
0.159933656454086304 0.0940487682819366455 0.124286405742168427
-0.0486580654978752136 -0.0635731145739555359 0.0488824211061000824
-0.588655591011047363 0.270699560642242432 -0.00745127536356449127
-0.609706997871398926 0.236349776387214661 -0.0562961399555206299
-0.342903614044189453 0.166503548622131348 0.0329534187912940979
-0.580971598625183105 0.190413564443588257 0.0905324444174766541
-0.435916393995285034 0.0518257617950439453 -0.148834884166717529
-0.0904545858502388 0.265997409820556641 0.177258267998695374
0.24968932569026947 0.103875406086444855 -0.0590899959206581116
0.111670181155204773 0.0954283624887466431 -0.0144886812195181847
0.386235654354095459 -0.26482120156288147 0.196333885192871094
-0.0152016021311283112 0.00288074743002653122 0.222570031881332397
-0.437473565340042114 -0.0143186440691351891 -0.0323058627545833588
-0.136002525687217712 -0.0377968065440654755 0.0950654521584510803
0.0257150884717702866 0.142400637269020081 0.294404327869415283
-0.554532408714294434 0.150521546602249146 -0.113482899963855743
0.0430438220500946045 -0.058736756443977356 0.153641700744628906
-0.155585944652557373 -0.0027206221129745245 0.156017228960990906
0.0372430160641670227 0.138983890414237976 0.0899241715669631958
-0.461863040924072266 0.00714477384462952614 0.166537553071975708
-0.28667721152305603 -0.0544688291847705841 0.135224178433418274
0.207755669951438904 -0.153812229633331299 0.212619855999946594
0.0322957076132297516 0.118121646344661713 0.0910236239433288574
0.321447074413299561 -0.172357574105262756 0.0106420842930674553
0.301376968622207642 -0.124441236257553101 -0.0414841137826442719
-0.37701454758644104 -0.0083718765527009964 -0.030302584171295166
0.448399007320404053 -0.273077577352523804 0.0944618135690689087
0.317771852016448975 -0.117724031209945679 0.0136495074257254601
0.15778215229511261 -0.0916964635252952576 0.212685048580169678
-0.162154287099838257 0.146045416593551636 0.0702082440257072449
0.456438422203063965 -0.108860805630683899 -0.23120938241481781
-0.577268481254577637 0.243988201022148132 -0.120068632066249847
-0.571286976337432861 0.294287294149398804 -0.0642597228288650513
0.5180702805519104 -0.242707565426826477 -0.158599853515625
-0.3695029616355896 0.0980688631534576416 -0.0742286145687103271
-0.613686084747314453 0.263216406106948853 0.0383736118674278259
0.343068480491638184 -0.329336851835250854 -0.106214731931686401
0.340527623891830444 -0.189725473523139954 0.160416558384895325
0.532334327697753906 -0.247791886329650879 0.0928107574582099915
0.143659815192222595 0.0782735273241996765 0.0921111851930618286
-0.572018086910247803 0.304623991250991821 -0.0515141934156417847
0.271356105804443359 0.00491894921287894249 0.0708611384034156799
-0.624917030334472656 0.192663699388504028 -0.0884417220950126648
-0.461010336875915527 0.291398793458938599 -0.0619816742837429047
-0.152414008975028992 0.179661586880683899 0.0906525179743766785
-0.548869669437408447 0.173635944724082947 -0.0442311614751815796
-0.543601334095001221 0.277280926704406738 0.171460852026939392
0.401154249906539917 -0.234229162335395813 -0.0234807133674621582
0.286794811487197876 -0.0628569945693016052 -0.096959725022315979
0.221750110387802124 0.0397107414901256561 -0.0703059881925582886
0.103231966495513916 -0.138994514942169189 0.210649773478507996
0.115328803658485413 0.0720623955130577087 0.316292285919189453
-0.37040179967880249 0.117835305631160736 0.236692339181900024
-0.023063957691192627 -0.0580214820802211761 0.137277543544769287
0.221817761659622192 -0.236522465944290161 0.0974749922752380371
0.0757766664028167725 0.0644476860761642456 0.0340203717350959778
-0.383728981018066406 -0.0587499700486660004 0.103993363678455353
0.104290314018726349 0.0786782354116439819 0.125952005386352539
0.252229988574981689 0.0283370576798915863 -0.0658894553780555725
-0.372125118970870972 0.26891481876373291 0.113360926508903503
0.0323203727602958679 -0.0561414659023284912 0.301996499300003052
-0.0148690817877650261 0.137272104620933533 0.0919116288423538208
-0.501355588436126709 0.0950540080666542053 -0.128084704279899597
-0.345658361911773682 0.01176487747579813 0.150387972593307495
0.526821374893188477 -0.0549934245645999908 -0.309178769588470459
-0.499957889318466187 0.135323062539100647 -0.24107639491558075
0.472991347312927246 -0.26945146918296814 0.113239109516143799
0.377061933279037476 -0.134324938058853149 -0.0479037538170814514
0.234909072518348694 0.0925615131855010986 -0.0404521450400352478
0.137392252683639526 0.0124168712645769119 0.284531146287918091
0.520752131938934326 -0.204959258437156677 -0.0882626324892044067
-0.536191165447235107 0.124188676476478577 -0.10598253458738327
-0.579050362110137939 0.292171120643615723 -0.00127281062304973602
0.482705593109130859 -0.325539350509643555 0.100165471434593201
0.499470800161361694 -0.270005583763122559 0.0359445251524448395
0.493122994899749756 -0.330526024103164673 -0.0629631057381629944
-0.483278840780258179 0.119688943028450012 -0.0457580052316188812
-0.591372370719909668 0.30095478892326355 0.175405502319335938
0.483478695154190063 -0.323432505130767822 0.134508445858955383
0.505901992321014404 -0.303940504789352417 -0.103940494358539581
-0.380944788455963135 0.316436856985092163 0.158451765775680542
-0.546162247657775879 0.333834558725357056 0.134007707238197327
0.460506647825241089 -0.259862363338470459 0.114966154098510742
0.533976614475250244 -0.207718253135681152 -0.0878940075635910034
0.513484597206115723 -0.23213621973991394 -0.304831445217132568
-0.553784966468811035 0.259021669626235962 -0.0210905950516462326
0.461403429508209229 -0.30507233738899231 0.10901198536157608
-0.451742112636566162 0.112085908651351929 -0.225134223699569702
0.486429840326309204 -0.314572036266326904 -0.303489416837692261
-0.559285819530487061 0.317051082849502563 0.35436674952507019
0.179498836398124695 -0.104643993079662323 -0.0162780899554491043
0.306430339813232422 0.0177703872323036194 -0.111731953918933868
0.506405770778656006 -0.338326096534729004 0.0249451436102390289
0.404854625463485718 0.0223041735589504242 0.00817816797643899918
0.475344628095626831 -0.288600504398345947 -0.299963623285293579
0.0108220363035798073 0.153615176677703857 0.0572980456054210663
0.523253440856933594 -0.300856918096542358 -0.0978740379214286804
-0.380621820688247681 0.333375364542007446 0.204705908894538879
-0.550765633583068848 0.336897015571594238 0.124447852373123169
0.418592721223831177 -0.25310814380645752 0.0980042442679405212
-0.579855263233184814 0.207756370306015015 -0.215052396059036255
0.278536230325698853 -0.0856387168169021606 0.190478920936584473
-0.129498258233070374 0.223959445953369141 0.126330405473709106
-0.381970822811126709 0.103371933102607727 -0.0634684935212135315
0.551541745662689209 -0.220578804612159729 0.114297069609165192
0.383664965629577637 -0.242994144558906555 0.313865840435028076
-0.552497923374176025 0.162518903613090515 0.0796563774347305298
-0.134193956851959229 0.200869828462600708 0.168235674500465393
0.242538928985595703 0.109556645154953003 -0.0490553565323352814
0.116644896566867828 0.0392580032348632812 0.328069061040878296
-0.558850288391113281 0.277455270290374756 0.00234146811999380589
0.32005348801612854 -0.133192747831344604 -0.0797785744071006775
-0.574703872203826904 0.199781656265258789 -0.225999042391777039
0.208115413784980774 0.117546714842319489 0.0451158657670021057
0.463816851377487183 -0.308730989694595337 0.134784325957298279
-0.585021138191223145 0.319191962480545044 -0.0249444544315338135
0.530517160892486572 -0.253904372453689575 0.0982517525553703308
-0.309493660926818848 0.0818874016404151917 -0.0724083855748176575
-0.449249178171157837 0.00781926605850458145 -0.140266090631484985
-0.300858199596405029 0.290147781372070312 0.146176636219024658
-0.526119589805603027 0.181046023964881897 -0.215320169925689697
-0.391421377658843994 -0.0593436956405639648 0.100672788918018341
-0.544996321201324463 0.262241244316101074 -0.164775073528289795
0.313758283853530884 -0.334635019302368164 0.197769299149513245
-0.0596034154295921326 0.0933904945850372314 0.321089118719100952
-0.101358599960803986 0.143208101391792297 0.0933987349271774292
0.499847859144210815 -0.363288998603820801 0.0764026269316673279
0.349088281393051147 -0.283288151025772095 -0.134970024228096008
-0.412010312080383301 0.19747568666934967 0.0362546406686306
-0.344785392284393311 0.251114547252655029 -0.0135878510773181915
-0.267146438360214233 0.078322775661945343 -0.0147621482610702515
-0.180466979742050171 0.0180087964981794357 0.0395036935806274414
-0.553010404109954834 0.212065458297729492 -0.0474764406681060791
0.407946228981018066 -0.401269882917404175 -0.215556368231773376
0.517754316329956055 -0.285579591989517212 -0.100179426372051239
0.39539569616317749 -0.264817565679550171 -0.193615153431892395
0.49801337718963623 -0.274642020463943481 -0.300620704889297485
0.434633761644363403 -0.257671236991882324 -0.0017892209580168128
-0.154267579317092896 -0.244796067476272583 0.148792922496795654
-0.629746556282043457 0.193848520517349243 -0.0477585941553115845
-0.354632943868637085 -0.000247740157647058368 -0.151234492659568787
-0.500834167003631592 0.145660042762756348 0.346104711294174194
-0.331284195184707642 0.299172163009643555 0.190908089280128479
-0.334273278713226318 -0.0322561673820018768 -0.132380351424217224
0.113421477377414703 0.0949893519282341003 0.0292310770601034164
0.470180273056030273 -0.135335966944694519 0.099525846540927887
0.399066507816314697 -0.305385559797286987 0.145244091749191284
-0.456885963678359985 0.166996821761131287 0.116694130003452301
-0.535898983478546143 0.286750257015228271 0.0420303381979465485
-0.276039958000183105 -0.128332287073135376 0.0818427428603172302
-0.482602834701538086 0.248549550771713257 -0.102995581924915314
0.171325385570526123 -0.27252623438835144 0.0366246774792671204
-0.344289869070053101 0.102837421000003815 0.00645653530955314636
-0.365577191114425659 0.282366931438446045 0.0869029536843299866
0.386693179607391357 -0.230355650186538696 -0.121642239391803741
-0.352759331464767456 0.00178525701630860567 0.0352113693952560425
-0.517655611038208008 0.201406419277191162 0.0491026043891906738
-0.384577006101608276 0.182210192084312439 0.0920641571283340454
-0.571358144283294678 0.3276195228099823 -0.0116643505170941353
-0.338766992092132568 -0.0884263738989830017 -0.0540059842169284821
-0.136741906404495239 -0.269685566425323486 0.130323067307472229
0.275198876857757568 -0.166237741708755493 0.0550662092864513397
0.313312441110610962 -0.302990257740020752 -0.128253832459449768
-0.380898743867874146 0.249725371599197388 0.233308851718902588
0.310832887887954712 -0.217562034726142883 0.201287612318992615
0.496487915515899658 -0.255309432744979858 -0.105294853448867798
-0.118692278861999512 0.0720291286706924438 0.173566952347755432
0.512649714946746826 -0.362367480993270874 -0.0305629372596740723
-0.508728325366973877 0.268460541963577271 -0.00496466131880879402
-0.594769418239593506 0.24336281418800354 -0.00269838050007820129
-0.585936248302459717 0.250440865755081177 0.194266378879547119
-0.547372281551361084 0.12068571150302887 -0.134131371974945068
-0.244706213474273682 0.182203367352485657 0.356879502534866333
0.462614357471466064 -0.264567166566848755 -0.290179073810577393
0.456320464611053467 -0.256311327219009399 -0.186732396483421326
0.519533753395080566 -0.30323415994644165 0.0446666739881038666
-0.625286996364593506 0.199671745300292969 0.0449495874345302582
-0.255470126867294312 -0.00529203936457633972 -0.062168661504983902
0.245792359113693237 0.098666168749332428 -0.068892255425453186
0.505077362060546875 -0.160346671938896179 0.130993470549583435
0.343331784009933472 -0.0704069957137107849 0.162157177925109863
0.399993985891342163 -0.237517863512039185 0.130469679832458496
-0.359395414590835571 -0.119521066546440125 0.116501502692699432
-0.478651642799377441 0.188992515206336975 0.0639663189649581909
-0.574250280857086182 0.341450899839401245 0.0253165885806083679
-0.358735382556915283 -0.064047686755657196 0.0908744409680366516
-0.342428714036941528 0.0109766591340303421 -0.114380992949008942
0.303147315979003906 -0.29632452130317688 0.162202462553977966
-0.504275679588317871 0.220351904630661011 0.141903236508369446
-0.484837979078292847 0.0277618374675512314 -0.046840183436870575
0.033541850745677948 0.0874532833695411682 0.0878340452909469604
-0.231115862727165222 0.346679538488388062 0.148774340748786926
0.0322329364717006683 0.00998567976057529449 0.0420792922377586365
-0.365411907434463501 -0.0374237149953842163 -0.032720126211643219
-0.0480610057711601257 -0.234849497675895691 0.301734656095504761
0.186085104942321777 -0.293373525142669678 0.0037739903200417757
0.234915360808372498 -0.0120460288599133492 0.230305776000022888
-0.526107668876647949 0.140037655830383301 0.0680626630783081055
-0.519902586936950684 0.200829431414604187 -0.067303679883480072
-0.551856398582458496 0.285151153802871704 0.107557341456413269
0.143986135721206665 0.0072888634167611599 0.307799160480499268
0.0681613907217979431 -0.286761730909347534 -0.0814107209444046021
-0.361649900674819946 0.0346189886331558228 -0.161112189292907715
0.307531058788299561 -0.29413992166519165 0.0296740103513002396
-0.338915705680847168 0.212819322943687439 0.159202203154563904
-0.187913641333580017 0.199529558420181274 0.367742985486984253
-0.539660990238189697 0.254307568073272705 -0.0840175077319145203
0.522759199142456055 -0.200096845626831055 -0.0925043299794197083
-0.51869732141494751 0.184715941548347473 0.136526256799697876
-0.543266713619232178 0.269418209791183472 -0.00234880507923662663
0.471227198839187622 -0.326767176389694214 0.0447537936270236969
0.289143294095993042 0.0305799525231122971 0.0538390614092350006
0.433439046144485474 -0.306557923555374146 -0.284869611263275146
-0.518273353576660156 0.0894095525145530701 -0.134979918599128723
-0.600247025489807129 0.284750759601593018 0.184019848704338074
0.467740327119827271 -0.321703553199768066 0.127523228526115417
0.467777669429779053 -0.261076867580413818 -0.293442875146865845
-0.403657287359237671 0.299950778484344482 0.142842575907707214
-0.453897267580032349 0.118846885859966278 -0.223801508545875549
0.481695562601089478 -0.312376409769058228 -0.302253633737564087
0.468316584825515747 -0.331241637468338013 -0.00283979461528360844
0.457429558038711548 -0.305808156728744507 -0.292194604873657227
0.524391353130340576 -0.26246941089630127 -0.10187201201915741
-0.408419519662857056 0.318062096834182739 0.162700846791267395
-0.560537815093994141 0.266990393400192261 0.365254759788513184
-0.575794100761413574 0.210013508796691895 -0.200643196702003479
0.447567611932754517 -0.297110319137573242 -0.22283993661403656
0.310599207878112793 -0.0767354965209960938 0.148908734321594238
0.534763753414154053 -0.248812079429626465 0.101297043263912201
-0.562257468700408936 0.119199395179748535 -0.233099207282066345
-0.407876253128051758 0.0760339647531509399 -0.116471119225025177
-0.579337179660797119 0.355827629566192627 0.0827027857303619385
0.0416039451956748962 0.113964669406414032 0.312276512384414673
-0.456422150135040283 0.00817647203803062439 0.18168148398399353
0.409523248672485352 -0.344502270221710205 0.160043999552726746
-0.554363012313842773 0.287945538759231567 -0.0491286814212799072
0.543264627456665039 -0.25647425651550293 0.113731876015663147
0.0240874942392110825 -0.250454723834991455 0.20503610372543335
0.195823013782501221 0.129598483443260193 0.034893527626991272
0.315668731927871704 -0.371050029993057251 -0.156851679086685181
0.11078256368637085 0.0590067729353904724 0.319004863500595093
-0.3146381676197052 0.305892080068588257 0.284116059541702271
-0.254268616437911987 -0.133408457040786743 -0.073143303394317627
-0.386313408613204956 -0.0609271712601184845 0.10644955188035965
0.453339904546737671 -0.0731680914759635925 -0.116301186382770538
0.315933674573898315 -0.333666682243347168 0.195900842547416687
0.297991305589675903 0.0377296581864356995 0.0501454956829547882
0.475987106561660767 -0.331524580717086792 0.136496171355247498
0.439976304769515991 -0.267987906932830811 -0.282061278820037842
0.46154254674911499 -0.27360263466835022 0.138048142194747925
0.504187643527984619 -0.346931755542755127 0.0175698548555374146
0.519119977951049805 -0.270062774419784546 -0.0870059505105018616
0.498832345008850098 -0.0885613635182380676 0.16187421977519989
0.542420268058776855 -0.215772226452827454 0.110915422439575195
-0.576766371726989746 0.326336175203323364 0.0805085897445678711
0.246935263276100159 0.110911436378955841 -0.0543448999524116516
0.0337885916233062744 0.0678130984306335449 0.272469073534011841
-0.56173253059387207 0.274698853492736816 0.0240335222333669662
-0.613666176795959473 0.271485388278961182 0.0386428423225879669
0.535779893398284912 -0.239755719900131226 0.102951779961585999
-0.575743675231933594 0.21216118335723877 -0.116590157151222229
-0.424787521362304688 0.0300182010978460312 -0.188444763422012329
0.304691612720489502 -0.126879319548606873 -0.108227893710136414
-0.38492506742477417 -0.0564398616552352905 0.100690431892871857
-0.602965891361236572 0.259017646312713623 0.0175442658364772797
-0.460381925106048584 0.30573803186416626 0.0812554135918617249
0.505073964595794678 -0.264425933361053467 -0.109114423394203186
0.534788966178894043 -0.192843124270439148 0.0287758801132440567
-0.615906238555908203 0.209931641817092896 -0.0560065284371376038
0.452740490436553955 -0.124068394303321838 0.0894390344619750977
0.0337997153401374817 -0.280126988887786865 -0.0358015447854995728
0.402104198932647705 -0.319334715604782104 0.131010740995407104
-0.0936871841549873352 0.0734260305762290955 0.293153047561645508
0.243415921926498413 -0.137261644005775452 0.0111674275249242783
0.161529049277305603 -0.272085487842559814 0.0439206399023532867
-0.590280115604400635 0.368622303009033203 0.0903053358197212219
0.027310272678732872 -0.0122561855241656303 0.0279465969651937485
0.196004822850227356 0.0335317030549049377 0.17816394567489624
-0.306055665016174316 -0.092118285596370697 0.305476278066635132
0.493865132331848145 -0.367357760667800903 0.0199553240090608597
0.521763026714324951 -0.311910271644592285 0.0461532548069953918
0.502792835235595703 -0.153967291116714478 0.11904868483543396
0.08103904128074646 -0.272628188133239746 -0.0595017895102500916
-0.325249046087265015 -0.103959180414676666 0.0884392634034156799
-0.585884153842926025 0.334284186363220215 0.0186849907040596008
-0.0738366171717643738 -0.236417457461357117 0.301601320505142212
0.194524213671684265 -0.340423583984375 -0.0622610971331596375
-0.398540139198303223 0.271489053964614868 -0.0545509904623031616
-0.521482706069946289 0.0434763319790363312 -0.057633131742477417
-0.257535606622695923 0.141616374254226685 0.0913137942552566528
-0.213329672813415527 -0.136428102850914001 -0.0632295683026313782
0.508671998977661133 -0.105130679905414581 0.144364520907402039
0.214310571551322937 -0.280169367790222168 -0.00922300759702920914
0.238322630524635315 -0.0765406116843223572 0.126916319131851196
-0.140109896659851074 0.296038687229156494 0.147806540131568909
-0.65569758415222168 0.170914918184280396 -0.112326785922050476
0.25349542498588562 -0.00991427525877952576 0.249971285462379456
0.250310391187667847 -0.17934165894985199 0.302717387676239014
-0.262849330902099609 -0.137703850865364075 -0.067624703049659729
-0.200470700860023499 0.313843101263046265 0.0989591553807258606
0.257799029350280762 -0.278564512729644775 0.32305830717086792
0.179077327251434326 -0.0545137859880924225 -0.0509288199245929718
-0.443102091550827026 -0.0673945397138595581 0.129128023982048035
-0.503596842288970947 0.0293744057416915894 0.247204095125198364
-0.496774077415466309 0.0358346626162528992 -0.0115945031866431236
0.232798919081687927 0.0223729033023118973 0.314053475856781006
-0.371198564767837524 -0.0464802086353302002 0.14340151846408844
-0.348651707172393799 0.105908766388893127 0.0660176724195480347
0.307670950889587402 -0.199292317032814026 0.242951482534408569
0.308557659387588501 -0.00595255009829998016 0.219608187675476074
-0.442447960376739502 0.266005516052246094 -0.0371876396238803864
0.517276763916015625 -0.32701602578163147 -0.0811508744955062866
-0.538467645645141602 0.137850850820541382 -0.0970570072531700134
0.465926319360733032 -0.12483525276184082 0.00210097432136535645
-0.385017484426498413 0.254744917154312134 0.0328128300607204437
0.494041174650192261 -0.3023948073387146 0.121217645704746246
0.465462595224380493 -0.106587238609790802 0.059683583676815033
0.203985840082168579 0.0147814592346549034 -0.0421416312456130981
-0.224258169531822205 0.295207440853118896 0.158678993582725525
-0.124869264662265778 -0.0495869889855384827 0.0109314192086458206
-0.231512606143951416 0.227836981415748596 0.348124504089355469
-0.380591541528701782 -0.0550443269312381744 0.145516395568847656
0.341386586427688599 -0.0741731896996498108 0.0477840490639209747
-0.435687780380249023 -0.012937372550368309 0.0341249443590641022
0.205621302127838135 0.0161877963691949844 0.070467039942741394
0.0563693083822727203 -0.0865237712860107422 0.239288181066513062
-0.383669167757034302 -0.0602371767163276672 0.116627812385559082
-0.136574417352676392 -0.265495359897613525 -0.00114802736788988113
-0.243554383516311646 0.0629334822297096252 0.244843706488609314
-0.541808724403381348 0.210239171981811523 0.162816956639289856
-0.590369224548339844 0.286603152751922607 -0.00713897077366709709
0.307176321744918823 0.0172338448464870453 0.0429769493639469147
0.478692471981048584 -0.315198123455047607 -0.305131047964096069
0.503923356533050537 -0.345978468656539917 -0.0635625943541526794
0.471780836582183838 -0.305609971284866333 0.115235358476638794
0.527296543121337891 -0.303330004215240479 -0.109140150249004364
-0.402530848979949951 0.310896545648574829 0.134747534990310669
0.518132030963897705 -0.251690268516540527 -0.307122319936752319
0.50780951976776123 -0.329484075307846069 -0.31448817253112793
0.518968641757965088 -0.331822723150253296 0.0917877852916717529
0.477575868368148804 -0.304666697978973389 -0.302768439054489136
0.527754426002502441 -0.286067366600036621 -0.107757173478603363
-0.559654116630554199 0.266606003046035767 0.36564067006111145
-0.639795780181884766 0.289004087448120117 0.0853131935000419617
0.371620386838912964 -0.401596128940582275 -0.217267498373985291
-0.449505478143692017 -0.00174095446709543467 0.175169020891189575
0.176721066236495972 0.0725411325693130493 0.00673463707789778709
-0.453188031911849976 0.134078517556190491 -0.213506534695625305
0.403254717588424683 -0.336342304944992065 0.129154607653617859
-0.598542511463165283 0.206792205572128296 0.000958826334681361914
0.247786819934844971 -0.114946074783802032 -0.0706614702939987183
-0.482776165008544922 0.182140424847602844 -0.209904640913009644
-0.375834077596664429 -0.0637857243418693542 0.0917615890502929688
0.523087561130523682 -0.321408838033676147 0.0360893569886684418
0.542562961578369141 -0.21783842146396637 0.108442924916744232
0.52589648962020874 -0.273972064256668091 0.0555177107453346252
0.11139649897813797 0.0835717692971229553 0.317299306392669678
-0.350582987070083618 -0.0485767088830471039 0.0450697243213653564
0.105318032205104828 0.0717110931873321533 0.295540690422058105
-0.164972066879272461 0.132455512881278992 0.151380851864814758
0.502975344657897949 -0.256898969411849976 -0.102233663201332092
0.429082602262496948 -0.304326087236404419 0.136126294732093811
-0.355451494455337524 -0.10211365669965744 0.159107968211174011
0.498839050531387329 -0.202023208141326904 -0.107697561383247375
-0.57805943489074707 0.347489535808563232 0.15224495530128479
0.105338893830776215 -0.0119968028739094734 0.0212627928704023361
-0.3409309983253479 -0.124055296182632446 0.104656107723712921
-0.120516538619995117 -0.276279956102371216 0.174103885889053345
-0.160879701375961304 0.166727542877197266 0.325179189443588257
0.515198588371276855 -0.359045714139938354 0.0270267501473426819
0.521248281002044678 -0.288011699914932251 -0.0114508494734764099
0.479057967662811279 -0.140389367938041687 0.107824936509132385
-0.18050558865070343 0.0287023000419139862 0.0259799249470233917
-0.341645866632461548 -0.122276574373245239 0.103799313306808472
-0.599768519401550293 0.376203835010528564 0.188496634364128113
-0.11953262984752655 -0.267390727996826172 0.218347698450088501
0.523668646812438965 -0.309251844882965088 -0.0745415464043617249
0.516578376293182373 -0.252504140138626099 -0.309245496988296509
0.455231845378875732 -0.308617532253265381 -0.29418414831161499
0.240815043449401855 -0.09643583744764328 0.158775269985198975
-0.619755446910858154 0.271674484014511108 0.0373354591429233551
-0.429590016603469849 -0.00447946041822433472 0.177404910326004028
-0.250053972005844116 -0.137471914291381836 -0.0710065662860870361
0.31749078631401062 -0.319450020790100098 0.122727170586585999
0.539491057395935059 -0.250162392854690552 0.106829844415187836
0.45292392373085022 -0.140175417065620422 0.0156462714076042175
0.429521858692169189 -0.321475565433502197 0.123918570578098297
0.413542628288269043 -0.331206768751144409 -0.209530681371688843
0.473997533321380615 -0.12896399199962616 0.109709605574607849
-0.548511385917663574 0.377994567155838013 0.172701224684715271
0.190770655870437622 -0.340282559394836426 -0.0131587730720639229
-0.201341509819030762 -0.13598044216632843 -0.0683522000908851624
-0.185116320848464966 0.311565369367599487 0.117945827543735504
0.103637330234050751 0.107276380062103271 0.174545928835868835
-0.443936437368392944 -0.0549582391977310181 0.0919459685683250427
-0.488933175802230835 0.0294575504958629608 0.0169813483953475952
0.231566622853279114 0.0105731114745140076 0.315130233764648438
-0.0244399122893810272 0.112667061388492584 0.312503844499588013
0.243462279438972473 -0.0390644930303096771 0.204793989658355713
-0.384368747472763062 0.244759157299995422 0.0344037115573883057
-0.653581321239471436 0.216194227337837219 -0.0390397906303405762
0.483199566602706909 -0.116615727543830872 0.0236689131706953049
0.122487284243106842 0.0790774375200271606 0.138678058981895447
-0.381540000438690186 -0.073224969208240509 0.0957078263163566589
0.319923579692840576 -0.0727428346872329712 0.0626031458377838135
-0.440222382545471191 -0.0122606819495558739 0.00697756418958306313
-0.501677870750427246 0.233140081167221069 -0.0709329918026924133
-0.546746909618377686 0.202900126576423645 -0.0683224126696586609
0.0889185592532157898 0.0912632197141647339 0.0801618620753288269
-0.519381284713745117 0.203994870185852051 -0.0469914861023426056
-0.167914673686027527 0.0718467012047767639 0.232559919357299805
-0.0570133551955223083 -0.187361747026443481 0.0269099101424217224
-0.212056636810302734 0.290251493453979492 0.109199985861778259
0.249913126230239868 -0.00578862987458705902 0.0225434359163045883
-0.555333733558654785 0.203776776790618896 0.118489854037761688
-0.456838846206665039 0.215858623385429382 0.0246665161103010178
-0.462110906839370728 0.265913128852844238 -0.00258413329720497131
-0.574928760528564453 0.247058391571044922 -0.0762344226241111755
-0.3888225257396698 0.274587005376815796 -0.0839755982160568237
0.343908637762069702 -0.13511967658996582 0.318957716226577759
-0.498107552528381348 0.206266343593597412 -0.0114556364715099335
-0.345470577478408813 0.292295396327972412 -0.0499986633658409119
0.526196122169494629 -0.361474961042404175 0.0419255904853343964
-0.53951793909072876 0.214528605341911316 0.201174154877662659
-0.568783044815063477 0.29383048415184021 -0.00295204808935523033
0.316848695278167725 0.0233601592481136322 0.0489624999463558197
0.482310831546783447 -0.307342290878295898 -0.303438097238540649
0.479885339736938477 -0.326734632253646851 0.12551175057888031
0.523442625999450684 -0.307384103536605835 -0.0985294952988624573
0.490665167570114136 -0.311111330986022949 -0.307199358940124512
0.516407549381256104 -0.32545703649520874 0.119974620640277863
0.444837898015975952 -0.30053555965423584 -0.290423870086669922
0.523459196090698242 -0.304934859275817871 -0.0971925780177116394
0.134480267763137817 0.115896321833133698 0.337146639823913574
-0.641921937465667725 0.242049276828765869 -0.00923776347190141678
-0.29223024845123291 -0.11445300281047821 -0.10557246208190918
0.539431750774383545 -0.255898952484130859 0.0923314616084098816
0.129343390464782715 0.0971060618758201599 0.317424863576889038
-0.234858036041259766 -0.144109100103378296 -0.071239955723285675
0.252745568752288818 0.0297048427164554596 -0.0857229679822921753
0.531180143356323242 -0.32354852557182312 0.00698309019207954407
-0.598894834518432617 0.306770831346511841 0.104652658104896545
0.532288610935211182 -0.245069414377212524 0.0866860002279281616
-0.373719662427902222 -0.0614814236760139465 0.0924215391278266907
0.526812851428985596 -0.275690436363220215 -0.123065769672393799
-0.500828206539154053 0.148093238472938538 0.353110939264297485
0.385343462228775024 -0.298074334859848022 0.131969541311264038
0.133010938763618469 -0.332453608512878418 -0.100307457149028778
0.522987186908721924 -0.355272233486175537 -0.0147754037752747536
-0.436010628938674927 0.14993932843208313 -0.0848495140671730042
0.515965402126312256 -0.300522565841674805 0.0648488625884056091
0.393374800682067871 -0.368251770734786987 -0.213480666279792786
0.500710427761077881 -0.171874821186065674 0.13017641007900238
0.533445477485656738 -0.334422826766967773 0.0285371001809835434
-0.57944190502166748 0.34828987717628479 0.0404750742018222809
0.5202597975730896 -0.241261199116706848 -0.308488428592681885
-0.600558578968048096 0.370058029890060425 0.104823239147663116
-0.500330984592437744 0.146464213728904724 0.355315297842025757
0.234077557921409607 -0.278350949287414551 0.317448735237121582
-0.180991217494010925 -0.137600630521774292 -0.0555150359869003296
-0.22802262008190155 -0.138570800423622131 -0.0534106642007827759
-0.203869611024856567 0.297855675220489502 0.126777514815330505
0.26262962818145752 -0.290155649185180664 0.323747187852859497
-0.361945986747741699 -0.0311806779354810715 0.119638793170452118
-0.499717086553573608 0.0187953170388936996 0.0320173054933547974
0.243040412664413452 -0.000348751258570700884 0.322371304035186768
0.141454696655273438 -0.290952414274215698 0.311768978834152222
0.308243930339813232 -0.208008632063865662 0.248287975788116455
-0.385676562786102295 0.25428462028503418 0.0344572886824607849
0.531300008296966553 -0.262690991163253784 0.103056550025939941
0.224273726344108582 0.022295091301202774 0.305530309677124023
0.530871391296386719 -0.147710725665092468 -0.308002978563308716
-0.644429028034210205 0.230841279029846191 -0.0472721457481384277
0.541499674320220947 -0.311335533857345581 -0.0442857444286346436
0.508097410202026367 -0.268084853887557983 -0.311269551515579224
0.514579355716705322 -0.316444188356399536 -0.294867753982543945
0.459129422903060913 -0.291211575269699097 -0.296353191137313843
-0.542628467082977295 0.267653912305831909 -0.189120173454284668
-0.620998263359069824 0.288420319557189941 0.0668449699878692627
0.363746374845504761 -0.384586960077285767 -0.205899685621261597
-0.0921095758676528931 0.266768842935562134 0.189386054873466492
-0.448003679513931274 0.130791544914245605 -0.208613887429237366
-0.574994087219238281 0.20327506959438324 -0.126875266432762146
-0.629643380641937256 0.191186442971229553 -0.0397059395909309387
-0.469306230545043945 0.138446897268295288 -0.230909481644630432
0.257958680391311646 -0.0173881277441978455 -0.0719270780682563782
0.230834364891052246 0.0535453371703624725 -0.0450059957802295685
0.113313011825084686 0.109308019280433655 0.301688909530639648
-0.583647727966308594 0.217921271920204163 -0.221219688653945923
-0.597776710987091064 0.234707966446876526 -0.0105949630960822105
-0.366705209016799927 -0.0923555418848991394 0.122884541749954224
-0.329717665910720825 -0.125975802540779114 0.137325838208198547
-0.634172618389129639 0.199106484651565552 -0.0381210073828697205
-0.425352394580841064 -0.055528201162815094 0.0993039608001708984
-0.4776802659034729 0.0195738654583692551 -0.0364288389682769775
0.20885862410068512 0.00816189683973789215 0.300905972719192505
-0.633749485015869141 0.247576326131820679 -0.00581216719001531601
-0.127658188343048096 0.269424676895141602 0.132281184196472168
0.27123337984085083 -0.33071407675743103 0.180193006992340088
0.533275723457336426 -0.210445746779441833 -0.0986948981881141663
-0.126130819320678711 -0.113141819834709167 -0.0547294504940509796
0.454439342021942139 -0.339188128709793091 -0.297877103090286255
-0.212226748466491699 0.0357455648481845856 -0.0595941692590713501
-0.552776575088500977 0.175243601202964783 0.0129434904083609581
-0.198137208819389343 0.139154151082038879 0.0212088301777839661
-0.01223000418394804 -0.102954655885696411 -0.0428755916655063629
0.264902323484420776 -0.275328278541564941 0.202532798051834106
0.348902374505996704 -0.321448773145675659 9.92973436950705945e-05
-0.155580371618270874 0.0693178698420524597 0.0275997929275035858
-0.248802855610847473 0.130312100052833557 -0.0343575999140739441
0.199418708682060242 0.0013382741017267108 0.0191910527646541595
0.0766934305429458618 0.0805051997303962708 0.0240397714078426361
-0.282987266778945923 0.287809997797012329 -0.00586834736168384552
0.477205097675323486 -0.290098458528518677 -0.301512658596038818
-0.55644071102142334 0.265261262655258179 -0.0170909203588962555
-0.237001389265060425 0.0971544981002807617 -0.0323744416236877441
0.138043418526649475 -0.281295865774154663 0.150120362639427185
0.29658353328704834 -0.297749161720275879 0.057030949741601944
-0.285611122846603394 0.256786555051803589 0.0006226350087672472
-0.0207695923745632172 -0.0408097989857196808 0.0890454649925231934
0.204791128635406494 0.0424265190958976746 0.0658085569739341736
-0.143439725041389465 -0.0856995731592178345 0.091746792197227478
0.372739225625991821 -0.0736754909157752991 0.0316934995353221893
0.521578609943389893 -0.199381425976753235 -0.098384760320186615
0.487349748611450195 -0.298100799322128296 -0.305171430110931396
0.48060840368270874 -0.315193057060241699 0.122408129274845123
0.513821244239807129 -0.307494550943374634 -0.102276638150215149
0.496273666620254517 -0.309734225273132324 -0.309540659189224243
0.506362497806549072 -0.328154265880584717 -0.00401285616680979729
0.511909067630767822 -0.324892759323120117 0.118439026176929474
0.466132998466491699 -0.288998931646347046 -0.296366751194000244
0.438223987817764282 -0.263703376054763794 -0.194129034876823425
0.135287880897521973 0.116544075310230255 0.337062656879425049
0.396647274494171143 -0.24473157525062561 0.318813532590866089
-0.601222455501556396 0.353827804327011108 0.0657159164547920227
-0.504842758178710938 0.356682538986206055 0.178401678800582886
0.542806267738342285 -0.282856732606887817 0.0979981273412704468
0.256687074899673462 0.0366644337773323059 -0.0719260945916175842
-0.232810676097869873 0.155514314770698547 -0.00521908653900027275
0.506352782249450684 -0.332322686910629272 -0.00243580411188304424
0.445034891366958618 -0.250282555818557739 -0.227841407060623169
-0.638770878314971924 0.254047483205795288 0.0547374002635478973
0.532780766487121582 -0.263023704290390015 0.0933180004358291626
-0.392899304628372192 -0.0598567090928554535 0.100482799112796783
0.524118423461914062 -0.28995823860168457 -0.0919764339923858643
0.0282345321029424667 -0.274612516164779663 -0.0352654755115509033
0.385312408208847046 -0.306406497955322266 0.118898279964923859
-0.581920206546783447 0.36635550856590271 0.131867393851280212
0.240404218435287476 0.00260818353854119778 0.1811952143907547
-0.112856104969978333 0.165049538016319275 0.347507894039154053
0.482381075620651245 -0.368693143129348755 -0.021948711946606636
0.412467300891876221 -0.321447551250457764 -0.210866212844848633
0.507436275482177734 -0.155832841992378235 0.124094046652317047
0.529000759124755859 -0.335053116083145142 0.0129136424511671066
-0.583843231201171875 0.335972249507904053 0.034299895167350769
-0.59049457311630249 0.3814583420753479 0.131430074572563171
0.526552438735961914 -0.244620785117149353 -0.310464173555374146
0.474673807621002197 -0.291019946336746216 -0.299263864755630493
-0.596976161003112793 0.353228628635406494 0.169812411069869995
-0.587073981761932373 0.370999187231063843 0.101290330290794373
-0.211834877729415894 -0.130074173212051392 -0.0576347410678863525
0.234407424926757812 -0.293445378541946411 0.31501924991607666
0.238177388906478882 0.0668046995997428894 0.320123940706253052
0.542058229446411133 -0.314171940088272095 -0.0580038949847221375
-0.444499671459197998 -0.0489880926907062531 0.127140924334526062
0.359786450862884521 -0.388665288686752319 -0.208845645189285278
-0.556270182132720947 0.210732534527778625 -0.113454490900039673
0.521041452884674072 -0.279848247766494751 -0.17696911096572876
0.242029115557670593 0.0344417393207550049 0.314602255821228027
0.242974162101745605 0.000196029417566023767 0.0237717106938362122
0.380868107080459595 0.0386702641844749451 0.0120437731966376305
0.52702409029006958 -0.230915948748588562 -0.309969872236251831
0.327205806970596313 0.0960443541407585144 -0.0357528924942016602
-0.373986512422561646 -0.0607893243432044983 -0.132806599140167236
0.513058841228485107 -0.167839467525482178 0.135982275009155273
-0.574222445487976074 0.321566462516784668 0.049656793475151062
-0.558832943439483643 0.282922178506851196 0.364178717136383057
0.224669232964515686 0.0317501462996006012 -0.0580595880746841431
-0.57403409481048584 0.214235544204711914 -0.220857992768287659
-0.0440426990389823914 0.156242847442626953 0.0812653899192810059
0.114328272640705109 0.10980784147977829 0.025546535849571228
0.342942863702774048 -0.247266039252281189 -0.0967493131756782532
-0.284781843423843384 0.300018906593322754 -0.00275080627761781216
0.153526067733764648 -0.00464148074388504028 -0.0034691845066845417
0.0692939236760139465 0.1385621577501297 0.0757363662123680115
-0.269776701927185059 0.279769927263259888 0.00176942197140306234
0.503577888011932373 -0.292901188135147095 -0.159211024641990662
0.137187018990516663 -0.0260898247361183167 0.0132068600505590439
-0.33882555365562439 -0.0325358062982559204 0.0228586923331022263
0.37354809045791626 -0.0920794457197189331 0.0444009825587272644
0.200156942009925842 0.101064100861549377 -0.00169604900293052197
-0.297070175409317017 -0.0255565494298934937 0.0359892323613166809
0.132002964615821838 -0.0180716998875141144 -0.0259897429496049881
0.101602546870708466 0.0157469157129526138 0.0912934467196464539
0.175900012254714966 0.119151085615158081 0.0381382182240486145
-0.230343639850616455 -0.064190790057182312 0.104688026010990143
0.486333250999450684 -0.296963632106781006 -0.303399592638015747
-0.602960646152496338 0.289029419422149658 0.185257062315940857
0.467330038547515869 -0.309070676565170288 0.120166577398777008
0.378427594900131226 -0.0146530531346797943 0.00652642454952001572
0.514569759368896484 -0.295625746250152588 -0.103368319571018219
0.519092738628387451 -0.240009039640426636 -0.307470083236694336
0.478168576955795288 -0.310032904148101807 -0.300154745578765869
0.483635872602462769 -0.274809926748275757 -0.299780577421188354
0.117364004254341125 0.118437714874744415 0.29763522744178772
-0.583923399448394775 0.355890095233917236 0.0659309178590774536
0.3838614821434021 -0.337701767683029175 0.125589519739151001
-0.574181675910949707 0.317248672246932983 -0.0264133419841527939
-0.604163169860839844 0.216697752475738525 -0.0867450088262557983
0.267958909273147583 0.0390707589685916901 -0.0861144140362739563
-0.356154710054397583 -0.0226843468844890594 -0.131094023585319519
-0.563993215560913086 0.313872814178466797 -0.0077791907824575901
0.19085162878036499 -0.34119907021522522 -0.0746947526931762695
0.404400795698165894 -0.357942461967468262 -0.223916560411453247
-0.500079870223999023 0.145047947764396667 0.354659318923950195
0.509740233421325684 -0.15178997814655304 0.11506885290145874
0.497100502252578735 -0.26421654224395752 -0.304264307022094727
0.458216339349746704 -0.281171977519989014 -0.289617061614990234
0.441179335117340088 -0.265250146389007568 -0.283574402332305908
-0.587739408016204834 0.356996148824691772 0.0618472769856452942
0.505342721939086914 -0.127104282379150391 0.124489769339561462
-0.205960765480995178 0.31202283501625061 0.108767978847026825
0.268220782279968262 -0.284466803073883057 0.319207489490509033
0.232642799615859985 0.00318974023684859276 0.317895382642745972
0.513496637344360352 -0.175938069820404053 -0.281625121831893921
-0.11497834324836731 0.00945698563009500504 0.00595079641789197922
0.404132962226867676 -0.359971582889556885 -0.22453974187374115
0.417738586664199829 -0.31363406777381897 0.143841728568077087
-0.5552406907081604 0.375990331172943115 0.186858966946601868
-0.175382375717163086 0.308705717325210571 0.118446305394172668
-0.389417856931686401 0.275558829307556152 -0.0849767699837684631
0.365432828664779663 0.0516040585935115814 0.0247447490692138672
0.129322707653045654 0.115334011614322662 0.31886214017868042
-0.286268144845962524 -0.101125992834568024 -0.0920329391956329346
0.2583484947681427 0.100704677402973175 -0.0618870891630649567
-0.360997796058654785 -0.0603418424725532532 -0.144068241119384766
0.134264826774597168 0.113294191658496857 0.337805867195129395
-0.56280362606048584 0.198888599872589111 -0.228840351104736328
-0.276101261377334595 0.287538617849349976 -0.000866650720126926899
0.455135345458984375 -0.246736526489257812 -0.288161218166351318
0.460480213165283203 -0.275702208280563354 -0.29068419337272644
-0.634612917900085449 0.307669192552566528 0.170478641986846924
0.512679100036621094 -0.317808687686920166 -0.0384766794741153717
0.469187706708908081 -0.266098499298095703 -0.297813296318054199
0.478402048349380493 -0.295322448015213013 -0.30009034276008606
0.45839276909828186 -0.246519967913627625 -0.289732664823532104
0.381365746259689331 -0.361309319734573364 -0.213730722665786743
-0.47920873761177063 -0.013165593147277832 0.185891970992088318
-0.516213059425354004 0.36525997519493103 0.17410983145236969
-0.618249118328094482 0.201589584350585938 -0.0870038121938705444
-0.237024128437042236 0.0183307323604822159 -0.0724932178854942322
-0.382343202829360962 -0.0596156120300292969 0.0237457286566495895
0.475048184394836426 -0.368696898221969604 0.0219139605760574341
-0.648987650871276855 0.236293315887451172 0.0323734581470489502
0.412824898958206177 -0.347038775682449341 -0.221514269709587097
0.526230454444885254 -0.337508738040924072 0.0801495015621185303
0.50628817081451416 -0.239309117197990417 -0.307929068803787231
0.249575763940811157 -0.282653927803039551 0.318260461091995239
0.2393341064453125 0.0662359744310379028 0.314670085906982422
0.539782881736755371 -0.30215868353843689 -0.0935548916459083557
-0.447652548551559448 -0.0419893264770507812 0.126574888825416565
-0.0437008924782276154 0.10403423011302948 0.317785471677780151
0.248076021671295166 0.0206829234957695007 0.322229623794555664
-0.284590750932693481 -0.100255958735942841 -0.0990480110049247742
-0.137490347027778625 -0.0155497882515192032 -0.0487591922283172607
-0.277569949626922607 0.337402552366256714 0.0470354668796062469
-0.254398256540298462 0.289455890655517578 -0.00318282656371593475
-0.21860899031162262 0.32144540548324585 0.069879576563835144
-0.572960078716278076 0.151794597506523132 -0.074343554675579071
-0.289640039205551147 0.292238920927047729 0.0160850062966346741
0.525813162326812744 -0.321007668972015381 0.0272723827511072159
0.346311032772064209 -0.0307448320090770721 -0.0343420468270778656
0.522415220737457275 -0.363276839256286621 0.0894843935966491699
-0.0831034630537033081 -0.112317971885204315 0.0784879103302955627
-0.403695642948150635 0.325535833835601807 0.121259354054927826
0.504953920841217041 -0.367420852184295654 -0.00437951181083917618
-0.118433251976966858 0.265683472156524658 0.12097439169883728
0.518908023834228516 -0.343306571245193481 0.0359419547021389008
0.130304083228111267 -0.335129141807556152 0.301237434148788452
0.466792017221450806 -0.311404764652252197 0.0725565552711486816
0.48304399847984314 -0.3743630051612854 0.0524279884994029999
