ply
format ascii 1.0
element vertex 738
property float x
property float y
property float z
end_header
-0.114949621260166168 0.00951991509646177292 0.00605300348252058029
0.404166847467422485 -0.35989844799041748 -0.224427208304405212
0.417790502309799194 -0.313569813966751099 0.143943548202514648
-0.555240392684936523 0.376032173633575439 0.186940759420394897
-0.175362929701805115 0.308746665716171265 0.11853780597448349
-0.389421850442886353 0.275608748197555542 -0.0848821699619293213
0.365464627742767334 0.0516598969697952271 0.0248690638691186905
0.12937907874584198 0.115378484129905701 0.318957388401031494
-0.286237567663192749 -0.10105624794960022 -0.0919513031840324402
0.258376598358154297 0.100756131112575531 -0.0617614984512329102
-0.360983043909072876 -0.0602639764547348022 -0.143982023000717163
0.134322434663772583 0.113338150084018707 0.337900519371032715
-0.562812983989715576 0.198955446481704712 -0.228742092847824097
-0.276095449924468994 0.287584602832794189 -0.000768124067690223455
0.455158114433288574 -0.24666130542755127 -0.288042336702346802
0.460503369569778442 -0.275626122951507568 -0.290566235780715942
-0.634610295295715332 0.307717591524124146 0.170564234256744385
0.512712776660919189 -0.31774216890335083 -0.0383665934205055237
0.469209820032119751 -0.266022473573684692 -0.29769521951675415
0.478424489498138428 -0.295246005058288574 -0.299973547458648682
0.458415210247039795 -0.246444717049598694 -0.289613783359527588
0.381401866674423218 -0.361236453056335449 -0.213618338108062744
-0.479194581508636475 -0.0131012946367263794 0.185960352420806885
-0.516210496425628662 0.365300923585891724 0.174189254641532898
-0.618253886699676514 0.20164981484413147 -0.0869062021374702454
-0.23700423538684845 0.0183961652219295502 -0.0723977610468864441
-0.3823261559009552 -0.0595448389649391174 0.0238260459154844284
0.475088417530059814 -0.368631184101104736 0.022021368145942688
-0.648989677429199219 0.236349359154701233 0.0324660055339336395
0.412857770919799805 -0.34696584939956665 -0.221401125192642212
0.526270568370819092 -0.337443411350250244 0.0802544131875038147
0.506306767463684082 -0.23923376202583313 -0.307810783386230469
0.249650105834007263 -0.282596081495285034 0.318347066640853882
0.239393234252929688 0.0662846118211746216 0.314770430326461792
0.539812326431274414 -0.302091926336288452 -0.0934445112943649292
-0.44763648509979248 -0.0419220738112926483 0.12664756178855896
-0.0436459444463253021 0.104075603187084198 0.317870676517486572
0.248139485716819763 0.0207334421575069427 0.322328954935073853
-0.284560680389404297 -0.100185655057430267 -0.0989658311009407043
-0.137463092803955078 -0.0154841728508472443 -0.0486579872667789459
-0.277562409639358521 0.337445318698883057 0.047125890851020813
-0.254390895366668701 0.289501935243606567 -0.00308477482758462429
-0.218595981597900391 0.321487635374069214 0.069972500205039978
-0.572963476181030273 0.151856809854507446 -0.074246622622013092
-0.289633810520172119 0.292284756898880005 0.0161796305328607559
0.525849640369415283 -0.320941776037216187 0.0273802261799573898
0.346344828605651855 -0.0306848566979169846 -0.0342183038592338562
0.522456824779510498 -0.363212078809738159 0.0895877331495285034
-0.083060242235660553 -0.112252727150917053 0.0785807892680168152
-0.4036903977394104 0.325578391551971436 0.121339902281761169
0.504990935325622559 -0.367354840040206909 -0.00427200691774487495
-0.118409469723701477 0.265726298093795776 0.121070586144924164
0.518945991992950439 -0.343240886926651001 0.036048591136932373
0.130378067493438721 -0.335073173046112061 0.301316559314727783
0.466834217309951782 -0.311338663101196289 0.0726640969514846802
0.483085811138153076 -0.37429770827293396 0.0525332018733024597
0.421296834945678711 -0.0262571796774864197 0.0650986135005950928
0.494386792182922363 -0.363811731338500977 -0.0153165673837065697
-0.232657209038734436 0.28674238920211792 0.0842527598142623901
0.53145289421081543 -0.332034319639205933 -0.00701474817469716072
-0.271656453609466553 0.314967572689056396 0.114063218235969543
0.308476835489273071 0.00237782998010516167 0.0465311147272586823
0.467691540718078613 -0.263630777597427368 -0.295766890048980713
0.474020808935165405 -0.304623246192932129 0.114427082240581512
0.511423707008361816 -0.313891351222991943 -0.10415329784154892
0.509455502033233643 -0.245583131909370422 -0.308130830526351929
0.448222905397415161 -0.292730152606964111 -0.292458772659301758
0.466657906770706177 -0.283491551876068115 -0.296972602605819702
0.138554736971855164 0.112458430230617523 0.336842060089111328
-0.651838421821594238 0.285318195819854736 0.0982546806335449219
-0.638007283210754395 0.244446203112602234 -0.0379356406629085541
0.136522725224494934 0.0689336135983467102 0.337961703538894653
-0.576784014701843262 0.303429692983627319 -0.055306512862443924
0.262765109539031982 0.0302988048642873764 -0.0732056125998497009
0.54215395450592041 -0.217004552483558655 0.111749365925788879
-0.359774768352508545 -0.0362517386674880981 -0.134185954928398132
-0.574429214000701904 0.327106297016143799 -0.0293245892971754074
-0.361496120691299438 -0.0714599937200546265 -0.0338755473494529724
-0.130368947982788086 -0.26811516284942627 0.119132362306118011
0.495353966951370239 -0.36611059308052063 -0.000155843154061585665
0.374091953039169312 -0.359635323286056519 -0.209785863757133484
-0.378141850233078003 -0.107492074370384216 0.101379811763763428
-0.0669984444975852966 -0.264556586742401123 0.296482294797897339
0.520135343074798584 -0.243537098169326782 -0.30915185809135437
0.509679973125457764 -0.330844193696975708 0.0154795683920383453
-0.593066096305847168 0.368577361106872559 0.120780721306800842
-0.655060350894927979 0.175306707620620728 -0.102725803852081299
-0.222749680280685425 -0.144648849964141846 -0.0536315180361270905
-0.190934330224990845 0.316254526376724243 0.100819259881973267
0.256753265857696533 -0.283885180950164795 0.319782495498657227
0.239353761076927185 0.031919918954372406 0.319236099720001221
-0.119837291538715363 -0.046522773802280426 0.00742934830486774445
-0.641276895999908447 0.308248400688171387 0.102093368768692017
0.364979743957519531 -0.374183058738708496 -0.206702113151550293
0.537932097911834717 -0.218039587140083313 0.162016704678535461
-0.552457630634307861 0.382041871547698975 0.158135652542114258
-0.122192412614822388 0.258942127227783203 0.115205757319927216
0.1197199746966362 0.102190352976322174 0.089606940746307373
-0.375092655420303345 0.26545599102973938 -0.0894201993942260742
0.5170859694480896 -0.349362224340438843 0.0989517867565155029
-0.293236643075942993 -0.107654929161071777 -0.109198875725269318
0.275286108255386353 0.102814078330993652 -0.0573980994522571564
-0.574777603149414062 0.219207704067230225 -0.212354004383087158
-0.115246713161468506 0.268214046955108643 0.179857492446899414
0.236107021570205688 -0.288371562957763672 0.314464926719665527
0.310305237770080566 -0.187673881649971008 0.241150990128517151
0.541986346244812012 -0.326115697622299194 -0.0207098685204982758
0.0790648311376571655 -0.338191628456115723 0.282254815101623535
-0.00615751789882779121 -0.172269091010093689 0.00436182413250207901
-0.281926780939102173 0.261339366436004639 0.00715437205508351326
0.513388395309448242 -0.237305611371994019 -0.309145957231521606
-0.646637678146362305 0.277874559164047241 0.0797776579856872559
-0.645992875099182129 0.182815685868263245 -0.0905798673629760742
0.514313161373138428 -0.322804391384124756 0.0244876760989427567
-0.406697332859039307 -0.0641893818974494934 0.113599210977554321
0.51704859733581543 -0.355988532304763794 -0.020412106066942215
-0.566271841526031494 0.373918443918228149 0.152651622891426086
0.236114069819450378 0.0427350476384162903 0.313785463571548462
-0.664511620998382568 0.226750209927558899 0.0233562886714935303
-0.447844415903091431 -0.0390234105288982391 0.12715679407119751
0.503249406814575195 -0.302511155605316162 -0.178620681166648865
-0.588806390762329102 0.360644906759262085 0.0862969681620597839
-0.193777367472648621 0.314526349306106567 0.104934245347976685
0.247123569250106812 0.0236371885985136032 0.323922544717788696
0.531143069267272949 -0.324070662260055542 -0.0578630343079566956
-0.182534396648406982 0.306626439094543457 0.128537818789482117
0.247365757822990417 0.00670797377824783325 0.324052006006240845
0.0588655993342399597 0.139309927821159363 0.345770955085754395
-0.505484700202941895 0.148896560072898865 0.356928378343582153
0.27080923318862915 -0.311632663011550903 0.32632911205291748
-0.253435671329498291 0.0231282655149698257 -0.0706127509474754333
0.241153299808502197 -0.295684874057769775 0.322567075490951538
0.249164894223213196 0.0435253530740737915 0.314517289400100708
0.468574285507202148 -0.102178342640399933 0.0348299629986286163
-0.124462708830833435 0.194738179445266724 0.115476667881011963
0.240046024322509766 -0.327009409666061401 0.318020045757293701
0.50044560432434082 -0.366903007030487061 0.0748351216316223145
0.523643374443054199 -0.325009584426879883 0.0264041796326637268
0.444739639759063721 -0.253615617752075195 0.332456499338150024
0.321744143962860107 -0.131655633449554443 -0.106436580419540405
0.0635223761200904846 -0.0111412201076745987 0.321722179651260376
0.511505305767059326 -0.361196160316467285 0.0477019511163234711
0.13593021035194397 -0.101003065705299377 0.0406584963202476501
0.0498245358467102051 0.0112335318699479103 0.0298484154045581818
0.0210895165801048279 0.0479136593639850616 0.0427061207592487335
0.0882837399840354919 -0.0664587095379829407 0.289666205644607544
-0.161923050880432129 -0.266221523284912109 0.148012116551399231
0.26519697904586792 -0.0204068608582019806 0.0617170520126819611
-0.0287553593516349792 -0.0294629242271184921 0.295564651489257812
0.502457678318023682 -0.240550801157951355 -0.301730096340179443
0.476230829954147339 -0.315190672874450684 -0.301674425601959229
-0.630589723587036133 0.305867105722427368 0.167548015713691711
0.475662916898727417 -0.321145027875900269 0.121187210083007812
0.509333252906799316 -0.301114022731781006 -0.105314150452613831
0.528506815433502197 -0.275137841701507568 -0.316913843154907227
0.493846476078033447 -0.332663595676422119 -0.310428649187088013
0.503712356090545654 -0.320457905530929565 0.0981876328587532043
0.47447541356086731 -0.306021809577941895 -0.297825783491134644
-0.559058427810668945 0.267615258693695068 0.364579468965530396
0.125245630741119385 0.116509035229682922 0.31425851583480835
-0.633220851421356201 0.281846046447753906 0.0545125491917133331
-0.586996793746948242 0.362394720315933228 0.102628037333488464
0.37181931734085083 -0.37433391809463501 -0.212476834654808044
0.438653081655502319 -0.348337113857269287 0.154502406716346741
0.0583566054701805115 0.120935693383216858 0.321154385805130005
-0.5742340087890625 0.36838182806968689 0.215681657195091248
0.26501929759979248 0.0244016945362091064 -0.0584144778549671173
0.36899489164352417 -0.337163358926773071 0.160775035619735718
0.510777771472930908 -0.301832824945449829 -0.111761294305324554
0.133948847651481628 -0.321003943681716919 -0.0976253300905227661
0.516826033592224121 -0.34911230206489563 -0.0200688187032938004
0.389606267213821411 -0.347055524587631226 -0.213833615183830261
-0.576649665832519531 0.318679988384246826 0.0410087220370769501
0.536323785781860352 -0.278109997510910034 -0.320318758487701416
0.468188345432281494 -0.3111591637134552 -0.298962920904159546
0.507436871528625488 -0.347459703683853149 0.0181424282491207123
-0.555551886558532715 0.309301167726516724 0.102437861263751984
0.194206058979034424 -0.339752346277236938 -0.0590024329721927643
0.0704438537359237671 -0.282670497894287109 -0.0777719169855117798
0.252626866102218628 -0.250736355781555176 0.320244431495666504
0.240148529410362244 0.0305626243352890015 0.317014724016189575
-0.120699010789394379 -0.0483227260410785675 0.00828275550156831741
0.17907656729221344 -0.100520506501197815 -0.014621892012655735
0.532716095447540283 -0.332639694213867188 -0.0129522457718849182
0.370680809020996094 -0.349784016609191895 -0.208616971969604492
0.535185575485229492 -0.246212348341941833 0.177423745393753052
0.56145709753036499 -0.316075563430786133 -0.330656439065933228
0.554766297340393066 -0.212075412273406982 0.134092822670936584
-0.542921721935272217 0.380338996648788452 0.164666399359703064
0.123211748898029327 0.116839691996574402 0.133263170719146729
-0.581878066062927246 0.351514250040054321 0.0980171263217926025
-0.48118707537651062 0.185509979724884033 -0.0913218855857849121
0.515885829925537109 -0.339537978172302246 0.0390410684049129486
0.25363314151763916 -0.2796611487865448 0.322065442800521851
0.278852224349975586 -0.356323003768920898 -0.125838547945022583
0.508233547210693359 -0.286919772624969482 -0.313384801149368286
-0.431831926107406616 -0.057866755872964859 0.116831503808498383
0.202269598841667175 0.0901324748992919922 0.223494186997413635
0.244636282324790955 0.104302719235420227 -0.0569756515324115753
-0.195428252220153809 0.201037943363189697 0.349304080009460449
0.250705540180206299 0.0245260223746299744 0.323448091745376587
0.240064382553100586 0.0186133440583944321 0.321136772632598877
-0.0311639662832021713 0.162246003746986389 0.382677376270294189
-0.482192754745483398 -0.016308128833770752 0.180318325757980347
0.484085410833358765 -0.369463533163070679 0.0462890826165676117
-0.643159568309783936 0.286687523126602173 0.0864914432168006897
0.276281684637069702 -0.166161760687828064 -0.0702644214034080505
-0.411487221717834473 -0.0575299523770809174 0.0790497362613677979
-0.642653167247772217 0.175273746252059937 -0.0816750675439834595
-0.225588008761405945 -0.134541630744934082 -0.052089102566242218
0.255137115716934204 -0.266070753335952759 0.321227401494979858
-0.344952762126922607 0.0167526639997959137 -0.116734705865383148
-0.286752611398696899 -0.0921609029173851013 -0.106365896761417389
-0.584678053855895996 0.209420755505561829 -0.217656344175338745
0.267796039581298828 -0.297528684139251709 0.315310776233673096
-0.0252462644129991531 -0.187816411256790161 -0.0433306694030761719
-0.617697000503540039 0.276487946510314941 0.0316922888159751892
-0.608482122421264648 0.297792553901672363 0.0927403047680854797
-0.397242575883865356 -0.0635421723127365112 0.119015626609325409
-0.45137864351272583 -0.0388512499630451202 0.119643941521644592
0.431318223476409912 -0.272249072790145874 0.329332917928695679
-0.0520620010793209076 0.140350252389907837 0.091858595609664917
-0.50275033712387085 0.150520771741867065 0.355542778968811035
0.241005450487136841 -0.319833159446716309 0.322917073965072632
0.497462004423141479 -0.37128797173500061 0.0576025843620300293
0.399512529373168945 -0.257371574640274048 0.322609543800354004
-0.158091336488723755 -0.264211326837539673 0.181637272238731384
-0.498853534460067749 0.0133644118905067444 0.15826098620891571
0.417798548936843872 -0.297881990671157837 0.328882545232772827
0.535642743110656738 -0.340630441904067993 -0.0181813295930624008
0.344647705554962158 -0.267800778150558472 -0.127580240368843079
-0.496161103248596191 0.0713321641087532043 0.204144537448883057
0.44386059045791626 -0.272692561149597168 0.333559274673461914
0.522366344928741455 -0.33585020899772644 0.0330445952713489532
0.453753620386123657 -0.320296287536621094 -0.292706519365310669
0.474542766809463501 -0.312154144048690796 0.116928264498710632
0.517611503601074219 -0.278808116912841797 -0.312497347593307495
0.503055989742279053 -0.326347589492797852 -0.313995152711868286
0.518435895442962646 -0.327586144208908081 0.102147117257118225
0.479707390069961548 -0.311825722455978394 -0.301844567060470581
0.114854186773300171 0.118113189935684204 0.2891215980052948
-0.121555186808109283 0.268158018589019775 0.158883944153785706
-0.614452660083770752 0.264953315258026123 0.0523830950260162354
-0.47906908392906189 0.00235510594211518764 0.181490659713745117
0.426989078521728516 -0.355532467365264893 0.158781856298446655
-0.29193452000617981 -0.1112404465675354 -0.10562509298324585
0.130777016282081604 0.0650106817483901978 0.321328938007354736
0.254093319177627563 0.0383301191031932831 -0.0775211602449417114
0.235861033201217651 0.0935215875506401062 -0.0528052859008312225
0.418060243129730225 -0.261953562498092651 -0.202039077877998352
0.522038102149963379 -0.35511288046836853 -0.0191956833004951477
-0.608530759811401367 0.380571424961090088 0.181478649377822876
0.517963171005249023 -0.279708802700042725 -0.314419746398925781
0.499458730220794678 -0.350472062826156616 0.0243340656161308289
-0.587482690811157227 0.368766069412231445 0.113307677209377289
0.506267547607421875 -0.105161197483539581 0.147500887513160706
-0.197640374302864075 0.311056852340698242 0.113047629594802856
0.264243096113204956 -0.287115871906280518 0.319897204637527466
0.237191438674926758 0.0616802535951137543 0.310680955648422241
-0.144138813018798828 -0.0440727844834327698 0.004346486646682024
-0.657407462596893311 0.214174315333366394 -0.0458442308008670807
-0.288226485252380371 -0.0766175016760826111 -0.0684651359915733337
0.227613344788551331 0.0417889133095741272 -0.0478925257921218872
0.551839947700500488 -0.144934564828872681 0.132247865200042725
0.520084500312805176 -0.295839697122573853 0.0751273557543754578
0.517956733703613281 -0.284483790397644043 -0.180885002017021179
-0.357706189155578613 -0.0177591368556022644 -0.0277833081781864166
0.0918370485305786133 0.0877543613314628601 0.0859579816460609436
0.466990470886230469 -0.362364321947097778 -0.0104011446237564087
-0.432540923357009888 0.157160520553588867 -0.0662623494863510132
0.524121642112731934 -0.336128532886505127 0.0691340714693069458
0.263103365898132324 -0.28648492693901062 0.318620473146438599
0.00971309654414653778 -0.0915074124932289124 -0.0259409863501787186
0.032876528799533844 -0.130926176905632019 0.0220217574387788773
-0.630360603332519531 0.264475315809249878 0.0293603576719760895
0.242394566535949707 0.0738535374402999878 0.318949192762374878
0.240455076098442078 0.0290868189185857773 0.31902727484703064
-0.17443414032459259 0.300343245267868042 0.116425782442092896
0.304842859506607056 -0.151818379759788513 0.307930201292037964
0.262136578559875488 -0.29128718376159668 0.321105152368545532
-0.47589913010597229 -0.00890046264976263046 0.166375771164894104
0.243033647537231445 0.0812946483492851257 0.312310278415679932
0.5205422043800354 -0.35178801417350769 0.082165934145450592
-0.0346443802118301392 -0.2382393479347229 0.124180413782596588
-0.637976706027984619 0.289464086294174194 0.0991094261407852173
-0.233901768922805786 -0.133516192436218262 -0.0578733980655670166
-0.378992050886154175 -0.109569832682609558 0.10564875602722168
-0.236114457249641418 -0.148545190691947937 -0.0577236227691173553
-0.657621562480926514 0.213865295052528381 -0.0335521288216114044
0.529182791709899902 -0.353120177984237671 0.0781084746122360229
-0.620810031890869141 0.269731283187866211 0.0527825690805912018
-0.403860211372375488 -0.0650858506560325623 0.112192906439304352
-0.446039974689483643 -0.0422401241958141327 0.122145473957061768
0.268204659223556519 -0.2861766517162323 0.323581010103225708
0.127791374921798706 -0.327231287956237793 0.312645107507705688
0.152450263500213623 -0.343712925910949707 0.317926555871963501
0.448085546493530273 -0.336059480905532837 -0.29268038272857666
0.516080379486083984 -0.303412854671478271 -0.107683606445789337
0.515584170818328857 -0.280680030584335327 -0.312515527009963989
0.485222756862640381 -0.328112751245498657 -0.309475809335708618
0.464701831340789795 -0.346325039863586426 -0.302350342273712158
0.549939274787902832 -0.210633367300033569 -0.315664738416671753
0.524453461170196533 -0.300472408533096313 -0.32216799259185791
0.518318414688110352 -0.301282912492752075 -0.318063735961914062
0.247111037373542786 0.0565702952444553375 0.3165435791015625
0.241603568196296692 0.0870491191744804382 0.312877297401428223
-0.291380316019058228 -0.101245306432247162 -0.101758845150470734
-0.453297585248947144 -0.0527242384850978851 0.117242582142353058
0.404983073472976685 -0.272793769836425781 0.322654813528060913
-0.502121627330780029 0.00305040390230715275 0.189293637871742249
0.401273995637893677 -0.287775039672851562 0.324970394372940063
0.399422615766525269 -0.274090439081192017 0.323449760675430298
0.342511028051376343 -0.259446382522583008 0.0903131589293479919
-0.0185491684824228287 -0.245027422904968262 0.128753513097763062
-0.46422162652015686 0.0352698192000389099 0.18969939649105072
-0.194075495004653931 0.221036747097969055 0.172143846750259399
0.367149591445922852 -0.329735904932022095 -0.0232664793729782104
0.323755085468292236 -0.390558212995529175 -0.158609315752983093
0.535736560821533203 -0.324078828096389771 -0.0579650476574897766
-0.441481143236160278 -0.00545512232929468155 0.152848809957504272
-0.0188563279807567596 -0.0600898191332817078 0.141848295927047729
1.83147913048742339e-05 -0.236745178699493408 0.10648529976606369
0.526510000228881836 -0.202211722731590271 -0.0797618702054023743
0.450139403343200684 -0.308736890554428101 -0.292563319206237793
0.527178585529327393 -0.275840401649475098 -0.315368711948394775
0.50025099515914917 -0.325296938419342041 -0.312364667654037476
0.475554674863815308 -0.305451273918151855 -0.297078251838684082
-0.127118900418281555 0.24611981213092804 0.13907971978187561
-0.648681044578552246 0.281493693590164185 0.0945092365145683289
-0.198703601956367493 0.286106079816818237 0.33591461181640625
0.498250693082809448 -0.0871657505631446838 0.13687741756439209
0.201072171330451965 -0.359666198492050171 -0.0906139612197875977
0.505713462829589844 -0.36813691258430481 -0.0224503073841333389
0.527504324913024902 -0.243156477808952332 0.173130214214324951
-0.585645616054534912 0.378786325454711914 0.170862987637519836
0.445357054471969604 -0.315332144498825073 -0.287439852952957153
0.498830556869506836 -0.111527495086193085 0.112396374344825745
-0.655439078807830811 0.1749906986951828 -0.103423044085502625
-0.201607257127761841 0.308257400989532471 0.0892754718661308289
0.20154242217540741 -0.0140912095084786415 0.295385390520095825
0.160357430577278137 -0.0625866204500198364 -0.0438385903835296631
-0.579287230968475342 0.301672011613845825 0.368796020746231079
0.275377839803695679 0.0980397537350654602 -0.0288368165493011475
-0.434908360242843628 0.154869034886360168 -0.0857788920402526855
0.534736871719360352 -0.333502233028411865 0.0129829011857509613
-0.568393111228942871 0.196871444582939148 -0.228749543428421021
-0.497298061847686768 0.0444239601492881775 -0.0865954160690307617
0.0317384414374828339 -0.104523934423923492 0.0331772156059741974
0.534430265426635742 -0.26487809419631958 -0.316014409065246582
0.01015471201390028 0.197245344519615173 0.0277849826961755753
0.30248221755027771 0.0385541021823883057 -0.0841776579618453979
-0.331796884536743164 -0.0165736600756645203 -0.107506565749645233
0.236724257469177246 0.0139679219573736191 0.321940004825592041
0.125309258699417114 0.0124808875843882561 0.299058258533477783
0.527804315090179443 -0.355635762214660645 0.0665594339370727539
0.467429250478744507 -0.310235798358917236 -0.232819736003875732
-0.651662707328796387 0.284832924604415894 0.104613132774829865
0.546845495700836182 -0.220426440238952637 0.163691699504852295
0.528341054916381836 -0.323818087577819824 -0.0157957952469587326
-0.382665365934371948 -0.0570645816624164581 0.0763765498995780945
0.457259863615036011 -0.311219483613967896 -0.292260617017745972
0.505330383777618408 -0.340223073959350586 -0.317601710557937622
0.479175925254821777 -0.314702481031417847 -0.299204170703887939
0.520725607872009277 -0.30168837308883667 -0.317028701305389404
-0.00192009203601628542 -0.140513151884078979 -0.0246314723044633865
0.397756397724151611 -0.273648738861083984 0.323624670505523682
0.401427358388900757 -0.272074967622756958 0.323929697275161743
0.506378412246704102 -0.332445293664932251 0.106074854731559753
-0.467210859060287476 0.0418134555220603943 0.170820936560630798
0.410321325063705444 -0.346351921558380127 0.156801924109458923
-0.360384523868560791 -0.0358565151691436768 -0.147884875535964966
-0.127899631857872009 -0.268352121114730835 0.112497374415397644
0.512930154800415039 -0.369477540254592896 -0.0143976388499140739
-0.213233709335327148 0.312052309513092041 0.0978020504117012024
0.250803470611572266 -0.287631601095199585 0.323039650917053223
0.209324374794960022 0.00906435027718544006 -0.04583711177110672
0.0703447461128234863 -0.152007967233657837 -0.0170388128608465195
-0.169275403022766113 0.304298132658004761 0.118989333510398865
0.471437960863113403 -0.364786356687545776 0.00731894373893737793
-0.29049980640411377 -0.100034743547439575 -0.103015713393688202
0.0368412807583808899 -0.150183692574501038 -0.0215095151215791702
0.232487097382545471 0.0557944662868976593 0.309363603591918945
0.253610938787460327 -0.289192318916320801 0.32082289457321167
-0.471314400434494019 0.000493582978378981352 0.168837055563926697
0.241305753588676453 0.0622545070946216583 0.313265085220336914
0.509282410144805908 -0.352475911378860474 0.0642124190926551819
0.227635905146598816 -0.315350323915481567 0.314720243215560913
-0.374976605176925659 -0.093826785683631897 0.0863319411873817444
-0.0624870285391807556 -0.242270573973655701 0.302597314119338989
-0.22225247323513031 -0.128251150250434875 -0.0529331043362617493
-0.409471392631530762 -0.0660978779196739197 0.0986918061971664429
-0.444588065147399902 -0.0453654453158378601 0.13291478157043457
0.239197880029678345 -0.294579744338989258 0.314595699310302734
0.154121652245521545 -0.324914991855621338 0.32023853063583374
0.425566732883453369 -0.256554663181304932 0.328774303197860718
0.438640832901000977 -0.343287020921707153 -0.292333990335464478
0.506748616695404053 -0.334923982620239258 -0.317746788263320923
0.445489883422851562 -0.352637380361557007 -0.286391615867614746
0.238573223352432251 0.0653179362416267395 0.312543869018554688
0.403501391410827637 -0.288003444671630859 0.326094388961791992
-0.494340747594833374 0.00608045235276222229 0.18857322633266449
0.486100941896438599 -0.0635908320546150208 0.132013797760009766
0.0129528287798166275 -0.171252995729446411 0.0100363092496991158
0.531934142112731934 -0.308006942272186279 -0.0619283728301525116
0.315218210220336914 -0.302647650241851807 -0.126521170139312744
0.446320772171020508 -0.291665196418762207 -0.285298764705657959
-0.336373001337051392 0.224151313304901123 0.12588094174861908
-0.400352060794830322 -0.0287671666592359543 -0.00169325573369860649
0.403413206338882446 -0.272217512130737305 0.32431301474571228
-0.132779613137245178 0.195302605628967285 0.167898386716842651
0.399462521076202393 -0.272154957056045532 0.324126243591308594
-0.446015805006027222 -0.0255457572638988495 0.0216439124196767807
-0.137453138828277588 0.244367420673370361 0.191836372017860413
-0.612232089042663574 0.293529510498046875 0.18400178849697113
0.124958202242851257 0.115640342235565186 0.316846698522567749
-0.120378889143466949 0.250120192766189575 0.16199001669883728
-0.58269953727722168 0.347689419984817505 0.058452557772397995
0.427231699228286743 -0.348522216081619263 0.153288111090660095
-0.566109836101531982 0.294643282890319824 -0.0686273053288459778
0.252352982759475708 0.0264557655900716782 -0.0792492404580116272
0.248154953122138977 0.10014650970697403 -0.0480209589004516602
-0.356865078210830688 -0.056215725839138031 -0.141628101468086243
0.199209645390510559 0.119933530688285828 0.0360489450395107269
0.545970320701599121 -0.131863817572593689 0.112258031964302063
-0.581003546714782715 0.321327388286590576 -0.0224948190152645111
0.206608712673187256 0.0243102610111236572 0.177073091268539429
-0.594736278057098389 0.374663501977920532 0.172279059886932373
0.445210784673690796 -0.319595992565155029 0.127630546689033508
0.255415767431259155 -0.279155433177947998 0.31666874885559082
0.235945835709571838 0.023408643901348114 0.316787749528884888
-0.362328439950942993 -0.0502772070467472076 -0.0235618911683559418
-0.182054013013839722 0.117703735828399658 0.0425230637192726135
0.255128532648086548 -0.288595974445343018 0.319484323263168335
0.242381900548934937 0.0327879562973976135 0.322053760290145874
0.400278985500335693 0.0230893213301897049 0.115478947758674622
-0.339903265237808228 -0.0665670186281204224 -0.147077605128288269
0.0761118531227111816 -0.333441764116287231 0.299085557460784912
-0.386195898056030273 -0.0613224692642688751 0.0940034538507461548
-0.447618365287780762 -0.0418379120528697968 0.127927601337432861
0.439712196588516235 -0.279680073261260986 0.333846181631088257
0.0349987000226974487 -0.123225972056388855 -0.0254095606505870819
0.414677470922470093 -0.281136184930801392 0.327192366123199463
0.433386147022247314 -0.296430885791778564 0.333350330591201782
0.368410319089889526 -0.278926670551300049 -0.129972100257873535
-0.476776421070098877 0.000897335703484714031 0.188496753573417664
-0.290912449359893799 -0.0967420414090156555 -0.10434519499540329
0.241752579808235168 -0.313369095325469971 0.309844791889190674
0.473665148019790649 -0.354507803916931152 0.00732499966397881508
-0.295745849609375 -0.0969892293214797974 -0.106792174279689789
0.245104387402534485 -0.288948297500610352 0.320234119892120361
0.062647499144077301 -0.330149918794631958 0.297166377305984497
0.158544346690177917 -0.268044143915176392 -0.105296596884727478
0.250600427389144897 0.0630676671862602234 0.31569322943687439
-0.481917381286621094 -0.00842412374913692474 0.17813795804977417
0.236743956804275513 0.0662330538034439087 0.315044194459915161
0.239085957407951355 -0.332179456949234009 0.321570098400115967
-0.38164857029914856 -0.0924764946103096008 0.036920156329870224
-0.215519934892654419 -0.140487417578697205 -0.054169725626707077
-0.382097244262695312 -0.0641283690929412842 0.0837205648422241211
0.150325238704681396 -0.332029044628143311 0.332023590803146362
0.446233361959457397 -0.280210912227630615 0.33376958966255188
0.407789319753646851 -0.280848532915115356 0.325305551290512085
-0.501431524753570557 0.0060655493289232254 0.188892394304275513
-0.321244984865188599 0.0968260839581489563 -0.0700268596410751343
0.533009052276611328 -0.207753732800483704 -0.0523485764861106873
0.451513618230819702 -0.294103682041168213 -0.290186196565628052
0.487982839345932007 -0.325464606285095215 -0.310606002807617188
0.44696161150932312 -0.309951752424240112 -0.290553033351898193
-0.577143847942352295 0.268672168254852295 0.36598968505859375
-0.460747092962265015 0.105425253510475159 -0.230684354901313782
0.375270992517471313 -0.319024562835693359 0.199295088648796082
-0.589097678661346436 0.366427361965179443 0.131518349051475525
0.393109768629074097 -0.353676736354827881 -0.217203795909881592
0.441658586263656616 -0.310494273900985718 -0.288763046264648438
-0.199992239475250244 0.304983675479888916 0.0951322168111801147
-0.154870957136154175 0.267478644847869873 0.151803314685821533
0.530283093452453613 -0.338760912418365479 0.0720484405755996704
0.464353501796722412 -0.266359627246856689 -0.217386052012443542
-0.632843434810638428 0.275226742029190063 0.107349619269371033
0.438979923725128174 -0.308786273002624512 -0.286934226751327515
0.516026556491851807 -0.277422547340393066 -0.31656607985496521
0.517153561115264893 -0.340580224990844727 -0.320484012365341187
0.454922646284103394 -0.307266414165496826 -0.292987167835235596
0.491363406181335449 -0.322243928909301758 0.0946094468235969543
0.0211557615548372269 -0.276217848062515259 -0.0184045750647783279
-0.653371870517730713 0.171526327729225159 -0.107708148658275604
-0.224034681916236877 0.318064719438552856 0.121511541306972504
0.465835601091384888 -0.364392071962356567 0.00615694466978311539
0.481549948453903198 -0.337119370698928833 0.050511438399553299
0.512055635452270508 -0.339638799428939819 -0.319142609834671021
0.440752357244491577 -0.356787979602813721 -0.2973441481590271
-0.269321143627166748 0.321537822484970093 0.0420814640820026398
0.424703121185302734 -0.313508838415145874 -0.28163030743598938
0.415877372026443481 -0.295593082904815674 0.328639030456542969
-0.325527220964431763 -0.0759407132863998413 0.123631902039051056
-0.3663158118724823 -0.0672734677791595459 0.154840379953384399
-0.337630361318588257 0.214313998818397522 0.133014678955078125
0.0106496764346957207 0.119017042219638824 0.105351120233535767
0.542535006999969482 -0.309482663869857788 -0.0459664799273014069
0.0141628030687570572 -0.262221872806549072 0.03966546431183815
-0.00304245017468929291 -0.237018793821334839 0.0943993180990219116
0.000725051213521510363 -0.220047593116760254 0.081665433943271637
0.465411782264709473 -0.361255466938018799 0.0305484719574451447
-0.268874377012252808 -0.138573244214057922 0.177619144320487976
-0.344518125057220459 -0.0664392411708831787 0.141428902745246887
0.123934119939804077 -0.277102231979370117 0.129130452871322632
-0.13327324390411377 0.0783539265394210815 0.0904744789004325867
0.463956058025360107 -0.0546537898480892181 0.0178576260805130005
-0.0136101627722382545 -0.217365801334381104 0.0805047750473022461
-0.554070532321929932 0.391120702028274536 0.148007705807685852
0.497105330228805542 -0.36712270975112915 0.00548277562484145164
-0.61006087064743042 0.293526291847229004 0.186803162097930908
0.530559778213500977 -0.275490224361419678 -0.317404955625534058
0.370782285928726196 -0.26497805118560791 0.181717723608016968
0.420786470174789429 -0.344837784767150879 0.151055112481117249
0.252491801977157593 0.0389530472457408905 -0.0663828104734420776
0.549870550632476807 -0.150266483426094055 0.124437592923641205
-0.569844961166381836 0.283606827259063721 -0.00598579039797186852
0.501377224922180176 -0.362973242998123169 -0.00104809959884732962
0.208742901682853699 0.115410260856151581 -0.0101757589727640152
-0.288575798273086548 -0.0861283540725708008 -0.0661942511796951294
0.159735396504402161 -0.0835597813129425049 -0.0359296947717666626
-0.339396625757217407 -0.106017671525478363 0.141462355852127075
0.51156693696975708 -0.281650543212890625 -0.312919110059738159
-0.338680684566497803 -0.0801743790507316589 0.0388155803084373474
-0.368653625249862671 0.280281871557235718 -0.0623036399483680725
0.51030498743057251 -0.341328263282775879 0.0653361156582832336
0.302659928798675537 -0.206319734454154968 0.248066499829292297
0.54327923059463501 -0.312366187572479248 -0.0605122670531272888
0.141939669847488403 0.0690801069140434265 0.336500167846679688
-0.594194233417510986 0.267066329717636108 0.01255792286247015
0.222372651100158691 -0.00748701207339763641 0.29572710394859314
0.231230944395065308 0.0339429527521133423 0.312921911478042603
0.53397679328918457 -0.319983989000320435 -0.0125657804310321808
-0.388733148574829102 -0.0645377039909362793 0.105965286493301392
-0.446960866451263428 -0.0406895466148853302 0.126779496669769287
0.496351748704910278 -0.0916814282536506653 0.154663950204849243
0.251267135143280029 0.0627446547150611877 0.316811054944992065
-0.290873706340789795 -0.0933133512735366821 0.307831436395645142
-0.365972936153411865 -0.115324489772319794 0.104244604706764221
-0.562747597694396973 0.126847103238105774 -0.078054673969745636
-0.500893354415893555 0.0229170043021440506 0.186940878629684448
0.51862645149230957 -0.297677040100097656 -0.313757956027984619
0.473086178302764893 -0.328575730323791504 -0.299609720706939697
-0.573676347732543945 0.268337607383728027 0.362915098667144775
-0.570513665676116943 0.35440334677696228 0.167344033718109131
-0.191076159477233887 0.304237008094787598 0.10148938000202179
-0.661405801773071289 0.239324703812599182 0.0420572459697723389
-0.504326403141021729 0.143862918019294739 0.353531837463378906
0.507639825344085693 -0.347507327795028687 -0.318039119243621826
-0.199904486536979675 0.304565519094467163 0.102148666977882385
0.475564420223236084 -0.358035027980804443 0.00491266185417771339
0.510190129280090332 -0.331144094467163086 0.0666113048791885376
-0.610038042068481445 0.36712414026260376 0.0881566554307937622
-0.561812222003936768 0.287858366966247559 -0.0555375590920448303
0.220305457711219788 0.00987406633794307709 0.309252083301544189
0.240860685706138611 0.00470996182411909103 0.321715682744979858
-0.35891684889793396 -0.0573624670505523682 -0.137624993920326233
0.399596154689788818 -0.253223538398742676 0.322054684162139893
0.399897307157516479 -0.263596981763839722 0.324806362390518188
0.224354326725006104 -0.324641197919845581 0.320794850587844849
0.411382406949996948 -0.26833641529083252 0.325226575136184692
-0.508529067039489746 0.0488909259438514709 0.195535898208618164
-0.630548954010009766 0.156066074967384338 -0.0522156581282615662
-0.501295328140258789 0.146429270505905151 0.34550592303276062
0.521445035934448242 -0.351071357727050781 -0.322784125804901123
0.495747417211532593 -0.348759680986404419 0.000428899074904620647
-0.197273522615432739 0.0156854279339313507 -0.0497228614985942841
-0.557057440280914307 0.341334402561187744 -0.00533195678144693375
0.488950371742248535 -0.360902220010757446 0.0412410236895084381
0.449562340974807739 -0.0745770186185836792 0.00217862310819327831
-0.555602133274078369 0.384725898504257202 0.158124536275863647
0.375037044286727905 -0.0815082937479019165 -0.11967121809720993
-0.389033228158950806 0.319074779748916626 0.168996497988700867
-0.384001106023788452 0.327634066343307495 0.197675243020057678
-0.363457441329956055 0.237552732229232788 -0.0832027122378349304
-0.4066275954246521 0.199011445045471191 0.0411570742726325989
-0.643788456916809082 0.286364287137985229 0.0940101444721221924
0.408956170082092285 -0.347708791494369507 0.136580795049667358
0.222816243767738342 0.0825665220618247986 -0.0333024412393569946
0.498939841985702515 -0.161708280444145203 0.123975314199924469
0.500691473484039307 -0.0932845547795295715 0.13490334153175354
0.215718835592269897 0.00142840179614722729 0.299585163593292236
-0.352530598640441895 -0.0687003582715988159 -0.00886898208409547806
-0.384692370891571045 0.265538483858108521 -0.0713840574026107788
0.506874263286590576 -0.347547858953475952 0.055092446506023407
-0.356336444616317749 -0.0568227954208850861 -0.145214870572090149
0.132576212286949158 0.0721397623419761658 0.32222786545753479
-0.0990691632032394409 -0.266133815050125122 0.00624557305127382278
0.24277728796005249 0.022855173796415329 0.322024434804916382
-0.479780018329620361 -0.0123538076877593994 0.185514166951179504
0.242821559309959412 0.0478491038084030151 0.317209213972091675
-0.277484029531478882 0.332207530736923218 0.040866311639547348
0.370234668254852295 -0.0312242619693279266 -0.0397251024842262268
0.520590066909790039 -0.348443448543548584 -0.0361356437206268311
0.293714523315429688 -0.0123560400679707527 0.0372066013514995575
-0.643475592136383057 0.284282773733139038 0.0928576290607452393
0.036244858056306839 0.136260181665420532 0.0852731838822364807
-0.396863698959350586 -0.0582466088235378265 0.126062929630279541
-0.440819799900054932 -0.0388431400060653687 0.131517887115478516
0.524264931678771973 -0.318020910024642944 -0.0652740448713302612
0.42273750901222229 -0.280525624752044678 0.331290692090988159
0.510038614273071289 -0.345443427562713623 0.0572591349482536316
0.404153615236282349 -0.259400606155395508 0.323701441287994385
-0.479688793420791626 0.0174164529889822006 0.176911920309066772
0.235871881246566772 0.0680357515811920166 0.314606070518493652
-0.478848636150360107 -0.00899724848568439484 0.167558223009109497
0.239495411515235901 0.0670457556843757629 0.315009057521820068
0.388527423143386841 0.0255568362772464752 0.106167718768119812
0.219881445169448853 -0.316640973091125488 0.310452967882156372
0.383360922336578369 0.0424822606146335602 0.0692235380411148071
0.463030964136123657 0.0102747725322842598 0.175195485353469849
0.39977651834487915 -0.259193450212478638 0.327274143695831299
-0.499003171920776367 0.0204962920397520065 0.181143760681152344
-0.572869598865509033 0.265612512826919556 0.36013832688331604
-0.663868427276611328 0.229392766952514648 0.0222139284014701843
-0.148616552352905273 0.27484428882598877 0.0792073458433151245
0.522483587265014648 -0.33549124002456665 -0.322399646043777466
-0.219716623425483704 0.31512024998664856 0.0968766137957572937
0.500258684158325195 -0.347038418054580688 0.0671480000019073486
-0.189076736569404602 0.302213162183761597 0.114882089197635651
0.313940554857254028 -0.130713015794754028 0.300789088010787964
0.225430145859718323 -0.0357838831841945648 0.305222481489181519
0.0577003210783004761 -0.331424832344055176 0.29141312837600708
0.435532629489898682 -0.280559390783309937 0.332802325487136841
0.409254521131515503 -0.286360442638397217 0.330970317125320435
0.385963767766952515 -0.266394048929214478 0.318851888179779053
0.397860884666442871 -0.385124295949935913 -0.225494056940078735
-0.161608383059501648 0.277847915887832642 0.128724291920661926
0.381000518798828125 0.043501976877450943 0.0771624594926834106
0.391090750694274902 -0.256350696086883545 0.31885915994644165
-0.4997234046459198 0.0237783286720514297 0.185979828238487244
0.50003349781036377 -0.326366066932678223 -0.313026338815689087
0.381035983562469482 -0.37641480565071106 -0.216108798980712891
0.521551728248596191 -0.349717199802398682 -0.324800223112106323
0.521110653877258301 -0.348856329917907715 -0.321739524602890015
0.513726890087127686 -0.320095598697662354 -0.318366318941116333
0.255355864763259888 -0.222889125347137451 0.0575757399201393127
0.186419695615768433 -0.142767131328582764 -0.105494335293769836
0.508162915706634521 -0.320722997188568115 0.0293138846755027771
-0.468877911567687988 -0.0126055236905813217 0.181205928325653076
0.496625632047653198 -0.349408864974975586 -0.309694409370422363
0.521888911724090576 -0.327973425388336182 -0.321872830390930176
0.476426601409912109 -0.320681750774383545 -0.302974790334701538
-0.340493589639663696 0.229319676756858826 -0.0441259928047657013
0.202119037508964539 0.13235589861869812 0.112310498952865601
-0.172019287943840027 0.0216344725340604782 0.0257196128368377686
0.265986204147338867 -0.166301220655441284 0.00613210815936326981
0.54508739709854126 -0.328798234462738037 -0.0477685555815696716
-0.455741584300994873 -0.0537994727492332458 0.162320837378501892
0.470125973224639893 -0.35650181770324707 -0.307027488946914673
0.478859156370162964 -0.270225971937179565 -0.30145534873008728
0.46773955225944519 -0.362310588359832764 -0.308116137981414795
-0.319499105215072632 0.266100496053695679 0.0116594219580292702
0.0336058810353279114 0.0980520322918891907 0.128584876656532288
-0.283977270126342773 -0.100692875683307648 -0.0872415304183959961
-0.616075694561004639 0.216498509049415588 -0.10441415011882782
0.244801536202430725 0.104100145399570465 -0.0296050570905208588
0.466661661863327026 -0.235533177852630615 -0.228430837392807007
-0.293226808309555054 -0.089141353964805603 -0.0957784950733184814
0.249368906021118164 -0.276503950357437134 0.322570294141769409
0.222435653209686279 0.0664544850587844849 -0.0277733802795410156
-0.250276476144790649 -0.130829557776451111 -0.0553765483200550079
-0.210966140031814575 0.301441937685012817 0.14877040684223175
0.340073853731155396 -0.141159266233444214 0.318333059549331665
0.530040860176086426 -0.357088208198547363 0.0697256326675415039
-0.599160909652709961 0.356096565723419189 0.0607429258525371552
-0.34565204381942749 -0.0563480481505393982 -0.143455788493156433
-0.432072162628173828 0.157029151916503906 -0.0843870192766189575
0.526943683624267578 -0.332198172807693481 0.0204437654465436935
0.528533816337585449 -0.288420170545578003 -0.0700721517205238342
-0.498148918151855469 0.142194211483001709 -0.253543078899383545
0.146939054131507874 0.156313598155975342 0.0589059218764305115
0.253531813621520996 -0.00820736028254032135 0.327691107988357544
0.350215941667556763 -0.147744506597518921 0.320568054914474487
0.442687004804611206 -0.322919487953186035 -0.229245051741600037
-0.223511159420013428 -0.140635713934898376 -0.053694404661655426
0.522855103015899658 -0.35072973370552063 0.0969864428043365479
-0.645368576049804688 0.252952545881271362 0.0242447331547737122
0.393455266952514648 -0.280663400888442993 0.32230299711227417
-0.47405734658241272 -0.0105411745607852936 0.165002435445785522
0.224643304944038391 -0.325643151998519897 0.319052159786224365
-0.363080292940139771 -0.121886260807514191 0.130473583936691284
-0.237955957651138306 -0.141266629099845886 -0.0538236834108829498
-0.113413296639919281 -0.00970838777720928192 -0.0165306311100721359
0.389680862426757812 -0.278934895992279053 0.32063409686088562
-0.506374239921569824 0.0105949966236948967 0.202099725604057312
0.463033437728881836 -0.297275543212890625 -0.294174283742904663
0.351559072732925415 -0.148702636361122131 0.321423947811126709
0.458279073238372803 -0.304087728261947632 -0.228711575269699097
0.0249509178102016449 -0.144288524985313416 -0.0200647134333848953
0.369235873222351074 -0.328324258327484131 0.318783015012741089
0.391908019781112671 -0.282086879014968872 0.316897362470626831
0.129007205367088318 -0.319677352905273438 -0.0970003232359886169
-0.133893504738807678 0.277929812669754028 0.117595873773097992
-0.332636713981628418 0.0939803943037986755 -0.10218522697687149
0.374471992254257202 -0.37627875804901123 -0.21466316282749176
0.520327985286712646 -0.346105188131332397 -0.322417289018630981
0.523896872997283936 -0.358371913433074951 -0.326275438070297241
-0.0678891837596893311 -0.255431413650512695 0.0989566296339035034
0.326015323400497437 -0.131401881575584412 0.314756244421005249
0.424580425024032593 -0.260321080684661865 0.328303068876266479
-0.479311883449554443 0.0312428176403045654 0.196839436888694763
0.527068257331848145 -0.299960821866989136 -0.321882277727127075
0.538503766059875488 -0.29281201958656311 -0.324296772480010986
0.378266483545303345 -0.374516040086746216 -0.213373541831970215
0.371771305799484253 -0.357453793287277222 -0.213381782174110413
0.524518072605133057 -0.351969987154006958 -0.32465815544128418
0.525826036930084229 -0.363749235868453979 -0.322745949029922485
0.515985548496246338 -0.327513694763183594 -0.319738537073135376
0.479932010173797607 -0.35266035795211792 -0.311870366334915161
0.478899359703063965 -0.365931481122970581 -0.312584221363067627
-0.361203610897064209 0.309852719306945801 0.239840254187583923
-0.32020491361618042 0.10354749858379364 0.0223875120282173157
-0.446942806243896484 0.203762277960777283 -0.0400904975831508636
-0.377042859792709351 0.278843075037002563 -0.00708495732396841049
-0.0221726279705762863 -0.26134192943572998 0.143908977508544922
-0.591266155242919922 0.360965162515640259 0.0645356476306915283
0.367972224950790405 -0.373845517635345459 -0.212168022990226746
-0.123559504747390747 -0.0111694969236850739 0.00815059524029493332
0.397040963172912598 -0.353726476430892944 -0.217986747622489929
0.507700145244598389 -0.159965798258781433 0.125360876321792603
0.195869311690330505 0.124416559934616089 0.00661921733990311623
-0.0265258792787790298 0.166336849331855774 0.383035361766815186
-0.333561360836029053 -0.121717028319835663 0.100470937788486481
-0.324570268392562866 0.302435755729675293 -0.0364930406212806702
0.534483253955841064 -0.347239166498184204 0.0380219630897045135
0.525729537010192871 -0.332267135381698608 0.0346953794360160828
-0.595097661018371582 0.381599456071853638 0.113692723214626312
-0.0106353387236595154 -0.144723132252693176 -0.0266889762133359909
-0.234666958451271057 0.171561270952224731 -0.00146217690780758858
-0.484944581985473633 -0.0112329507246613503 0.177422776818275452
-0.277404487133026123 0.3356190025806427 0.0424154885113239288
0.513806462287902832 -0.349516898393630981 0.0972502827644348145
-0.448060780763626099 -0.0363708585500717163 0.11762489378452301
0.434661626815795898 -0.253767639398574829 0.331901460886001587
0.415145337581634521 -0.278881371021270752 0.327375948429107666
-0.468353182077407837 0.033858075737953186 0.193771854043006897
