ply
format ascii 1.0
element vertex 737
property float x
property float y
property float z
end_header
-0.0185005124658346176 -0.244781523942947388 0.128891929984092712
-0.464387565851211548 0.0354678183794021606 0.189717382192611694
-0.194167152047157288 0.221146181225776672 0.172266826033592224
0.367125988006591797 -0.329524368047714233 -0.0230370871722698212
0.323705703020095825 -0.390330076217651367 -0.158417746424674988
0.535623729228973389 -0.323875278234481812 -0.0577293820679187775
-0.441643267869949341 -0.00524314213544130325 0.152869418263435364
-0.0188261345028877258 -0.0598946548998355865 0.142004474997520447
5.92505275562871248e-05 -0.236502304673194885 0.106631971895694733
0.526397645473480225 -0.202040389180183411 -0.079501129686832428
0.450013697147369385 -0.308531641960144043 -0.292353659868240356
0.52701413631439209 -0.275642693042755127 -0.315156459808349609
0.500099062919616699 -0.325088948011398315 -0.312162190675735474
0.475416064262390137 -0.30524742603302002 -0.296866446733474731
-0.127210333943367004 0.246222525835037231 0.139218345284461975
-0.648912608623504639 0.281660199165344238 0.0944475531578063965
-0.198743253946304321 0.286192923784255981 0.336045652627944946
0.498198986053466797 -0.0870144888758659363 0.137170806527137756
0.201065406203269958 -0.359426915645599365 -0.0904316380620002747
0.505623698234558105 -0.367922604084014893 -0.0222205892205238342
0.527458369731903076 -0.242960751056671143 0.173402056097984314
-0.585867404937744141 0.378932535648345947 0.170827135443687439
0.445234864950180054 -0.315125465393066406 -0.287231743335723877
0.498774975538253784 -0.111370883882045746 0.112688183784484863
-0.655689597129821777 0.175158947706222534 -0.103508487343788147
-0.201752707362174988 0.308355718851089478 0.089382074773311615
0.20164211094379425 -0.0139398835599422455 0.295607388019561768
0.160353496670722961 -0.0624322928488254547 -0.0436270460486412048
-0.57945626974105835 0.301824778318405151 0.368826299905776978
0.275349855422973633 0.0981049910187721252 -0.0285894591361284256
-0.435130774974822998 0.155011296272277832 -0.0857693031430244446
0.534640669822692871 -0.333293825387954712 0.0132246715947985649
-0.568661987781524658 0.197026997804641724 -0.228831842541694641
-0.497526973485946655 0.0446142703294754028 -0.0866143479943275452
0.0317437611520290375 -0.104323036968708038 0.0333445854485034943
0.534262716770172119 -0.264682859182357788 -0.315800458192825317
0.0100850556045770645 0.19733034074306488 0.0279567334800958633
0.302448958158493042 0.0386352017521858215 -0.0839332640171051025
-0.33197939395904541 -0.0163671448826789856 -0.107458941638469696
0.236806795001029968 0.0141103817149996758 0.322178035974502563
0.125405609607696533 0.0126314843073487282 0.299263894557952881
0.527726590633392334 -0.355422049760818481 0.0667994022369384766
0.467309296131134033 -0.310033172369003296 -0.232603222131729126
-0.651893019676208496 0.285000026226043701 0.104552023112773895
0.546784758567810059 -0.220235392451286316 0.163969904184341431
0.528241217136383057 -0.323612630367279053 -0.0155542381107807159
-0.382819175720214844 -0.0568355247378349304 0.0764147266745567322
0.457130968570709229 -0.311013996601104736 -0.292051076889038086
0.505175173282623291 -0.340012222528457642 -0.317403972148895264
0.479035764932632446 -0.314496666193008423 -0.298996090888977051
0.52056354284286499 -0.3014850914478302 -0.316821962594985962
-0.0019388875225558877 -0.140294790267944336 -0.0244826264679431915
0.397830456495285034 -0.273444771766662598 0.32386431097984314
0.401499301195144653 -0.271871507167816162 0.324170619249343872
0.506324470043182373 -0.332234352827072144 0.106322839856147766
-0.467382758855819702 0.0420103035867214203 0.170837774872779846
0.410335630178451538 -0.346135437488555908 0.157035961747169495
-0.360583364963531494 -0.0356369242072105408 -0.147856831550598145
-0.127891108393669128 -0.268092066049575806 0.112594209611415863
0.512838423252105713 -0.369262933731079102 -0.0141675956547260284
-0.213379845023155212 0.312151819467544556 0.0979038998484611511
0.250932425260543823 -0.28741455078125 0.323235511779785156
0.209312602877616882 0.00917901750653982162 -0.0456089526414871216
0.0703448355197906494 -0.151800408959388733 -0.0168616194278001785
-0.169402256608009338 0.304395288228988647 0.1191081702709198
0.471374303102493286 -0.364569872617721558 0.00755558907985687256
-0.290655791759490967 -0.0997929498553276062 -0.10294746607542038
0.0368332676589488983 -0.149969592690467834 -0.0213461574167013168
0.232553571462631226 0.0559226535260677338 0.309603989124298096
0.25373879075050354 -0.288975238800048828 0.321019083261489868
-0.471489429473876953 0.000708067265804857016 0.168848797678947449
0.241368919610977173 0.0623802319169044495 0.313508570194244385
0.509214282035827637 -0.352262377738952637 0.0644532814621925354
0.227769315242767334 -0.315126389265060425 0.314903229475021362
-0.375126570463180542 -0.0935770124197006226 0.0863751620054244995
-0.0623537749052047729 -0.242019981145858765 0.302736192941665649
-0.222360506653785706 -0.128010734915733337 -0.0528553947806358337
-0.409627795219421387 -0.0658642500638961792 0.098719865083694458
-0.444750458002090454 -0.0451379232108592987 0.132931530475616455
0.23932763934135437 -0.294360429048538208 0.314786702394485474
0.154271960258483887 -0.324679732322692871 0.320402354001998901
0.42562440037727356 -0.25635489821434021 0.329024523496627808
0.438520669937133789 -0.343074202537536621 -0.292134284973144531
0.506592690944671631 -0.334714114665985107 -0.317547768354415894
0.445368081331253052 -0.352423250675201416 -0.286193221807479858
0.238635808229446411 0.0654427558183670044 0.312786906957626343
0.403574168682098389 -0.287798523902893066 0.326331257820129395
-0.494518786668777466 0.00629571313038468361 0.188578754663467407
0.486052393913269043 -0.0634484440088272095 0.132306680083274841
0.0129504092037677765 -0.171025305986404419 0.0101914806291460991
0.531822383403778076 -0.307807087898254395 -0.0616887956857681274
0.315183877944946289 -0.302438586950302124 -0.126304924488067627
0.446198344230651855 -0.291463941335678101 -0.285083949565887451
-0.336527764797210693 0.224272623658180237 0.125950947403907776
-0.40053597092628479 -0.0285498276352882385 -0.00166134396567940712
0.403484165668487549 -0.272014200687408447 0.324554324150085449
-0.132845699787139893 0.195415347814559937 0.16803954541683197
0.399535566568374634 -0.271951347589492798 0.324366718530654907
-0.446208775043487549 -0.025325436145067215 0.0216561723500490189
-0.137527212500572205 0.244471266865730286 0.191974908113479614
-0.612442851066589355 0.293689340353012085 0.183973759412765503
0.125016331672668457 0.115757949650287628 0.317064404487609863
-0.120461754500865936 0.250222742557525635 0.162131533026695251
-0.582937479019165039 0.34783095121383667 0.0583997033536434174
0.427236169576644897 -0.348306119441986084 0.153524354100227356
-0.566361188888549805 0.294779092073440552 -0.0686874911189079285
0.252328991889953613 0.0265512466430664062 -0.0790137648582458496
0.248123899102210999 0.10021442174911499 -0.0477822721004486084
-0.357058614492416382 -0.0559871532022953033 -0.141599088907241821
0.199193641543388367 0.120014771819114685 0.0362837649881839752
0.545889854431152344 -0.13170132040977478 0.112549066543579102
-0.581251144409179688 0.321465492248535156 -0.0225562900304794312
0.206651046872138977 0.0244502685964107513 0.177306979894638062
-0.594956874847412109 0.374810934066772461 0.172243386507034302
0.445196241140365601 -0.319385141134262085 0.127877280116081238
0.255541592836380005 -0.278940051794052124 0.316867977380752563
0.236024320125579834 0.0235477648675441742 0.317026138305664062
-0.362499862909317017 -0.0500536151230335236 -0.0235190298408269882
-0.182160869240760803 0.117843061685562134 0.0426418222486972809
0.255255699157714844 -0.288379132747650146 0.319681048393249512
0.242456644773483276 0.0329238399863243103 0.322295010089874268
0.400257796049118042 0.0232000388205051422 0.115757748484611511
-0.340090662240982056 -0.0663346350193023682 -0.147043883800506592
0.076264210045337677 -0.333191454410552979 0.299230664968490601
-0.386345833539962769 -0.0610915273427963257 0.0940402746200561523
-0.447783887386322021 -0.0416110195219516754 0.127943426370620728
0.439765661954879761 -0.279479414224624634 0.334092557430267334
0.0349876955151557922 -0.123020991683006287 -0.0252456851303577423
0.414743632078170776 -0.280932962894439697 0.327433526515960693
0.433444470167160034 -0.296227991580963135 0.333590894937515259
0.368359386920928955 -0.278728514909744263 -0.12974141538143158
-0.476991534233093262 0.00112178397830575705 0.188507586717605591
-0.291069239377975464 -0.0965016111731529236 -0.104277878999710083
0.241881176829338074 -0.313146919012069702 0.310032069683074951
0.473600149154663086 -0.354294151067733765 0.0075622163712978363
-0.295903980731964111 -0.0967492088675498962 -0.106731519103050232
0.245233982801437378 -0.288730502128601074 0.32042810320854187
0.0627991929650306702 -0.329897850751876831 0.29730987548828125
0.158533811569213867 -0.267818689346313477 -0.105111017823219299
0.250661879777908325 0.0631927177309989929 0.315939277410507202
-0.482096463441848755 -0.00820440053939819336 0.178145989775657654
0.23680703341960907 0.0663577988743782043 0.315286874771118164
0.23921927809715271 -0.331954061985015869 0.321752011775970459
-0.381807684898376465 -0.0922343432903289795 0.0369558930397033691
-0.215623036026954651 -0.140243828296661377 -0.0540919080376625061
-0.382248103618621826 -0.0638963878154754639 0.0837588086724281311
0.150480553507804871 -0.331792145967483521 0.332185417413711548
0.446283340454101562 -0.280010759830474854 0.334017068147659302
0.407858878374099731 -0.280644685029983521 0.325545370578765869
-0.501608729362487793 0.00628139171749353409 0.188895568251609802
-0.321427792310714722 0.096981242299079895 -0.0699632689356803894
0.532899737358093262 -0.207579627633094788 -0.0520857274532318115
0.451387494802474976 -0.29390186071395874 -0.289971858263015747
0.487836688756942749 -0.32525634765625 -0.310402870178222656
0.446837902069091797 -0.309746146202087402 -0.290343701839447021
-0.577311396598815918 0.268827915191650391 0.366019964218139648
-0.460998207330703735 0.105592258274555206 -0.230713099241256714
0.375317782163619995 -0.318810254335403442 0.199527159333229065
-0.589324951171875 0.366572350263595581 0.131475910544395447
0.393026262521743774 -0.353461325168609619 -0.217000648379325867
0.441537767648696899 -0.310288429260253906 -0.28855404257774353
-0.200134977698326111 0.305082052946090698 0.0952417105436325073
-0.154971957206726074 0.267580240964889526 0.151932820677757263
0.530205726623535156 -0.338549911975860596 0.0722933113574981689
0.464238494634628296 -0.266168206930160522 -0.21715719997882843
-0.633068859577178955 0.275389790534973145 0.107301704585552216
0.438860714435577393 -0.308580726385116577 -0.286724716424942017
0.51586681604385376 -0.277224451303482056 -0.316353648900985718
0.516992390155792236 -0.340369462966918945 -0.320287346839904785
0.454794555902481079 -0.307061672210693359 -0.292776703834533691
0.491313427686691284 -0.322034388780593872 0.0948596969246864319
0.0211563631892204285 -0.275961905717849731 -0.0182629302144050598
-0.65362250804901123 0.171696215867996216 -0.107791587710380554
-0.224176898598670959 0.318165183067321777 0.121610052883625031
0.465774416923522949 -0.36417582631111145 0.00639264797791838646
0.481492578983306885 -0.336908400058746338 0.0507547780871391296
0.511897027492523193 -0.339428156614303589 -0.318945229053497314
0.440630108118057251 -0.356572598218917847 -0.297148406505584717
-0.269497692584991455 0.321639120578765869 0.0421558283269405365
0.424591630697250366 -0.313301652669906616 -0.281422227621078491
0.415944337844848633 -0.295388489961624146 0.328876346349716187
-0.325636804103851318 -0.075712449848651886 0.123686924576759338
-0.366434842348098755 -0.0670472308993339539 0.154880017042160034
-0.337782084941864014 0.214437127113342285 0.133085235953330994
0.0106316087767481804 0.119137786328792572 0.105529166758060455
0.542421460151672363 -0.309281855821609497 -0.0457255654036998749
0.0141805792227387428 -0.261971622705459595 0.03981003537774086
-0.00300777587108314037 -0.236774906516075134 0.0945448428392410278
0.000753096130210906267 -0.219808131456375122 0.0818155631422996521
0.46535724401473999 -0.361040115356445312 0.0307841803878545761
-0.268921822309494019 -0.138337433338165283 0.177683353424072266
-0.344631493091583252 -0.0662144720554351807 0.141476824879646301
0.124003037810325623 -0.276870399713516235 0.129308044910430908
-0.133335500955581665 0.0785070881247520447 0.0906047448515892029
0.463894575834274292 -0.054533056914806366 0.0181374698877334595
-0.0135863255709409714 -0.217125087976455688 0.0806502029299736023
-0.554294109344482422 0.391257017850875854 0.14797663688659668
0.497027486562728882 -0.36690714955329895 0.0057171061635017395
-0.610270977020263672 0.293685883283615112 0.186776220798492432
0.530393481254577637 -0.275292485952377319 -0.317193090915679932
0.370823115110397339 -0.26477167010307312 0.181964054703712463
0.420793414115905762 -0.344621986150741577 0.151291355490684509
0.252468109130859375 0.0390445031225681305 -0.0661461725831031799
0.549792706966400146 -0.150096699595451355 0.124726414680480957
-0.570092916488647461 0.283745527267456055 -0.00603813817724585533
0.501295328140258789 -0.362758934497833252 -0.000813996593933552504
0.208719953894615173 0.115482889115810394 -0.00994015764445066452
-0.288722425699234009 -0.0858955755829811096 -0.0661295056343078613
0.159735620021820068 -0.0833967402577400208 -0.0357179790735244751
-0.339501172304153442 -0.105780757963657379 0.141508638858795166
0.51140981912612915 -0.281451672315597534 -0.31270676851272583
-0.338822752237319946 -0.0799405500292778015 0.038867507129907608
-0.368869602680206299 0.280390173196792603 -0.0622735731303691864
0.510236561298370361 -0.34111669659614563 0.0655798912048339844
0.30274432897567749 -0.206119656562805176 0.248299583792686462
0.543162107467651367 -0.31216546893119812 -0.0602741315960884094
0.142019748687744141 0.0692111030220985413 0.336718738079071045
-0.594432413578033447 0.267216622829437256 0.0125074749812483788
0.22246086597442627 -0.00733766425400972366 0.295957714319229126
0.231306001543998718 0.034078642725944519 0.31315988302230835
0.53387451171875 -0.319779098033905029 -0.0123228356242179871
-0.388880044221878052 -0.0643059015274047852 0.106000848114490509
-0.447126597166061401 -0.0404630638659000397 0.126795575022697449
0.496305674314498901 -0.0915256589651107788 0.154957860708236694
0.251328706741333008 0.062869831919670105 0.317057251930236816
-0.290882498025894165 -0.0930968001484870911 0.307892978191375732
-0.3661041259765625 -0.115077018737792969 0.10428474098443985
-0.562987804412841797 0.127017483115196228 -0.0780992433428764343
-0.501070618629455566 0.0231264214962720871 0.186945483088493347
0.518465995788574219 -0.297474712133407593 -0.313549727201461792
0.472949028015136719 -0.328366875648498535 -0.299405813217163086
-0.573843598365783691 0.268492519855499268 0.362945586442947388
-0.570731461048126221 0.354548633098602295 0.16731540858745575
-0.191214874386787415 0.304334700107574463 0.101603314280509949
-0.661638855934143066 0.23949335515499115 0.0419985540211200714
-0.50446617603302002 0.144021466374397278 0.353573650121688843
0.507483422756195068 -0.347295254468917847 -0.317843437194824219
-0.200044870376586914 0.304664164781570435 0.102258898317813873
0.47549787163734436 -0.3578205406665802 0.00514952372759580612
0.510122001171112061 -0.330934286117553711 0.0668578222393989563
-0.610274553298950195 0.367270052433013916 0.0880991443991661072
-0.562059998512268066 0.287995129823684692 -0.0555921345949172974
0.220391377806663513 0.0100180329754948616 0.309484153985977173
0.24094526469707489 0.00485538970679044724 0.321954160928726196
-0.359110116958618164 -0.0571334920823574066 -0.137596145272254944
0.399666398763656616 -0.253021895885467529 0.322300583124160767
0.399969249963760376 -0.263394296169281006 0.325049370527267456
0.224490612745285034 -0.324415415525436401 0.320974767208099365
0.41144859790802002 -0.268134176731109619 0.325470685958862305
-0.508706450462341309 0.0490915514528751373 0.195540890097618103
-0.630790472030639648 0.156241357326507568 -0.0522787608206272125
-0.501436233520507812 0.146586701273918152 0.34554716944694519
0.521281421184539795 -0.350858837366104126 -0.322590678930282593
0.495668917894363403 -0.34854811429977417 0.000666487321723252535
-0.197394832968711853 0.0158669129014015198 -0.0496243201196193695
-0.557303369045257568 0.341467469930648804 -0.00538789201527833939
0.488886505365371704 -0.360687285661697388 0.0414781011641025543
0.449506312608718872 -0.0744496434926986694 0.00245575234293937683
-0.555823564529418945 0.384864240884780884 0.15809515118598938
0.374989151954650879 -0.0813849717378616333 -0.119416750967502594
-0.389207333326339722 0.31918942928314209 0.169038817286491394
-0.384166300296783447 0.327746212482452393 0.197721689939498901
-0.363670408725738525 0.237667754292488098 -0.0831681117415428162
-0.406821906566619873 0.199143722653388977 0.0411947332322597504
-0.644019007682800293 0.286528140306472778 0.0939521417021751404
0.408964037895202637 -0.347492188215255737 0.136815086007118225
0.222794085741043091 0.0826478898525238037 -0.0330676808953285217
0.498889118432998657 -0.16153387725353241 0.124260663986206055
0.50063854455947876 -0.0931315198540687561 0.135196506977081299
0.21580815315246582 0.00157472188584506512 0.299814134836196899
-0.352692723274230957 -0.0684693083167076111 -0.00882272422313690186
-0.384911954402923584 0.265650242567062378 -0.0713598057627677917
0.506804764270782471 -0.347335398197174072 0.0553338900208473206
-0.356530547142028809 -0.0565937124192714691 -0.145186364650726318
0.132653117179870605 0.0722701326012611389 0.322443366050720215
-0.0990899205207824707 -0.265869349241256714 0.0063424455001950264
0.242855429649353027 0.0229943599551916122 0.322264909744262695
-0.479959666728973389 -0.0121325794607400894 0.185522899031639099
0.242890000343322754 0.0479797422885894775 0.317451804876327515
-0.277665048837661743 0.332308471202850342 0.0409352555871009827
0.370200037956237793 -0.0311149228364229202 -0.0394669920206069946
0.520489513874053955 -0.34823375940322876 -0.0359031148254871368
0.293714314699172974 -0.0122330673038959503 0.0374573059380054474
-0.643706142902374268 0.284446775913238525 0.0927998572587966919
0.0362192839384078979 0.136368796229362488 0.0854591131210327148
-0.397007733583450317 -0.0580184124410152435 0.126095086336135864
-0.440982222557067871 -0.0386182069778442383 0.131536230444908142
0.52415621280670166 -0.317818760871887207 -0.0650372207164764404
0.422799974679946899 -0.280323266983032227 0.331533640623092651
0.509968101978302002 -0.345231354236602783 0.0575012750923633575
0.404222488403320312 -0.25919872522354126 0.323946535587310791
-0.479865461587905884 0.0176254771649837494 0.176922634243965149
0.235934466123580933 0.068159930408000946 0.314848721027374268
-0.479024052619934082 -0.00877851061522960663 0.167566761374473572
0.239557668566703796 0.0671700835227966309 0.315252542495727539
0.388509392738342285 0.0256660785526037216 0.106443673372268677
0.220015585422515869 -0.316415935754776001 0.310633569955825806
0.383333265781402588 0.042577158659696579 0.0694956257939338684
0.462995678186416626 0.0103972628712654114 0.175492227077484131
0.399848580360412598 -0.258991271257400513 0.32751840353012085
-0.499181628227233887 0.0207065828144550323 0.181148439645767212
-0.573036491870880127 0.265767306089401245 0.360168546438217163
-0.664103865623474121 0.229561969637870789 0.0221521332859992981
-0.148742511868476868 0.274941951036453247 0.0793319493532180786
0.5223197340965271 -0.3352813720703125 -0.322202146053314209
-0.219865188002586365 0.315220117568969727 0.0969751477241516113
0.500196278095245361 -0.346825450658798218 0.0673904940485954285
-0.189209625124931335 0.302311569452285767 0.114996753633022308
0.314027994871139526 -0.130526378750801086 0.301037639379501343
0.225525319576263428 -0.0356239043176174164 0.305453211069107056
0.057849545031785965 -0.331171602010726929 0.291555047035217285
0.435588270425796509 -0.280358195304870605 0.333047717809677124
0.40932503342628479 -0.286156296730041504 0.331208884716033936
0.386042177677154541 -0.266189903020858765 0.319090932607650757
0.397772639989852905 -0.384903460741043091 -0.225300505757331848
-0.161722421646118164 0.277947902679443359 0.128849729895591736
0.380975335836410522 0.0435982309281826019 0.0774349868297576904
0.391165167093276978 -0.256148040294647217 0.319102287292480469
-0.499900788068771362 0.0239872671663761139 0.18598484992980957
0.499881535768508911 -0.326157838106155396 -0.312824219465255737
0.380957901477813721 -0.376194268465042114 -0.215912312269210815
0.521387636661529541 -0.349504798650741577 -0.324606657028198242
0.520947396755218506 -0.348644226789474487 -0.321545392274856567
0.513567686080932617 -0.319888561964035034 -0.318163931369781494
0.255384117364883423 -0.222690388560295105 0.0578045397996902466
0.186404913663864136 -0.142588585615158081 -0.105282217264175415
0.508085310459136963 -0.320516377687454224 0.0295607727020978928
-0.469052225351333618 -0.0123862400650978088 0.181217879056930542
0.496476024389266968 -0.349196404218673706 -0.309497654438018799
0.521725356578826904 -0.327764928340911865 -0.321673303842544556
0.47628706693649292 -0.320474475622177124 -0.302769094705581665
-0.340691566467285156 0.229436144232749939 -0.0440742932260036469
0.202116414904594421 0.132445156574249268 0.112549461424350739
-0.17211093008518219 0.0218136180192232132 0.0258308984339237213
0.265995800495147705 -0.166123837232589722 0.00637196516618132591
0.54497218132019043 -0.32859337329864502 -0.047533232718706131
-0.45589900016784668 -0.0535691380500793457 0.162333682179450989
0.469988882541656494 -0.356287151575088501 -0.306831508874893188
0.478718310594558716 -0.270030051469802856 -0.301236599683761597
0.467603325843811035 -0.362094759941101074 -0.307921677827835083
-0.319684833288192749 0.266210496425628662 0.0117235975340008736
0.0336058773100376129 0.0981792286038398743 0.128769382834434509
-0.284128665924072266 -0.10045035183429718 -0.0871616005897521973
-0.616327583789825439 0.216654315590858459 -0.104487158358097076
0.244773536920547485 0.104169443249702454 -0.0293650440871715546
0.466543674468994141 -0.235350176692008972 -0.228198066353797913
-0.293383896350860596 -0.0889038443565368652 -0.0957093313336372375
0.249497368931770325 -0.276288479566574097 0.322768688201904297
0.222417697310447693 0.0665436908602714539 -0.0275388341397047043
-0.250396072864532471 -0.130585744976997375 -0.0553073734045028687
-0.211091771721839905 0.30154302716255188 0.148878350853919983
0.340156316757202148 -0.140970140695571899 0.318589329719543457
0.529962718486785889 -0.356874167919158936 0.0699654147028923035
-0.599400162696838379 0.356240004301071167 0.0606848299503326416
-0.345842033624649048 -0.0561201460659503937 -0.143422797322273254
-0.432293832302093506 0.157170519232749939 -0.084376014769077301
0.526853680610656738 -0.33198973536491394 0.020686643198132515
0.528421998023986816 -0.288225173950195312 -0.0698285326361656189
-0.498411744832992554 0.142357230186462402 -0.253595948219299316
0.146915063261985779 0.156394332647323608 0.0591271296143531799
0.253618627786636353 -0.00805772840976715088 0.327932655811309814
0.350295782089233398 -0.147554203867912292 0.320826500654220581
0.442579299211502075 -0.322713106870651245 -0.229032263159751892
-0.223617374897003174 -0.140391409397125244 -0.0536189042031764984
0.522789299488067627 -0.350516229867935181 0.0972295105457305908
-0.645605385303497314 0.253115475177764893 0.0241842512041330338
0.393532156944274902 -0.280458331108093262 0.322539687156677246
-0.474230796098709106 -0.0103226806968450546 0.165012314915657043
0.224779069423675537 -0.325417190790176392 0.319231897592544556
-0.363198190927505493 -0.1216416135430336 0.130511537194252014
-0.238067999482154846 -0.141020849347114563 -0.053752511739730835
-0.113485865294933319 -0.00952165480703115463 -0.0164089538156986237
0.389759331941604614 -0.278729707002639771 0.320870399475097656
-0.506547808647155762 0.0108090145513415337 0.202102437615394592
0.462900668382644653 -0.297073245048522949 -0.293959468603134155
0.351638734340667725 -0.148512169718742371 0.321682721376419067
0.4581642746925354 -0.303886324167251587 -0.228493168950080872
0.0249403733760118484 -0.144073933362960815 -0.01990555040538311
0.36932528018951416 -0.328111648559570312 0.319000691175460815
0.391985058784484863 -0.281881451606750488 0.317133307456970215
0.128998219966888428 -0.319432288408279419 -0.096834130585193634
-0.134004533290863037 0.278027772903442383 0.117727771401405334
-0.332830131053924561 0.0941369757056236267 -0.102130979299545288
0.374396532773971558 -0.376057684421539307 -0.214467108249664307
0.520164966583251953 -0.34589347243309021 -0.322222441434860229
0.523731410503387451 -0.358158141374588013 -0.326084494590759277
-0.0678670555353164673 -0.255176901817321777 0.099076002836227417
0.32610127329826355 -0.131214752793312073 0.315009355545043945
0.424638956785202026 -0.26012083888053894 0.328552067279815674
-0.479481220245361328 0.0314447134733200073 0.196852505207061768
0.526902437210083008 -0.299757599830627441 -0.321676105260848999
0.53833240270614624 -0.292610138654708862 -0.324089914560317993
0.378190398216247559 -0.374295681715011597 -0.213176250457763672
0.371696621179580688 -0.357235968112945557 -0.213181182742118835
0.524352669715881348 -0.351757287979125977 -0.324465334415435791
0.525660216808319092 -0.363534778356552124 -0.322556197643280029
0.515825033187866211 -0.327305257320404053 -0.319538325071334839
0.479789465665817261 -0.352446645498275757 -0.311674177646636963
0.478757202625274658 -0.365715354681015015 -0.312391281127929688
-0.361343115568161011 0.309959948062896729 0.239901989698410034
-0.320367544889450073 0.103702723979949951 0.0224609319120645523
-0.44716307520866394 0.203894555568695068 -0.040081709623336792
-0.377252250909805298 0.278947055339813232 -0.00704047968611121178
-0.0221148282289505005 -0.261092782020568848 0.144042655825614929
-0.591505348682403564 0.361107230186462402 0.0644788146018981934
0.367899537086486816 -0.373624324798583984 -0.211971759796142578
-0.123628951609134674 -0.0109808482229709625 0.00827112887054681778
0.396955698728561401 -0.353511303663253784 -0.217783406376838684
0.507645130157470703 -0.159792110323905945 0.125646784901618958
0.195847377181053162 0.124490685760974884 0.00685276743024587631
-0.0264857765287160873 0.166446790099143982 0.383217453956604004
-0.333675950765609741 -0.121472455561161041 0.100520305335521698
-0.324773579835891724 0.302538812160491943 -0.0364450700581073761
0.534394025802612305 -0.347027570009231567 0.0382619462907314301
0.525644123554229736 -0.33205828070640564 0.0349393263459205627
-0.595331251621246338 0.381743371486663818 0.113641262054443359
-0.0106568923220038414 -0.144501879811286926 -0.0265437867492437363
-0.234815061092376709 0.171684429049491882 -0.00136102619580924511
-0.485121756792068481 -0.0110123874619603157 0.17742958664894104
-0.277585834264755249 0.335719794034957886 0.0424838066101074219
0.51374584436416626 -0.349303364753723145 0.0974937900900840759
-0.448230236768722534 -0.0361453033983707428 0.117640592157840729
0.43471449613571167 -0.253568977117538452 0.332154124975204468
0.41521105170249939 -0.278678417205810547 0.327617853879928589
-0.46851956844329834 0.0340571291744709015 0.193788573145866394
0.502577841281890869 -0.339773058891296387 0.00840466935187578201
-0.481083542108535767 -0.00317802233621478081 0.177757278084754944
-0.377078980207443237 -0.107061810791492462 0.0931161493062973022
-0.500649690628051758 0.0218401215970516205 0.184546545147895813
0.361008048057556152 -0.287072241306304932 -0.141311123967170715
0.00200201920233666897 -0.231675520539283752 0.0903336331248283386
-0.13979002833366394 0.264740824699401855 0.0887177884578704834
-0.129103869199752808 0.25406917929649353 0.0717247948050498962
0.312983393669128418 -0.293443202972412109 -0.13068997859954834
0.428550988435745239 -0.255808532238006592 0.330652475357055664
-0.614990413188934326 0.306244909763336182 0.392453104257583618
0.411106348037719727 -0.358095943927764893 -0.225852534174919128
0.505424380302429199 -0.346616566181182861 -0.319316208362579346
0.508119583129882812 -0.352652937173843384 -0.32202574610710144
0.523886680603027344 -0.2986183762550354 -0.318096518516540527
0.510078489780426025 -0.346964150667190552 -0.319642394781112671
0.270423322916030884 -0.169587388634681702 -0.0790669545531272888
0.13419748842716217 0.12000969797372818 0.329452961683273315
0.252225488424301147 -0.285312920808792114 0.328507721424102783
0.324855715036392212 -0.12050744891166687 0.311048120260238647
0.302828162908554077 -0.20469173789024353 0.251566052436828613
0.250502675771713257 -0.00407096883282065392 0.325487613677978516
0.507599294185638428 -0.343337118625640869 0.0880361571907997131
0.242164433002471924 0.0895930305123329163 0.310414552688598633
0.463209211826324463 -0.284195154905319214 -0.230606406927108765
-0.261739134788513184 0.313605576753616333 0.0461213365197181702
0.344492524862289429 -0.140267208218574524 0.329849660396575928
0.374242186546325684 -0.363984912633895874 -0.208174347877502441
0.338041961193084717 -0.129534706473350525 0.321096122264862061
0.526811718940734863 -0.347308307886123657 -0.323467046022415161
0.524579226970672607 -0.352163612842559814 -0.326021552085876465
0.480396777391433716 -0.372426450252532959 -0.312482208013534546
-0.35962909460067749 -0.0653715729713439941 0.0831296741962432861
-0.40708121657371521 0.0882988646626472473 -0.112859733402729034
0.0145882545039057732 0.0978083908557891846 0.217482313513755798
-0.378148794174194336 -0.0935285314917564392 -0.0280750785022974014
0.265899032354354858 0.0682284459471702576 -0.0912704616785049438
-0.107800610363483429 -0.0154592972248792648 0.046347200870513916
-0.357718139886856079 -0.0923735126852989197 0.01317643653601408
-0.289908736944198608 0.304389774799346924 0.166815072298049927
-0.355158239603042603 -0.0739250406622886658 0.0408820994198322296
-0.598174691200256348 0.294203460216522217 0.186821281909942627
0.249839618802070618 0.0965709760785102844 -0.0337624996900558472
0.379522919654846191 -0.355038851499557495 -0.20884472131729126
0.470094561576843262 -0.324946284294128418 0.138450771570205688
0.464807689189910889 -0.271988391876220703 -0.0924485400319099426
-0.439273446798324585 -0.0434572659432888031 0.0844746604561805725
-0.33594745397567749 -0.125151589512825012 0.127813786268234253
0.528623282909393311 -0.342106103897094727 0.0514957383275032043
0.393098682165145874 0.0469004511833190918 0.134133890271186829
-0.185442283749580383 0.313719451427459717 0.108114197850227356
-0.441230565309524536 -0.0433607771992683411 0.118035696446895599
0.537652850151062012 -0.326355546712875366 -0.05515308678150177
-0.352587759494781494 0.30597841739654541 0.114431403577327728
0.494450539350509644 -0.346293538808822632 0.0445852838456630707
-0.575158238410949707 0.304765194654464722 0.37958216667175293
0.431296765804290771 -0.281266152858734131 0.334104269742965698
-0.477263957262039185 0.00359567347913980484 0.164355069398880005
0.525267660617828369 -0.350051403045654297 -0.00208381190896034241
-0.0669171065092086792 -0.263239085674285889 0.298650532960891724
-0.511567533016204834 0.00415660487487912178 0.188288703560829163
0.390264928340911865 -0.360461026430130005 -0.215138897299766541
-0.118010863661766052 0.254048675298690796 0.0639602541923522949
-0.500079452991485596 0.00456660985946655273 0.193471670150756836
0.426780760288238525 -0.274768918752670288 0.331038028001785278
-0.333174914121627808 0.103786244988441467 -0.118208259344100952
-0.105367422103881836 0.253909140825271606 0.0939658433198928833
0.510997772216796875 -0.341857671737670898 -0.319119065999984741
-0.612452924251556396 0.302207767963409424 0.396474361419677734
-0.508641183376312256 0.0361525081098079681 0.188814133405685425
-0.29071083664894104 -0.0894991010427474976 -0.0783707350492477417
0.50985342264175415 -0.345136523246765137 -0.320544898509979248
0.072299860417842865 0.139033511281013489 0.072933979332447052
0.246014192700386047 0.106911115348339081 0.32186397910118103
0.473483026027679443 -0.286958396434783936 -0.230137184262275696
0.305608481168746948 -0.315003782510757446 0.332094907760620117
0.512067556381225586 -0.350204557180404663 -0.321571588516235352
-0.315003395080566406 -0.0873509049415588379 -0.0340322107076644897
0.514679431915283203 -0.355909496545791626 -0.322539269924163818
-0.624852538108825684 0.180052503943443298 -0.0858423411846160889
-0.353194832801818848 -0.0562197118997573853 -0.143723562359809875
-0.330813765525817871 0.269169658422470093 -0.054789762943983078
-0.176837056875228882 0.138576656579971313 0.00533541804179549217
0.545683443546295166 -0.217704653739929199 0.159648925065994263
0.0310564450919628143 0.102240554988384247 0.06576576828956604
0.510123848915100098 -0.331072181463241577 -0.318916410207748413
0.586131930351257324 -0.325372219085693359 -0.319519490003585815
0.250094711780548096 -0.288626492023468018 0.318728834390640259
0.255971521139144897 -0.00337626365944743156 0.328428685665130615
0.301908940076828003 -0.282883971929550171 0.331618577241897583
-0.343831121921539307 -0.0911787152290344238 0.0182041134685277939
-0.374022722244262695 -0.0903657451272010803 -0.0180358327925205231
-0.0649479180574417114 -0.27382957935333252 0.159616291522979736
-0.63010638952255249 0.275339335203170776 0.0762313604354858398
0.366986125707626343 -0.365808188915252686 -0.21174873411655426
-0.123964659869670868 -0.0295037291944026947 -0.00629824306815862656
-0.598195433616638184 0.342001974582672119 0.0908147320151329041
0.444272071123123169 -0.249624699354171753 -0.285760253667831421
0.383028417825698853 -0.348287135362625122 -0.211610004305839539
0.312790960073471069 -0.37292817234992981 -0.155649185180664062
-0.179074347019195557 0.312362551689147949 0.100309334695339203
0.535416245460510254 -0.31954386830329895 -0.0319630242884159088
-0.654803812503814697 0.23807777464389801 0.014362492598593235
-0.452692776918411255 -0.0542963966727256775 0.163480609655380249
0.500257432460784912 -0.3488503098487854 0.0718022733926773071
0.4408302903175354 -0.261214464902877808 0.33471950888633728
0.507539331912994385 -0.344063818454742432 0.0303540509194135666
0.264925837516784668 0.12134193629026413 0.0276257339864969254
0.400200426578521729 0.0323026292026042938 0.140298336744308472
-0.105980686843395233 0.252313137054443359 0.0730027630925178528
0.317043066024780273 -0.380953490734100342 -0.156525924801826477
-0.566267192363739014 0.295237630605697632 -0.0511221103370189667
0.390722692012786865 -0.362975507974624634 -0.22051963210105896
0.359392404556274414 0.0332190170884132385 0.0490980669856071472
0.195001408457756042 -0.365719705820083618 -0.0954236835241317749
0.391598492860794067 -0.355903029441833496 -0.216644465923309326
0.519992232322692871 -0.335372984409332275 -0.3220653235912323
0.523194730281829834 -0.333557933568954468 -0.323506355285644531
0.244696497917175293 0.0238338038325309753 0.324353009462356567
0.212839260697364807 -0.338906973600387573 0.318893969058990479
0.237511098384857178 0.105764284729957581 0.315435200929641724
0.521951615810394287 -0.33728182315826416 -0.325155764818191528
0.318541407585144043 -0.380065679550170898 -0.150680303573608398
0.584459424018859863 -0.318250536918640137 -0.333734571933746338
-0.380634725093841553 -0.093804478645324707 -0.0175427664071321487
0.458594739437103271 -0.325776219367980957 0.125468403100967407
0.389273911714553833 0.0533230341970920563 0.132125571370124817
-0.173307150602340698 0.306966394186019897 0.106190584599971771
-0.461835116147994995 -0.0304793603718280792 0.134725615382194519
0.439968407154083252 -0.261798620223999023 0.335497289896011353
0.40061613917350769 0.0244993064552545547 0.128432691097259521
0.42765045166015625 -0.263943791389465332 0.332427144050598145
-0.509424746036529541 0.00387921021319925785 0.191077813506126404
-0.130632549524307251 0.253278613090515137 0.0818956643342971802
-0.283520728349685669 0.335436046123504639 0.0345566719770431519
0.455648720264434814 -0.259822875261306763 0.337024301290512085
-0.33040153980255127 0.097455151379108429 -0.117408357560634613
-0.508142709732055664 0.0356661304831504822 0.188771158456802368
0.258477002382278442 0.00720495264977216721 0.327923119068145752
0.446224033832550049 -0.256339788436889648 0.334209442138671875
0.236653268337249756 0.108772069215774536 0.309207886457443237
0.302823513746261597 -0.329491734504699707 0.334733188152313232
-0.320090502500534058 0.266580939292907715 -0.0466775670647621155
-0.132993012666702271 -0.268953025341033936 -0.004647823516279459
-0.376735448837280273 -0.075870223343372345 0.0241162441670894623
-0.375351935625076294 -0.0639159306883811951 -0.159787818789482117
-0.494486242532730103 -0.0231570079922676086 0.174021780490875244
-0.527460336685180664 -0.00727225374430418015 0.186874151229858398
0.382454901933670044 -0.366769790649414062 -0.218708574771881104
0.389520347118377686 -0.330424904823303223 0.186962157487869263
-0.577579259872436523 0.291515737771987915 -0.0406040474772453308
0.242059856653213501 0.0881547331809997559 -0.0389828383922576904
0.374926120042800903 -0.351641148328781128 -0.209293261170387268
0.187663450837135315 0.107623070478439331 0.00227378308773040771
-0.341354817152023315 0.272673457860946655 -0.0516132600605487823
0.532751739025115967 -0.353982537984848022 0.0538722798228263855
-0.11335436999797821 0.184973150491714478 0.354777693748474121
-0.215361282229423523 0.313050031661987305 0.112320505082607269
0.470749229192733765 -0.305217951536178589 -0.235216990113258362
0.536726832389831543 -0.321141988039016724 -0.0257451962679624557
-0.26590496301651001 0.309653908014297485 0.0456338487565517426
0.279262542724609375 0.00813483819365501404 -0.0268029477447271347
0.38484308123588562 -0.362352639436721802 -0.216425240039825439
0.0283744819462299347 -0.0958604365587234497 0.0191566683351993561
-0.41648450493812561 -0.0580695085227489471 0.133329600095748901
0.38553231954574585 -0.28779253363609314 -0.109114475548267365
0.382540225982666016 -0.363411426544189453 -0.219009071588516235
0.200211271643638611 -0.366623729467391968 -0.0956512689590454102
0.387999475002288818 -0.354304522275924683 -0.216062530875205994
0.512007415294647217 -0.337039947509765625 -0.319344907999038696
0.513316333293914795 -0.33680233359336853 -0.32152712345123291
0.233548730611801147 0.0339436754584312439 0.319199204444885254
0.242317929863929749 0.0887310951948165894 0.310282975435256958
0.362977713346481323 -0.283196985721588135 0.31654784083366394
0.530759096145629883 -0.346640914678573608 -0.329575777053833008
0.201050952076911926 -0.190713346004486084 -0.0713535696268081665
-0.19249957799911499 0.133226498961448669 0.00918907485902309418
0.321514517068862915 -0.374632179737091064 -0.158089056611061096
0.204906061291694641 -0.325909346342086792 0.316116362810134888
0.323169231414794922 -0.277836859226226807 0.317613840103149414
-0.49899628758430481 0.0158187802881002426 0.18392607569694519
0.347819238901138306 -0.273227483034133911 -0.131728470325469971
0.245255738496780396 0.0211133603006601334 0.322105467319488525
0.195887863636016846 -0.167652130126953125 -0.0673175975680351257
0.0380751900374889374 0.131286785006523132 0.105857513844966888
-0.454643160104751587 -0.0511968433856964111 0.155064210295677185
-0.139917716383934021 0.268972784280776978 0.0802141726016998291
0.540256023406982422 -0.226450502872467041 0.173297330737113953
0.236760526895523071 0.104141652584075928 0.309800893068313599
-0.452168285846710205 -0.027904922142624855 0.124284684658050537
-0.50899195671081543 0.000952784495893865824 0.17354816198348999
0.236686185002326965 0.0833564922213554382 0.311048775911331177
-0.487580448389053345 -0.0233749113976955414 0.177920311689376831
-0.519933164119720459 -0.0022227955050766468 0.187018007040023804
-0.0832147747278213501 0.0734391584992408752 0.0423708334565162659
0.36828315258026123 -0.0231165830045938492 -0.081590801477432251
-0.23152536153793335 0.0467586256563663483 -0.0682863891124725342
0.495368033647537231 -0.341316759586334229 -0.449305444955825806
-0.627661526203155518 0.291613012552261353 0.175760149955749512
-0.111063972115516663 0.153162509202957153 0.049618113785982132
0.523071110248565674 -0.345064222812652588 -0.0204408764839172363
-0.582902491092681885 0.374059855937957764 0.185315355658531189
-0.185507327318191528 0.31282380223274231 0.131993427872657776
0.0276341233402490616 -0.125503689050674438 -0.0343200638890266418
0.320551693439483643 0.0747340843081474304 -0.106868952512741089
-0.0370832793414592743 0.156408756971359253 0.385637730360031128
0.476795077323913574 -0.308263719081878662 -0.226701155304908752
0.496463268995285034 -0.291280835866928101 -0.167277619242668152
0.449941426515579224 -0.255441278219223022 0.333339929580688477
0.507123470306396484 -0.359406083822250366 0.0423612408339977264
0.425695866346359253 -0.285882174968719482 0.330089330673217773
0.504240512847900391 -0.347761571407318115 0.020274575799703598
0.400670528411865234 -0.344853848218917847 -0.215323209762573242
-0.48975527286529541 0.0468335635960102081 -0.0937946513295173645
-0.127706736326217651 0.260686725378036499 0.079058818519115448
0.326792895793914795 -0.372893661260604858 -0.154553264379501343
0.320020318031311035 -0.293438971042633057 -0.131833568215370178
0.433932036161422729 -0.296264231204986572 0.333551377058029175
0.410017579793930054 -0.356358438730239868 -0.225387424230575562
0.223986610770225525 -0.33677363395690918 0.318201363086700439
0.240659460425376892 0.0879441350698471069 0.309561192989349365
0.369111865758895874 -0.322261542081832886 0.320542842149734497
0.521568059921264648 -0.358620762825012207 -0.32534182071685791
-0.259766191244125366 -0.146038293838500977 -0.0596004649996757507
0.527483522891998291 -0.340237349271774292 0.0356139577925205231
-0.243284136056900024 0.0739956498146057129 0.00768173346295952797
0.19819563627243042 -0.336428523063659668 0.316339552402496338
0.467401176691055298 -0.274932742118835449 0.33935171365737915
-0.502599895000457764 0.00370761333033442497 0.187823027372360229
0.452979207038879395 -0.279771864414215088 0.333160221576690674
-0.455760449171066284 -0.0536170750856399536 0.162562131881713867
-0.502555191516876221 0.00300324358977377415 0.188812628388404846
-0.640325307846069336 0.297488361597061157 0.419498980045318604
0.541233539581298828 -0.216207653284072876 0.154041945934295654
-0.498795151710510254 0.00189841317478567362 0.188196733593940735
0.160696595907211304 -0.273232877254486084 -0.0720030292868614197
-0.337913155555725098 0.283849418163299561 0.126863405108451843
0.200182795524597168 -0.232087418437004089 -0.00382159254513680935
-0.348653107881546021 -0.081243269145488739 -0.0459871441125869751
-0.349193930625915527 0.291018962860107422 0.202544316649436951
-0.36412656307220459 -0.0985909327864646912 -0.0308232586830854416
0.371762931346893311 -0.375675827264785767 -0.215210214257240295
-0.576222777366638184 0.308060228824615479 -0.0509360283613204956
-0.138999342918395996 -0.0330114588141441345 -0.0185501035302877426
0.386379748582839966 -0.342911660671234131 -0.213879182934761047
-0.584595918655395508 0.372643351554870605 0.185290038585662842
-0.180722177028656006 -0.115879595279693604 -0.0526808127760887146
-0.445340096950531006 -0.0466681458055973053 0.0958627983927726746
-0.34288826584815979 -0.118364408612251282 0.102564327418804169
-0.188391074538230896 0.302532434463500977 0.0972320139408111572
0.409228265285491943 -0.356116205453872681 -0.223984658718109131
-0.279207676649093628 0.336646795272827148 0.0431071184575557709
0.475105613470077515 -0.311199754476547241 -0.230100944638252258
0.515019893646240234 -0.354874104261398315 0.055307433009147644
0.500994980335235596 -0.362365573644638062 0.0771638229489326477
-0.197330504655838013 -0.242478534579277039 -0.0304708294570446014
-0.478895723819732666 -0.0023211317602545023 0.166877403855323792
0.534743905067443848 -0.351026266813278198 0.0664919614791870117
0.390091627836227417 -0.350456178188323975 -0.213236793875694275
0.458201318979263306 -0.301979184150695801 -0.222623676061630249
0.35130658745765686 -0.277114033699035645 -0.102309197187423706
-0.0863910913467407227 -0.142089933156967163 -0.0336205773055553436
0.0182689502835273743 -0.136831656098365784 -0.0234406162053346634
0.206177279353141785 -0.345504909753799438 -0.0868287011981010437
0.458174824714660645 0.0434524230659008026 0.17863328754901886
0.448967993259429932 0.0662269070744514465 0.193559437990188599
0.349797189235687256 -0.344917863607406616 0.321352362632751465
0.206949248909950256 -0.357530683279037476 -0.0925808623433113098
-0.385391741991043091 -0.0949868634343147278 0.0599872879683971405
0.437369823455810547 -0.281786829233169556 0.334792375564575195
-0.49705350399017334 0.0155816953629255295 0.169724166393280029
0.374777019023895264 -0.303846746683120728 -0.145450890064239502
0.442568868398666382 -0.27799910306930542 0.334159880876541138
-0.446915268898010254 -0.0404994338750839233 0.124990858137607574
-0.501892268657684326 0.0141435572877526283 0.180730268359184265
-0.387365579605102539 -0.0786150470376014709 -0.169869139790534973
-0.484824836254119873 -0.0215330403298139572 0.17656157910823822
-0.23255564272403717 0.0241912361234426498 -0.0588605776429176331
-0.095446169376373291 0.210418641567230225 0.372391939163208008
0.433653086423873901 -0.257492125034332275 0.331429123878479004
0.381177991628646851 -0.134961962699890137 0.332049459218978882
0.454011976718902588 -0.269590884447097778 0.338609516620635986
-0.354996979236602783 -0.065213322639465332 -0.00522434478625655174
-0.383758872747421265 0.0151258157566189766 -0.204297453165054321
-0.130130469799041748 -0.080369219183921814 0.083030015230178833
-0.582128047943115234 0.327356636524200439 0.0140474354848265648
-0.0122958039864897728 -0.231172308325767517 0.0824381113052368164
-0.45357021689414978 0.125850126147270203 -0.0538548529148101807
0.205601289868354797 -0.219060167670249939 0.0605039224028587341
-0.100029632449150085 -0.135834142565727234 0.119391292333602905
-0.583656728267669678 0.305340230464935303 -0.0473700165748596191
-0.336919784545898438 0.0171704404056072235 0.0195845477283000946
-0.448931515216827393 0.133963048458099365 -0.053313128650188446
0.174549892544746399 -0.272970736026763916 -0.00310909748077392578
-0.565003335475921631 0.334460794925689697 -0.000698546355124562979
0.526294529438018799 -0.0555611103773117065 -0.309223711490631104
0.397788524627685547 -0.367627173662185669 -0.216722965240478516
-0.655953943729400635 0.171147584915161133 -0.112311400473117828
-0.440065503120422363 -0.0645259469747543335 0.129113227128982544
0.526150286197662354 -0.361194849014282227 0.0422685965895652771
0.541408360004425049 -0.311167806386947632 -0.0439038947224617004
-0.175492525100708008 0.308841824531555176 0.118652224540710449
-0.27774009108543396 0.337547570466995239 0.0471940487623214722
0.47624737024307251 -0.315704435110092163 -0.239066854119300842
-0.664737284183502197 0.226928532123565674 0.0232842806726694107
0.503126263618469238 -0.302319347858428955 -0.178413048386573792
-0.15809062123298645 -0.263870298862457275 0.182474255561828613
-0.476342201232910156 -0.00865835137665271759 0.16649763286113739
0.0100876027718186378 0.197332084178924561 0.0279554761946201324
0.315182894468307495 -0.302434861660003662 -0.126303896307945251
0.186742648482322693 -0.142580464482307434 -0.10526372492313385
0.253624051809310913 -0.00805441476404666901 0.327936738729476929
