ply
format ascii 1.0
element vertex 738
property float x
property float y
property float z
end_header
-0.389431595802307129 0.274657905101776123 -0.0843394473195075989
0.34351763129234314 -0.134871035814285278 0.318831652402877808
-0.498690009117126465 0.206404253840446472 -0.0118240844458341599
-0.346063673496246338 0.292381197214126587 -0.0503591559827327728
0.525615990161895752 -0.361391901969909668 0.0417556613683700562
-0.540031015872955322 0.21475653350353241 0.200865134596824646
-0.569343507289886475 0.293963998556137085 -0.00339235831052064896
0.316398739814758301 0.0234764907509088516 0.0486965104937553406
0.481663405895233154 -0.307424694299697876 -0.303673654794692993
0.479348868131637573 -0.326603174209594727 0.125352159142494202
0.522830963134765625 -0.307368576526641846 -0.0987274423241615295
0.490016907453536987 -0.311194688081741333 -0.307433247566223145
0.515862643718719482 -0.325334727764129639 0.119819998741149902
0.444195389747619629 -0.300609558820724487 -0.29066699743270874
0.52284848690032959 -0.304918736219406128 -0.0973902866244316101
0.134142026305198669 0.116151116788387299 0.336944252252578735
-0.642506003379821777 0.242174983024597168 -0.00967061426490545273
-0.292910844087600708 -0.11435747891664505 -0.105835996568202972
0.538889050483703613 -0.255788445472717285 0.0921752378344535828
0.128998517990112305 0.0973612964153289795 0.317218989133834839
-0.235525786876678467 -0.143996551632881165 -0.0714935958385467529
0.252239912748336792 0.0297571402043104172 -0.0860317498445510864
0.530596077442169189 -0.32348102331161499 0.00680825347080826759
-0.599427700042724609 0.306938201189041138 0.104265220463275909
0.53174823522567749 -0.244959771633148193 0.0865260586142539978
-0.374325752258300781 -0.0612745620310306549 0.0921788886189460754
0.526201069355010986 -0.275686770677566528 -0.123269215226173401
-0.501319050788879395 0.148372471332550049 0.352864950895309448
0.38483390212059021 -0.297923356294631958 0.13179856538772583
0.132390603423118591 -0.332384109497070312 -0.100550293922424316
0.52238994836807251 -0.355214953422546387 -0.0149568449705839157
-0.43663373589515686 0.150042712688446045 -0.0852012932300567627
0.51540839672088623 -0.300423651933670044 0.0646826699376106262
0.392730712890625 -0.368285715579986572 -0.213728025555610657
0.500208854675292969 -0.17173275351524353 0.130013838410377502
0.532865822315216064 -0.33434566855430603 0.0283666271716356277
-0.579991400241851807 0.34842333197593689 0.0400523431599140167
0.519621908664703369 -0.241343185305595398 -0.308720558881759644
-0.601088523864746094 0.370214998722076416 0.104417361319065094
-0.500821590423583984 0.146743983030319214 0.355070233345031738
0.233671784400939941 -0.278106421232223511 0.317328214645385742
-0.181647881865501404 -0.137476712465286255 -0.0557721741497516632
-0.228683531284332275 -0.138447567820549011 -0.0536626279354095459
-0.204383015632629395 0.298025220632553101 0.126485511660575867
0.262217164039611816 -0.289915770292282104 0.323628216981887817
-0.362529844045639038 -0.0309635736048221588 0.119396701455116272
-0.50033259391784668 0.018980611115694046 0.0316944904625415802
0.242694362998008728 -9.96967573883011937e-05 0.322194784879684448
0.141056790947914124 -0.290700316429138184 0.311656355857849121
0.307814329862594604 -0.207779824733734131 0.248143807053565979
-0.386235296726226807 0.254428058862686157 0.0341302864253520966
0.530760705471038818 -0.26257401704788208 0.1029013991355896
0.223924502730369568 0.0225408580154180527 0.305340051651000977
0.530251502990722656 -0.147795125842094421 -0.308248013257980347
-0.645026683807373047 0.230952143669128418 -0.047714821994304657
0.540901482105255127 -0.3112945556640625 -0.0444692298769950867
0.507455408573150635 -0.268168866634368896 -0.311502188444137573
0.513930141925811768 -0.316521525382995605 -0.295095860958099365
0.45848575234413147 -0.291291356086730957 -0.296593904495239258
-0.543253779411315918 0.267686605453491211 -0.189570024609565735
-0.621548771858215332 0.288572639226913452 0.0664379820227622986
0.363100111484527588 -0.38461536169052124 -0.20615212619304657
-0.0925830304622650146 0.266972124576568604 0.189118370413780212
-0.448661327362060547 0.130828782916069031 -0.208986565470695496
-0.575615763664245605 0.203356772661209106 -0.127315059304237366
-0.630244195461273193 0.191309094429016113 -0.0401362292468547821
-0.469963550567626953 0.138472557067871094 -0.231294110417366028
0.257447242736816406 -0.0173230469226837158 -0.0722170174121856689
0.230347305536270142 0.0536242909729480743 -0.0453135669231414795
0.112961255013942719 0.109561219811439514 0.301473826169967651
-0.584283769130706787 0.217951267957687378 -0.221676528453826904
-0.598358035087585449 0.234839513897895813 -0.0110153695568442345
-0.367305576801300049 -0.0921383723616600037 0.122658558189868927
-0.33031153678894043 -0.125759780406951904 0.137116014957427979
-0.634771823883056641 0.199227988719940186 -0.038553532212972641
-0.425959289073944092 -0.0553165040910243988 0.0990479588508605957
-0.478320062160491943 0.0197248551994562149 -0.0367595329880714417
0.208509474992752075 0.00841479841619729996 0.300717055797576904
-0.634330928325653076 0.247703418135643005 -0.00624330062419176102
-0.12816174328327179 0.26960301399230957 0.131987765431404114
0.270752787590026855 -0.330532073974609375 0.180026084184646606
0.532683610916137695 -0.210430443286895752 -0.098897203803062439
-0.126774773001670837 -0.11301085352897644 -0.0550023838877677917
0.453789353370666504 -0.339266330003738403 -0.298117637634277344
-0.212858125567436218 0.0358692221343517303 -0.0599076785147190094
-0.553356170654296875 0.1754036545753479 0.0125562930479645729
-0.198713034391403198 0.139313176274299622 0.0208952594548463821
-0.0128301503136754036 -0.10281536728143692 -0.043154984712600708
0.264446467161178589 -0.275124669075012207 0.202372193336486816
0.348337709903717041 -0.321363180875778198 -0.000110190703708212823
-0.156157359480857849 0.0694918930530548096 0.0272954534739255905
-0.249407589435577393 0.130439534783363342 -0.0346792526543140411
0.198948994278907776 0.00147540855687111616 0.0189147181808948517
0.0762046873569488525 0.0806597322225570679 0.0237294379621744156
-0.283565640449523926 0.287921339273452759 -0.00620076525956392288
0.476559281349182129 -0.290182530879974365 -0.30174979567527771
-0.55701601505279541 0.265386432409286499 -0.0175083242356777191
-0.237610653042793274 0.097288377583026886 -0.0326906107366085052
0.137560024857521057 -0.281096279621124268 0.149944007396697998
0.296052724123001099 -0.297623187303543091 0.056829940527677536
-0.286186814308166504 0.256907522678375244 0.000290462427074089646
-0.0212865695357322693 -0.0405980758368968964 0.0887899696826934814
0.204348117113113403 0.042577594518661499 0.0655349865555763245
-0.144010141491889954 -0.0854909047484397888 0.0915170237421989441
0.372253835201263428 -0.07357034832239151 0.031458631157875061
0.52099078893661499 -0.199364468455314636 -0.0985913202166557312
0.486703217029571533 -0.298184305429458618 -0.305406361818313599
0.480073601007461548 -0.315061569213867188 0.122248269617557526
0.513209223747253418 -0.307479798793792725 -0.102477379143238068
0.495625287294387817 -0.309818387031555176 -0.309773564338684082
0.505777120590209961 -0.328088849782943726 -0.00419521704316139221
0.511364638805389404 -0.324770182371139526 0.118283294141292572
0.465487807989120483 -0.289081275463104248 -0.296605944633483887
0.43760371208190918 -0.263727456331253052 -0.194365665316581726
0.134949639439582825 0.116798542439937592 0.336860090494155884
0.396210014820098877 -0.244496986269950867 0.318700909614562988
-0.60176616907119751 0.353969931602478027 0.065297245979309082
-0.505341053009033203 0.356873869895935059 0.17807556688785553
0.542257606983184814 -0.282745599746704102 0.0978466644883155823
0.256188392639160156 0.0367227457463741302 -0.0722334533929824829
-0.233398705720901489 0.155654773116111755 -0.00553909968584775925
0.505766987800598145 -0.332256615161895752 -0.00261787907220423222
0.444411128759384155 -0.250323742628097534 -0.228082403540611267
-0.639332175254821777 0.254198729991912842 0.0543282777070999146
0.532238006591796875 -0.262911766767501831 0.0931610539555549622
-0.393503934144973755 -0.0596457198262214661 0.100237369537353516
0.523512303829193115 -0.289939671754837036 -0.0921732932329177856
0.0276210140436887741 -0.274488627910614014 -0.0354978404939174652
0.384796410799026489 -0.306263595819473267 0.118723362684249878
-0.582440376281738281 0.366525620222091675 0.131482511758804321
0.240003928542137146 0.00281163165345788002 0.180972188711166382
-0.113252140581607819 0.165318965911865234 0.347306907176971436
0.481783092021942139 -0.36863437294960022 -0.0221396218985319138
0.411833643913269043 -0.321479439735412598 -0.211108043789863586
0.506936371326446533 -0.155696466565132141 0.1239280104637146
0.52841639518737793 -0.334982752799987793 0.0127392653375864029
-0.584396243095397949 0.33610495924949646 0.033876858651638031
-0.591016411781311035 0.381625175476074219 0.131038427352905273
0.525913357734680176 -0.244703575968742371 -0.310694724321365356
0.474027514457702637 -0.291103929281234741 -0.299501299858093262
-0.597489237785339355 0.353415310382843018 0.169444426894187927
-0.587599217891693115 0.371157318353652954 0.100883066654205322
-0.212495237588882446 -0.129952192306518555 -0.0578915886580944061
0.23399682343006134 -0.293205142021179199 0.314897686243057251
0.237834542989730835 0.0670419484376907349 0.319925546646118164
0.541455328464508057 -0.314138054847717285 -0.0581900626420974731
-0.445096254348754883 -0.0487648285925388336 0.126884475350379944
0.359139472246170044 -0.388694912195205688 -0.209098324179649353
-0.556887149810791016 0.210819527506828308 -0.113886356353759766
0.520414769649505615 -0.279869675636291504 -0.177183255553245544
0.241682335734367371 0.0346829332411289215 0.314411759376525879
0.242506802082061768 0.000320523744449019432 0.0235000215470790863
0.380403697490692139 0.0387506894767284393 0.0117651280015707016
0.526387274265289307 -0.230998441576957703 -0.310201585292816162
0.326734662055969238 0.0960946753621101379 -0.0360652357339859009
-0.374670147895812988 -0.0606976747512817383 -0.133098140358924866
0.512557446956634521 -0.167697802186012268 0.135822534561157227
-0.574770033359527588 0.32170906662940979 0.0492486134171485901
-0.559306800365447998 0.283194005489349365 0.363905072212219238
0.224171578884124756 0.0318266525864601135 -0.0583641901612281799
-0.574670970439910889 0.214265525341033936 -0.221310332417488098
-0.0445481576025485992 0.156423524022102356 0.0809586793184280396
0.1138567253947258 0.109948597848415375 0.0252335239201784134
0.342360436916351318 -0.247229099273681641 -0.0969856083393096924
-0.285356849431991577 0.300127983093261719 -0.00309246685355901718
0.15303175151348114 -0.00450780522078275681 -0.00375528773292899132
0.0688310936093330383 0.138728424906730652 0.0754327848553657532
-0.27035146951675415 0.279886305332183838 0.00143462943378835917
0.502954006195068359 -0.29291301965713501 -0.15942557156085968
0.136690288782119751 -0.0259416401386260986 0.0129302283748984337
-0.339449763298034668 -0.0323635227978229523 0.0225954391062259674
0.373062610626220703 -0.0919663757085800171 0.0441756956279277802
0.199705183506011963 0.101175099611282349 -0.00200818362645804882
-0.297682017087936401 -0.0253796093165874481 0.0357287004590034485
0.131488025188446045 -0.017945561558008194 -0.0262808781117200851
0.101151019334793091 0.0159446895122528076 0.0910268425941467285
0.175449907779693604 0.119279161095619202 0.0378326959908008575
-0.230921044945716858 -0.0639828145503997803 0.104459494352340698
0.485686779022216797 -0.297046780586242676 -0.303634673357009888
-0.603475332260131836 0.289232492446899414 0.18490678071975708
0.466798603534698486 -0.308937311172485352 0.120004162192344666
0.37795063853263855 -0.0145632997155189514 0.00625320617109537125
0.513959884643554688 -0.295611649751663208 -0.103569351136684418
0.518455266952514648 -0.240090563893318176 -0.307702541351318359
0.477521121501922607 -0.310113906860351562 -0.300390899181365967
0.482993185520172119 -0.274891883134841919 -0.300017237663269043
0.117009498178958893 0.118686243891716003 0.29741784930229187
-0.584463953971862793 0.356033504009246826 0.0655162259936332703
0.383340179920196533 -0.337559968233108521 0.12541566789150238
-0.574756264686584473 0.317357838153839111 -0.0268530137836933136
-0.604772686958312988 0.216796323657035828 -0.08718833327293396
0.267456561326980591 0.0391170904040336609 -0.0864252746105194092
-0.3568306565284729 -0.022595088928937912 -0.131393030285835266
-0.564560055732727051 0.313992530107498169 -0.00820912979543209076
0.190248981118202209 -0.341126292943954468 -0.074932388961315155
0.403757631778717041 -0.35798192024230957 -0.224161908030509949
-0.500570833683013916 0.145327717065811157 0.354414105415344238
0.50923842191696167 -0.151659056544303894 0.114900045096874237
0.496459990739822388 -0.264297932386398315 -0.304499238729476929
0.457574695348739624 -0.281249076128005981 -0.289858162403106689
0.440544664859771729 -0.265319406986236572 -0.283820152282714844
-0.58828204870223999 0.357137203216552734 0.0614293590188026428
0.504852533340454102 -0.126968592405319214 0.124317631125450134
-0.206483125686645508 0.312181442975997925 0.108465053141117096
0.267806649208068848 -0.284226655960083008 0.319087028503417969
0.232296332716941833 0.00343962595798075199 0.31771579384803772
0.512874245643615723 -0.17600935697555542 -0.281866073608398438
-0.115573368966579437 0.00963236857205629349 0.0056432248093187809
0.403489291667938232 -0.360011458396911621 -0.224785298109054565
0.417223095893859863 -0.313483625650405884 0.143678024411201477
-0.555734694004058838 0.376188606023788452 0.186504557728767395
-0.175898745656013489 0.308869212865829468 0.118145875632762909
-0.390027403831481934 0.275628834962844849 -0.0853407680988311768
0.364976853132247925 0.0516914390027523041 0.0244654007256031036
0.128977060317993164 0.115585587918758392 0.318653464317321777
-0.286954790353775024 -0.101031415164470673 -0.0922789648175239563
0.257865816354751587 0.100755959749221802 -0.0622120536863803864
-0.361683100461959839 -0.0602578744292259216 -0.144360363483428955
0.133927032351493835 0.113549776375293732 0.337604165077209473
-0.563444077968597412 0.198915943503379822 -0.229284852743148804
-0.276677429676055908 0.287652462720870972 -0.00119865476153790951
0.454502761363983154 -0.246808320283889771 -0.288405925035476685
0.459839463233947754 -0.275779545307159424 -0.29092523455619812
-0.635135948657989502 0.30785861611366272 0.170107409358024597
0.512084305286407471 -0.317761361598968506 -0.0386649742722511292
0.468548357486724854 -0.26617780327796936 -0.29805368185043335
0.477755486965179443 -0.295405745506286621 -0.300326883792877197
0.457759767770767212 -0.246592730283737183 -0.289976775646209717
0.380723565816879272 -0.36134183406829834 -0.213979989290237427
-0.479782283306121826 -0.0129103958606719971 0.185638964176177979
-0.516713917255401611 0.365448296070098877 0.173774272203445435
-0.618862032890319824 0.201689794659614563 -0.0874486342072486877
-0.237665772438049316 0.018445916473865509 -0.0728000402450561523
-0.382978916168212891 -0.0594394542276859283 0.0234841890633106232
0.474466234445571899 -0.368615686893463135 0.0217306334525346756
-0.649559915065765381 0.236437022686004639 0.0319566130638122559
0.412184149026870728 -0.347077041864395142 -0.22175733745098114
0.525668501853942871 -0.337406903505325317 0.0799880251288414001
0.505651533603668213 -0.239390924572944641 -0.308164447546005249
0.249165862798690796 -0.282412022352218628 0.318139851093292236
0.23898923397064209 0.0664717480540275574 0.314470082521438599
0.53917229175567627 -0.302143245935440063 -0.0937478840351104736
-0.448247611522674561 -0.0417659208178520203 0.12631574273109436
-0.0440870001912117004 0.104310967028141022 0.31757768988609314
0.247730866074562073 0.02092716284096241 0.322046190500259399
-0.285278052091598511 -0.100164517760276794 -0.0992972403764724731
-0.138116717338562012 -0.0154119329527020454 -0.0490663163363933563
-0.278119474649429321 0.337527006864547729 0.0467009022831916809
-0.254974782466888428 0.289566963911056519 -0.00352720404043793678
-0.219150334596633911 0.321584552526473999 0.0695554167032241821
-0.573576867580413818 0.151912331581115723 -0.0747581720352172852
-0.29020652174949646 0.292359709739685059 0.0157522484660148621
0.525237202644348145 -0.320929557085037231 0.0271003544330596924
0.345812320709228516 -0.0306755714118480682 -0.034612853080034256
0.521851301193237305 -0.363172233104705811 0.0893233492970466614
-0.0836696550250053406 -0.112110480666160583 0.0782578885555267334
-0.404209166765213013 0.325703442096710205 0.120948143303394318
0.50435948371887207 -0.367356270551681519 -0.00456254510208964348
-0.118941202759742737 0.265858292579650879 0.120675094425678253
0.518331050872802734 -0.343224316835403442 0.0357698500156402588
0.129891857504844666 -0.334889203310012817 0.301123857498168945
0.466243982315063477 -0.311294972896575928 0.0723827481269836426
0.482471108436584473 -0.374269664287567139 0.0522514954209327698
0.420798957347869873 -0.0262067802250385284 0.064745195209980011
0.493753820657730103 -0.3638172447681427 -0.0156120900064706802
-0.233205661177635193 0.286852508783340454 0.0838531851768493652
0.530827701091766357 -0.332039862871170044 -0.00730069028213620186
-0.272186756134033203 0.315085053443908691 0.113681100308895111
0.307982742786407471 0.00243905954994261265 0.046150553971529007
0.467030823230743408 -0.263784706592559814 -0.296125859022140503
0.473443418741226196 -0.304558664560317993 0.114158771932125092
0.51077955961227417 -0.313945025205612183 -0.104466341435909271
0.508798778057098389 -0.245740532875061035 -0.308482766151428223
0.447556018829345703 -0.292881906032562256 -0.29281848669052124
0.465991079807281494 -0.283650517463684082 -0.297329843044281006
0.13815934956073761 0.112668916583061218 0.33654513955116272
-0.652378618717193604 0.285428553819656372 0.0977494865655899048
-0.638595223426818848 0.244502261281013489 -0.0384725257754325867
0.136125162243843079 0.0691519454121589661 0.337676316499710083
-0.577362775802612305 0.303475022315979004 -0.0558491088449954987
0.262233376502990723 0.0302990991622209549 -0.0736349299550056458
0.541588902473449707 -0.216950058937072754 0.111485905945301056
-0.360467284917831421 -0.0362389758229255676 -0.134569883346557617
-0.574996232986450195 0.327161520719528198 -0.0298625677824020386
-0.36217150092124939 -0.0713881179690361023 -0.0342262648046016693
-0.131002128124237061 -0.267976343631744385 0.118882216513156891
0.494724571704864502 -0.366108179092407227 -0.000447579164756461978
0.373414158821105957 -0.359737813472747803 -0.210148259997367859
-0.378782778978347778 -0.107348479330539703 0.101087704300880432
-0.0675046294927597046 -0.264334738254547119 0.296327859163284302
0.519478976726531982 -0.243694603443145752 -0.309501439332962036
0.509063124656677246 -0.330835849046707153 0.0151935406029224396
-0.593588769435882568 0.368696838617324829 0.12029903382062912
-0.655682384967803955 0.175339072942733765 -0.103287123143672943
-0.223443552851676941 -0.14459700882434845 -0.0539681278169155121
-0.191477447748184204 0.316367536783218384 0.100418239831924438
0.256267637014389038 -0.283701926469802856 0.31957542896270752
0.238946303725242615 0.0321133807301521301 0.318948656320571899
-0.120473504066467285 -0.0464169904589653015 0.00704921921715140343
-0.641816854476928711 0.308359265327453613 0.101601183414459229
0.364297628402709961 -0.37428399920463562 -0.207065820693969727
0.537377774715423584 -0.217956945300102234 0.161767825484275818
-0.552966952323913574 0.38218003511428833 0.15768878161907196
-0.122727081179618835 0.259072870016098022 0.114808455109596252
0.119243219494819641 0.10231095552444458 0.0892081037163734436
-0.375701904296875 0.265474170446395874 -0.0898771286010742188
0.516486823558807373 -0.349316209554672241 0.0986885428428649902
-0.293943107128143311 -0.107635498046875 -0.109548658132553101
0.274778783321380615 0.102811381220817566 -0.0578476265072822571
-0.575403332710266113 0.219176709651947021 -0.212905988097190857
-0.115755423903465271 0.268371701240539551 0.179495528340339661
0.235622778534889221 -0.288187980651855469 0.314257413148880005
0.309813648462295532 -0.187507942318916321 0.240903556346893311
0.541358292102813721 -0.326129168272018433 -0.0209965705871582031
0.0785688683390617371 -0.338006883859634399 0.282065153121948242
-0.00679737608879804611 -0.172172293066978455 0.0040157269686460495
-0.282506704330444336 0.261414885520935059 0.00672793947160243988
0.51273345947265625 -0.237463191151618958 -0.309498190879821777
-0.647186279296875 0.277978569269180298 0.07927703857421875
-0.646610021591186523 0.18285369873046875 -0.0911371335387229919
0.513700604438781738 -0.322791993618011475 0.0242045018821954727
-0.407318919897079468 -0.0640409663319587708 0.113282456994056702
0.516414821147918701 -0.355999559164047241 -0.0207037907093763351
-0.56678396463394165 0.374054193496704102 0.152197360992431641
0.235706642270088196 0.0429262369871139526 0.313492536544799805
-0.66508781909942627 0.226832687854766846 0.0228418521583080292
-0.448454350233078003 -0.0388668105006217957 0.126824319362640381
0.502591967582702637 -0.302603065967559814 -0.178951948881149292
-0.589335083961486816 0.360750705003738403 0.0857986807823181152
-0.194318756461143494 0.314641505479812622 0.104536570608615875
0.246715918183326721 0.0238311663269996643 0.323639392852783203
0.530506908893585205 -0.324102014303207397 -0.0581608451902866364
-0.183066084980964661 0.306753665208816528 0.12815345823764801
0.246955648064613342 0.00690423650667071342 0.323774933815002441
0.0584606193006038666 0.139533773064613342 0.345478326082229614
-0.505994677543640137 0.149130344390869141 0.356614887714385986
0.270315647125244141 -0.311457276344299316 0.326124072074890137
-0.254095107316970825 0.0231782495975494385 -0.0710115879774093628
0.240668803453445435 -0.295502066612243652 0.322362542152404785
0.248757109045982361 0.0437132827937602997 0.314223766326904297
0.468037664890289307 -0.10214841365814209 0.0345004163682460785
-0.125000655651092529 0.19488227367401123 0.115089043974876404
0.23955264687538147 -0.326835811138153076 0.317814618349075317
0.499837785959243774 -0.366865932941436768 0.0745623186230659485
0.523029863834381104 -0.324997663497924805 0.0261237062513828278
0.444225102663040161 -0.253449887037277222 0.332255691289901733
0.321153908967971802 -0.13168373703956604 -0.10681721568107605
0.0631074979901313782 -0.0109045132994651794 0.321463853120803833
0.510889887809753418 -0.361173778772354126 0.04742475226521492
0.135381966829299927 -0.100902020931243896 0.0403059348464012146
0.0492753833532333374 0.0113447718322277069 0.0294454246759414673
0.0205438323318958282 0.048033498227596283 0.0422967933118343353
0.0878535807132720947 -0.066231556236743927 0.289415895938873291
-0.162548869848251343 -0.266072332859039307 0.147780299186706543
0.264700710773468018 -0.0203253477811813354 0.0613490641117095947
-0.0292035304009914398 -0.0292224269360303879 0.295309662818908691
0.501802444458007812 -0.240705206990242004 -0.302084147930145264
0.475559085607528687 -0.315347969532012939 -0.302026242017745972
-0.631115376949310303 0.306007713079452515 0.167091712355613708
0.475081592798233032 -0.321079105138778687 0.120922096073627472
0.508692145347595215 -0.301168203353881836 -0.105628795921802521
0.527843177318572998 -0.275299280881881714 -0.317257404327392578
0.493171453475952148 -0.332824170589447021 -0.310775458812713623
0.503122091293334961 -0.3204079270362854 0.0979208648204803467
0.473805010318756104 -0.306178689002990723 -0.298178672790527344
-0.559548676013946533 0.267841726541519165 0.364232897758483887
0.124841772019863129 0.116715647280216217 0.31395268440246582
-0.633775472640991211 0.281940281391143799 0.0540069527924060822
-0.587520062923431396 0.362508237361907959 0.102137744426727295
0.371136903762817383 -0.374438732862472534 -0.212840169668197632
0.438076764345169067 -0.348253935575485229 0.154243052005767822
0.0579427964985370636 0.121156342327594757 0.320854216814041138
-0.574733555316925049 0.368544995784759521 0.215256258845329285
0.26449093222618103 0.0244109164923429489 -0.058837592601776123
0.368431448936462402 -0.337066799402236938 0.16051153838634491
0.51013493537902832 -0.301890373229980469 -0.112076975405216217
0.133284017443656921 -0.321001410484313965 -0.0979712456464767456
0.516194045543670654 -0.3491230309009552 -0.020360700786113739
0.388932496309280396 -0.347160816192626953 -0.214193582534790039
-0.577195942401885986 0.318770080804824829 0.0405045561492443085
0.535659372806549072 -0.278272688388824463 -0.320660173892974854
0.467517286539077759 -0.311315417289733887 -0.29931679368019104
0.506816685199737549 -0.347450226545333862 0.0178570784628391266
-0.556076228618621826 0.309422075748443604 0.10197710245847702
0.193560093641281128 -0.339737623929977417 -0.0593403652310371399
0.0697783529758453369 -0.282644063234329224 -0.0781135931611061096
0.25215187668800354 -0.250545352697372437 0.32003629207611084
0.239740148186683655 0.0307554733008146286 0.316726863384246826
-0.121335498988628387 -0.0482167229056358337 0.00790400616824626923
0.17851528525352478 -0.100456491112709045 -0.0149916689842939377
0.532089114189147949 -0.332648336887359619 -0.0132392290979623795
0.370006054639816284 -0.34988480806350708 -0.208979368209838867
0.534626483917236328 -0.246123567223548889 0.177182242274284363
0.560785472393035889 -0.316241055727005005 -0.330989450216293335
0.554205715656280518 -0.212011918425559998 0.133837223052978516
-0.543428778648376465 0.380480557680130005 0.164228186011314392
0.122749127447605133 0.116974763572216034 0.132881015539169312
-0.582403600215911865 0.351626783609390259 0.0975304692983627319
-0.481797486543655396 0.185551926493644714 -0.0917829200625419617
0.515272974967956543 -0.339519411325454712 0.0387622527778148651
0.253150135278701782 -0.2794761061668396 0.321859300136566162
0.278188169002532959 -0.35636487603187561 -0.126192584633827209
0.50756758451461792 -0.287081003189086914 -0.313732057809829712
-0.432451039552688599 -0.0577162057161331177 0.116506032645702362
0.201843693852424622 0.0902942195534706116 0.223154976963996887
0.244126066565513611 0.104308962821960449 -0.0574261657893657684
-0.195880398154258728 0.201261177659034729 0.349034249782562256
0.250297635793685913 0.024718867614865303 0.323164314031600952
0.239655628800392151 0.0188090559095144272 0.32085457444190979
-0.0315785259008407593 0.162486910820007324 0.3824043869972229
-0.482783019542694092 -0.0161233078688383102 0.179990053176879883
0.483469933271408081 -0.369438409805297852 0.0460059978067874908
-0.643704473972320557 0.286793887615203857 0.0859922468662261963
0.275688052177429199 -0.166160300374031067 -0.0706298947334289551
-0.412118583917617798 -0.0573965422809123993 0.0787175446748733521
-0.643267929553985596 0.175316914916038513 -0.0822199732065200806
-0.226279780268669128 -0.13448798656463623 -0.0524285770952701569
0.254657387733459473 -0.265883028507232666 0.321020334959030151
-0.345627814531326294 0.0167764592915773392 -0.117131173610687256
-0.287458896636962891 -0.0921401381492614746 -0.10671602189540863
-0.585305988788604736 0.209388688206672668 -0.218210607767105103
0.267302870750427246 -0.297350853681564331 0.315101712942123413
-0.0259101018309593201 -0.187753811478614807 -0.0436827428638935089
-0.618256807327270508 0.276574820280075073 0.0311806239187717438
-0.609019160270690918 0.297905206680297852 0.0922570154070854187
-0.397861659526824951 -0.0633915439248085022 0.118703074753284454
-0.451990753412246704 -0.0386977307498455048 0.11930759996175766
0.430801033973693848 -0.272085368633270264 0.329130768775939941
-0.0525968149304389954 0.140489473938941956 0.0914564803242683411
-0.503259539604187012 0.150754213333129883 0.355230242013931274
0.240515157580375671 -0.319656729698181152 0.322713226079940796
0.496848315000534058 -0.371259242296218872 0.0573249608278274536
0.399005502462387085 -0.257199883460998535 0.322404563426971436
-0.158698737621307373 -0.264046519994735718 0.181422814726829529
-0.499439477920532227 0.0135377449914813042 0.157905235886573792
0.417277514934539795 -0.297722518444061279 0.328679323196411133
0.535012125968933105 -0.340642094612121582 -0.0184685438871383667
0.344011485576629639 -0.267849862575531006 -0.127936422824859619
-0.496715456247329712 0.0715265274047851562 0.203795060515403748
0.44334101676940918 -0.272530198097229004 0.333358973264694214
0.521752059459686279 -0.335835248231887817 0.0327657014131546021
0.453081220388412476 -0.320447981357574463 -0.293062448501586914
0.473963290452957153 -0.312089234590530396 0.116661280393600464
0.516947329044342041 -0.278968214988708496 -0.312843054533004761
0.502382278442382812 -0.326509356498718262 -0.314340323209762573
0.517842710018157959 -0.327537447214126587 0.101884655654430389
0.479036182165145874 -0.311983376741409302 -0.302195847034454346
0.114441856741905212 0.118315286934375763 0.288805305957794189
-0.122071877121925354 0.26830601692199707 0.158510848879814148
-0.615007460117340088 0.265051305294036865 0.0518855378031730652
-0.479652523994445801 0.00254753325134515762 0.181167051196098328
0.426413416862487793 -0.355447292327880859 0.158522531390190125
-0.292640954256057739 -0.111219175159931183 -0.105972759425640106
0.130372971296310425 0.0652262493968009949 0.321038395166397095
0.253561556339263916 0.038329392671585083 -0.0779547542333602905
0.235349193215370178 0.0935344696044921875 -0.0532511919736862183
0.417410761117935181 -0.262051641941070557 -0.20239885151386261
0.521404504776000977 -0.355123817920684814 -0.0194859225302934647
-0.609044551849365234 0.38071441650390625 0.181022271513938904
0.517298698425292969 -0.279869765043258667 -0.314765363931655884
0.498840242624282837 -0.35045856237411499 0.0240485016256570816
-0.588004052639007568 0.368883430957794189 0.112821996212005615
0.505753219127655029 -0.105081111192703247 0.147217094898223877
-0.19817836582660675 0.311176210641860962 0.112656056880950928
0.26375502347946167 -0.286934137344360352 0.31968986988067627
0.236785724759101868 0.0618675053119659424 0.310380697250366211
-0.144780382513999939 -0.0439713858067989349 0.00396971963346004486
-0.658004522323608398 0.214228302240371704 -0.0463814288377761841
-0.28891339898109436 -0.0765709578990936279 -0.0688196197152137756
0.227089419960975647 0.0418129153549671173 -0.0483196265995502472
0.551301002502441406 -0.144871741533279419 0.131977200508117676
0.519492566585540771 -0.295802325010299683 0.0748568251729011536
0.517303287982940674 -0.284577161073684692 -0.181214258074760437
-0.358364194631576538 -0.0176815707236528397 -0.0281487591564655304
0.0913580134510993958 0.087887205183506012 0.085559062659740448
0.466360688209533691 -0.362363904714584351 -0.010701431892812252
-0.433156251907348633 0.157214164733886719 -0.0667041763663291931
0.523517251014709473 -0.336096793413162231 0.0688643306493759155
0.262615233659744263 -0.286303132772445679 0.318412691354751587
0.00909244641661643982 -0.0914242193102836609 -0.0263283886015415192
0.0322765856981277466 -0.130822330713272095 0.0216699074953794479
-0.630924761295318604 0.2645607590675354 0.0288470350205898285
0.241992667317390442 0.0740398913621902466 0.318647861480712891
0.240047112107276917 0.0292803552001714706 0.318740665912628174
-0.174971207976341248 0.300466805696487427 0.116033971309661865
0.304383695125579834 -0.151625961065292358 0.307702600955963135
0.261648237705230713 -0.291106045246124268 0.320898503065109253
-0.476489722728729248 -0.00872240122407674789 0.166041716933250427
0.242630794644355774 0.0814778432250022888 0.312004238367080688
0.519937753677368164 -0.351750463247299194 0.0818990767002105713
-0.035239100456237793 -0.238091558218002319 0.123914189636707306
-0.638517916202545166 0.289576292037963867 0.0986183658242225647
-0.234595298767089844 -0.133466333150863647 -0.0582133233547210693
-0.379631131887435913 -0.109426103532314301 0.105355210602283478
-0.236810550093650818 -0.148496732115745544 -0.0580578334629535675
-0.658215165138244629 0.213924810290336609 -0.0340855717658996582
0.528576016426086426 -0.353086084127426147 0.0778424516320228577
-0.621364951133728027 0.269827961921691895 0.0522822849452495575
-0.404482513666152954 -0.0649380981922149658 0.111876852810382843
-0.446652442216873169 -0.0420859195291996002 0.121812723577022552
0.267717212438583374 -0.285994380712509155 0.323374897241592407
0.127312004566192627 -0.327042520046234131 0.312457501888275146
0.151967421174049377 -0.343530148267745972 0.317736595869064331
0.447409868240356445 -0.336210906505584717 -0.293036460876464844
0.515437960624694824 -0.303468763828277588 -0.107996925711631775
0.514919579029083252 -0.280840277671813965 -0.312861531972885132
0.484548598527908325 -0.328273087739944458 -0.309824854135513306
0.464023709297180176 -0.346482455730438232 -0.302702724933624268
0.549288451671600342 -0.210793271660804749 -0.316012084484100342
0.523784756660461426 -0.300636649131774902 -0.322510272264480591
0.517649590969085693 -0.301445662975311279 -0.318407267332077026
0.246705830097198486 0.056757364422082901 0.316246569156646729
0.241201624274253845 0.0872319042682647705 0.312569946050643921
-0.292088508605957031 -0.101222530007362366 -0.102103076875209808
-0.453915327787399292 -0.0525727123022079468 0.116908453404903412
0.404470145702362061 -0.272626221179962158 0.322450071573257446
-0.502704620361328125 0.00323743559420108795 0.188950985670089722
0.400758206844329834 -0.28760981559753418 0.324766159057617188
0.398910701274871826 -0.273921787738800049 0.323245227336883545
0.341949522495269775 -0.259371817111968994 0.0900172218680381775
-0.0191372260451316833 -0.244879037141799927 0.128488808870315552
-0.464790284633636475 0.0354577526450157166 0.189365893602371216
-0.194594442844390869 0.221200808882713318 0.171795204281806946
0.366527706384658813 -0.329732120037078857 -0.023588845506310463
0.323077023029327393 -0.390627652406692505 -0.158966362476348877
0.535100162029266357 -0.324110656976699829 -0.0582617484033107758
-0.44207194447517395 -0.00528514618054032326 0.152519360184669495
-0.0193931646645069122 -0.0599157959222793579 0.141529127955436707
-0.000575078011024743319 -0.236607298254966736 0.106205344200134277
0.525900304317474365 -0.202252715826034546 -0.0800799131393432617
0.449469268321990967 -0.308888524770736694 -0.2929210364818573
0.526514887809753418 -0.276001214981079102 -0.315712451934814453
0.499577492475509644 -0.325458109378814697 -0.31271052360534668
0.474884331226348877 -0.305608063936233521 -0.297430962324142456
-0.127644449472427368 0.246263429522514343 0.138698741793632507
-0.649223625659942627 0.281603336334228516 0.0940079987049102783
-0.199149295687675476 0.286307334899902344 0.335640430450439453
0.497742235660552979 -0.0870900973677635193 0.136583179235458374
0.200410306453704834 -0.359672248363494873 -0.0909598022699356079
0.505076766014099121 -0.368147939443588257 -0.0227448046207427979
0.526946544647216797 -0.243067443370819092 0.172885730862617493
-0.586154460906982422 0.378929316997528076 0.170408502221107483
0.444685935974121094 -0.315480500459671021 -0.287797689437866211
0.498309284448623657 -0.111462704837322235 0.112100683152675629
-0.656061232089996338 0.175022721290588379 -0.103983990848064423
-0.202155262231826782 0.308366835117340088 0.0888708159327507019
0.201124832034111023 -0.0138847092166543007 0.295104831457138062
0.159791126847267151 -0.0625397264957427979 -0.0442312173545360565
-0.579774081707000732 0.301894187927246094 0.368438690900802612
0.274880141019821167 0.0980548262596130371 -0.0292760096490383148
-0.435530275106430054 0.154911264777183533 -0.0862257927656173706
0.534116446971893311 -0.333498477935791016 0.0127023011445999146
-0.569024503231048584 0.196832776069641113 -0.229294493794441223
-0.497947961091995239 0.0444762073457241058 -0.0870422422885894775
0.0311510302126407623 -0.104411400854587555 0.0328199863433837891
0.533768713474273682 -0.265038669109344482 -0.316357702016830444
0.0096194148063659668 0.19733862578868866 0.0273302998393774033
0.301952570676803589 0.0385372638702392578 -0.0846116170287132263
-0.332478612661361694 -0.0165461469441652298 -0.10789007693529129
0.236315310001373291 0.0141653427854180336 0.321659892797470093
0.12489309161901474 0.0126991691067814827 0.29877510666847229
0.527193963527679443 -0.355606824159622192 0.0662902295589447021
0.46676364541053772 -0.310355424880981445 -0.233167544007301331
-0.652202904224395752 0.284946024417877197 0.10411468893289566
0.546289443969726562 -0.220345288515090942 0.163445264101028442
0.527715861797332764 -0.323827505111694336 -0.0160848125815391541
-0.383296966552734375 -0.0569330081343650818 0.0760510042309761047
0.456589072942733765 -0.311371684074401855 -0.292616546154022217
0.5046539306640625 -0.340386629104614258 -0.317945629358291626
0.478504270315170288 -0.314858734607696533 -0.299555212259292603
0.520056724548339844 -0.301850557327270508 -0.317371577024459839
-0.00255698547698557377 -0.14043465256690979 -0.0249963905662298203
0.397245049476623535 -0.273479580879211426 0.323420196771621704
0.400915741920471191 -0.271906226873397827 0.323725342750549316
0.505786597728729248 -0.33239293098449707 0.105811126530170441
-0.46778184175491333 0.0419934988021850586 0.170477688312530518
0.409749507904052734 -0.346264243125915527 0.156540319323539734
-0.361079663038253784 -0.0358522497117519379 -0.148271501064300537
-0.128535911440849304 -0.26821628212928772 0.112243466079235077
0.51229482889175415 -0.369485348463058472 -0.0146886035799980164
-0.213777154684066772 0.312164217233657837 0.0974033698439598083
0.250319212675094604 -0.287447929382324219 0.322834312915802002
0.208789840340614319 0.00909742154181003571 -0.0462531261146068573
0.0697347819805145264 -0.151932492852210999 -0.0173962339758872986
-0.16981099545955658 0.304421842098236084 0.118597172200679779
0.470812439918518066 -0.364776432514190674 0.00702394638210535049
-0.291208177804946899 -0.100012704730033875 -0.103360548615455627
0.036217566579580307 -0.150107517838478088 -0.0218698121607303619
0.232080340385437012 0.0559834577143192291 0.309064984321594238
0.253124892711639404 -0.289009809494018555 0.320616573095321655
-0.471900820732116699 0.000674137379974126816 0.168504685163497925
0.240900665521621704 0.0624413155019283295 0.312965363264083862
0.508674085140228271 -0.352444887161254883 0.0639386475086212158
0.227146655321121216 -0.315172284841537476 0.314514666795730591
-0.37561914324760437 -0.0936880931258201599 0.0860333144664764404
-0.0629818513989448547 -0.242044180631637573 0.302441447973251343
-0.222943410277366638 -0.128197267651557922 -0.0532756969332695007
-0.410098820924758911 -0.0659559518098831177 0.0983699411153793335
-0.44519844651222229 -0.0452069751918315887 0.132587090134620667
0.238711431622505188 -0.294398099184036255 0.3143882155418396
0.153643488883972168 -0.324727445840835571 0.320048004388809204
0.425055384635925293 -0.256386786699295044 0.328571736812591553
0.43796345591545105 -0.343437939882278442 -0.292691707611083984
0.506073176860809326 -0.335087418556213379 -0.318090707063674927
0.444810628890991211 -0.35278630256652832 -0.286747068166732788
0.238168463110923767 0.065504811704158783 0.312243044376373291
0.402985364198684692 -0.287838578224182129 0.325890541076660156
-0.494922280311584473 0.00626915134489536285 0.188235744833946228
0.485601514577865601 -0.0635163933038711548 0.13170836865901947
0.0123244505375623703 -0.171155259013175964 0.00969209708273410797
0.531300961971282959 -0.3080405592918396 -0.0622276663780212402
0.314571589231491089 -0.302693486213684082 -0.126876696944236755
0.445654571056365967 -0.291813075542449951 -0.285658538341522217
-0.336906611919403076 0.224294185638427734 0.125516548752784729
-0.401004403829574585 -0.0286729242652654648 -0.00205585290677845478
0.402901262044906616 -0.272049158811569214 0.324108809232711792
-0.133297398686408997 0.195469304919242859 0.167539939284324646
0.398951351642608643 -0.271985769271850586 0.323921948671340942
-0.446657091379165649 -0.0254368279129266739 0.0212686210870742798
-0.137958809733390808 0.244533896446228027 0.19148591160774231
-0.612752139568328857 0.29368138313293457 0.183561906218528748
0.124555081129074097 0.115847907960414886 0.316542118787765503
-0.120894484221935272 0.250272899866104126 0.161620289087295532
-0.583238542079925537 0.347783476114273071 0.0579476244747638702
0.426656395196914673 -0.348438411951065063 0.153027072548866272
-0.566693365573883057 0.294684290885925293 -0.0691715776920318604
0.251817166805267334 0.0264555029571056366 -0.0796791836619377136
0.247647270560264587 0.100157573819160461 -0.0484671853482723236
-0.35756373405456543 -0.0562084130942821503 -0.142006918787956238
0.198729231953620911 0.120002716779708862 0.0356247611343860626
0.545432984828948975 -0.131809994578361511 0.111977197229862213
-0.581569373607635498 0.321386724710464478 -0.0230312980711460114
0.206158936023712158 0.0244619306176900864 0.176734864711761475
-0.595247983932495117 0.374805629253387451 0.17182353138923645
0.44463464617729187 -0.319522500038146973 0.127362936735153198
0.254930675029754639 -0.278971582651138306 0.316460400819778442
0.235536649823188782 0.0236035659909248352 0.316502422094345093
-0.362994283437728882 -0.0501984730362892151 -0.0239170677959918976
-0.182641148567199707 0.117822080850601196 0.0421211645007133484
0.254641890525817871 -0.288413763046264648 0.319277375936508179
0.241975262761116028 0.0329812802374362946 0.321766942739486694
0.399812012910842896 0.0231644399464130402 0.115124613046646118
-0.340605556964874268 -0.0665647909045219421 -0.147452905774116516
0.0756251662969589233 -0.333251088857650757 0.298904478549957275
-0.386822760105133057 -0.0611826032400131226 0.0936850830912590027
-0.448229044675827026 -0.0416812151670455933 0.127596184611320496
0.439191818237304688 -0.279518544673919678 0.333645731210708618
0.0343804769217967987 -0.123149685561656952 -0.0257811099290847778
0.414161205291748047 -0.280971765518188477 0.326989114284515381
0.432862818241119385 -0.296272933483123779 0.333148956298828125
0.36777082085609436 -0.278981178998947144 -0.130324393510818481
-0.477358907461166382 0.00111101416405290365 0.188199847936630249
-0.291619807481765747 -0.0967203974723815918 -0.104692250490188599
0.241259321570396423 -0.31319388747215271 0.30963587760925293
0.473042339086532593 -0.354499101638793945 0.00703008333221077919
-0.296450883150100708 -0.0969679802656173706 -0.107143253087997437
0.244620040059089661 -0.288764834403991699 0.320028156042098999
0.0621593408286571503 -0.329957574605941772 0.296987354755401611
0.157895222306251526 -0.268046647310256958 -0.105652548372745514
0.250195771455764771 0.0632526576519012451 0.315393596887588501
-0.482505470514297485 -0.00823802873492240906 0.177809163928031921
0.236340135335922241 0.0664209797978401184 0.314744114875793457
0.238592773675918579 -0.332006365060806274 0.321366161108016968
-0.382306993007659912 -0.0923658832907676697 0.0365932844579219818
-0.21621309220790863 -0.140435159206390381 -0.0545091927051544189
-0.382728606462478638 -0.063993498682975769 0.0834005102515220642
0.149850785732269287 -0.331840425729751587 0.331839293241500854
0.445711195468902588 -0.280050575733184814 0.333569437265396118
0.407274156808853149 -0.280682921409606934 0.325101643800735474
-0.502013504505157471 0.00625259708613157272 0.18854929506778717
-0.321882486343383789 0.0968773290514945984 -0.0704385116696357727
0.532404899597167969 -0.207781106233596802 -0.0526582375168800354
0.450846284627914429 -0.294255107641220093 -0.29054492712020874
0.487309157848358154 -0.325625419616699219 -0.310954630374908447
0.44629138708114624 -0.310101956129074097 -0.290911167860031128
-0.577636420726776123 0.268898487091064453 0.365634173154830933
-0.461407929658889771 0.105383262038230896 -0.231150567531585693
0.374721735715866089 -0.318906337022781372 0.199046701192855835
-0.589618206024169922 0.366551965475082397 0.13104519248008728
0.39243394136428833 -0.353784531354904175 -0.217563480138778687
0.440988421440124512 -0.310642987489700317 -0.289122164249420166
-0.200538188219070435 0.305096685886383057 0.0947319045662879944
-0.15539318323135376 0.267623931169509888 0.151432156562805176
0.529678106307983398 -0.338728934526443481 0.0717808231711387634
0.463699996471405029 -0.266469627618789673 -0.217737078666687012
-0.633384287357330322 0.275344818830490112 0.106868505477905273
0.438310176134109497 -0.308933734893798828 -0.287293970584869385
0.515362560749053955 -0.27758452296257019 -0.316912531852722168
0.516477048397064209 -0.340744465589523315 -0.320825248956680298
0.454252630472183228 -0.307418972253799438 -0.293344020843505859
0.490773528814315796 -0.322193652391433716 0.0943392962217330933
0.0204963367432355881 -0.276149451732635498 -0.0187316108494997025
-0.653994202613830566 0.171556636691093445 -0.108263149857521057
-0.224567219614982605 0.318185508251190186 0.121127478778362274
0.465210229158401489 -0.364382624626159668 0.00586047209799289703
0.480944275856018066 -0.337090283632278442 0.0502281859517097473
0.511379361152648926 -0.339802712202072144 -0.31948503851890564
0.440071821212768555 -0.356942415237426758 -0.297701060771942139
-0.269882231950759888 0.321620136499404907 0.041656099259853363
0.42403256893157959 -0.313652306795120239 -0.281992346048355103
0.415357321500778198 -0.295432567596435547 0.328435778617858887
-0.326142281293869019 -0.0757912620902061462 0.123335950076580048
-0.366921037435531616 -0.0671092420816421509 0.154547184705734253
-0.33816295862197876 0.214461982250213623 0.132654950022697449
0.0101411296054720879 0.119162127375602722 0.104954704642295837
0.541904926300048828 -0.309508979320526123 -0.0462596304714679718
0.0135322557762265205 -0.262121051549911499 0.039358094334602356
-0.003643800038844347 -0.236886724829673767 0.0941138267517089844
0.000121352401038166136 -0.219919592142105103 0.0813699588179588318
0.46479487419128418 -0.361235260963439941 0.0302577074617147446
-0.269476950168609619 -0.138405993580818176 0.177367657423019409
-0.345125406980514526 -0.0662810355424880981 0.141133949160575867
0.123378872871398926 -0.276970773935317993 0.128855198621749878
-0.133838862180709839 0.0785016342997550964 0.0900954753160476685
0.463431000709533691 -0.0546332262456417084 0.0175051689147949219
-0.0142186926677823067 -0.217237457633018494 0.080209583044052124
-0.554583251476287842 0.391252845525741577 0.147552609443664551
0.496477216482162476 -0.367117881774902344 0.0051927356980741024
-0.610579907894134521 0.293679714202880859 0.186365485191345215
0.529896080493927002 -0.275651842355728149 -0.317747980356216431
0.370243549346923828 -0.264855325222015381 0.181461870670318604
0.420212358236312866 -0.344753652811050415 0.150792628526687622
0.251963645219802856 0.0389593876898288727 -0.0668135285377502441
0.549328505992889404 -0.150207042694091797 0.124165639281272888
-0.570392429828643799 0.283695608377456665 -0.00654028542339801788
0.500747978687286377 -0.362972408533096313 -0.00133880600333213806
0.208248481154441833 0.115453898906707764 -0.0106158703565597534
-0.28926461935043335 -0.0860810801386833191 -0.0665443167090415955
0.159165412187576294 -0.0835078656673431396 -0.0363126397132873535
-0.340015441179275513 -0.105862937867641449 0.141180098056793213
0.510902106761932373 -0.281811237335205078 -0.313266068696975708
-0.339331954717636108 -0.0800649449229240417 0.0384907126426696777
-0.369250863790512085 0.28031468391418457 -0.0627595037221908569
0.509699702262878418 -0.341296374797821045 0.0650626122951507568
0.302165985107421875 -0.206150949001312256 0.247824743390083313
0.542644739151000977 -0.312400192022323608 -0.0608081482350826263
0.141541957855224609 0.0692967772483825684 0.336213767528533936
-0.594756901264190674 0.267149865627288818 0.0120432814583182335
