ply
format ascii 1.0
element vertex 737
property float x
property float y
property float z
end_header
-0.436587721109390259 0.0518278293311595917 -0.149126052856445312
-0.0909269452095031738 0.266104608774185181 0.177048265933990479
0.249217167496681213 0.103846825659275055 -0.059315808117389679
0.111196167767047882 0.0954713523387908936 -0.0147224441170692444
0.385773569345474243 -0.264672130346298218 0.196264460682868958
-0.0156018361449241638 0.00306782545521855354 0.222419187426567078
-0.438126534223556519 -0.0142401726916432381 -0.0325642302632331848
-0.136540651321411133 -0.0376550145447254181 0.0948814079165458679
0.0253530964255332947 0.142568469047546387 0.294251024723052979
-0.555175244808197021 0.150540903210639954 -0.113865531980991364
0.042611539363861084 -0.0585686042904853821 0.153492093086242676
-0.156083971261978149 -0.00256345211528241634 0.155842795968055725
0.0367869213223457336 0.139075726270675659 0.0897038206458091736
-0.462437748908996582 0.00731110107153654099 0.166313499212265015
-0.287236869335174561 -0.054318554699420929 0.135051339864730835
0.207363158464431763 -0.153633445501327515 0.212518379092216492
0.0318391285836696625 0.118222281336784363 0.090807005763053894
0.32094186544418335 -0.172309458255767822 0.0105148553848266602
0.300865322351455688 -0.12442394345998764 -0.0416338331997394562
-0.377661675214767456 -0.00829822570085525513 -0.0305350050330162048
0.447880268096923828 -0.272998988628387451 0.0943832546472549438
0.317284107208251953 -0.117677882313728333 0.0135120516642928123
0.157402127981185913 -0.0915141329169273376 0.212569594383239746
-0.162691697478294373 0.146138638257980347 0.0699769482016563416
0.455854266881942749 -0.108975321054458618 -0.231365129351615906
-0.577900826930999756 0.243988052010536194 -0.120490103960037231
-0.57189863920211792 0.294307023286819458 -0.0646855533123016357
0.517458081245422363 -0.24277360737323761 -0.158710524439811707
-0.370141714811325073 0.098097585141658783 -0.0744910016655921936
-0.614269256591796875 0.263289093971252441 0.0379774048924446106
0.342481166124343872 -0.32935526967048645 -0.106352873146533966
0.340079635381698608 -0.189590275287628174 0.160327926278114319
0.53179556131362915 -0.247730329632759094 0.0927499756217002869
0.143239021301269531 0.0783658400177955627 0.091917872428894043
-0.57262498140335083 0.304647684097290039 -0.0519383363425731659
0.270927965641021729 0.00498956022784113884 0.0706980004906654358
-0.625550508499145508 0.192691966891288757 -0.0888671576976776123
-0.461618542671203613 0.2914009690284729 -0.0623346380889415741
-0.1529378741979599 0.179755911231040955 0.0904233604669570923
-0.549486994743347168 0.173686206340789795 -0.0446015745401382446
-0.544128656387329102 0.277405589818954468 0.171153783798217773
0.40060955286026001 -0.234212040901184082 -0.0235924087464809418
0.286278992891311646 -0.0628783851861953735 -0.0971375033259391785
0.221263855695724487 0.0397026725113391876 -0.0705188065767288208
0.102839186787605286 -0.138799324631690979 0.210541784763336182
0.11500539630651474 0.0722436904907226562 0.316163182258605957
-0.370900392532348633 0.117996841669082642 0.236495509743690491
-0.0235313624143600464 -0.057855699211359024 0.137117743492126465
0.221345305442810059 -0.23640124499797821 0.0973550528287887573
0.0753055214881896973 0.0645294710993766785 0.0338016897439956665
-0.384330898523330688 -0.0586051978170871735 0.10379607230424881
0.103877000510692596 0.0787940099835395813 0.12576410174369812
0.25174519419670105 0.028325296938419342 -0.0660938099026679993
-0.37265583872795105 0.269000709056854248 0.113108940422534943
0.0319863706827163696 -0.0559207610785961151 0.301901280879974365
-0.0153451208025217056 0.137372881174087524 0.0916876718401908875
-0.502012968063354492 0.0950683429837226868 -0.128419786691665649
-0.346210479736328125 0.0119139114394783974 0.150192812085151672
0.52622377872467041 -0.0551598593592643738 -0.309342950582504272
-0.500627756118774414 0.135265469551086426 -0.241431564092636108
0.472473502159118652 -0.269366264343261719 0.113169923424720764
0.376538187265396118 -0.134326577186584473 -0.0480388551950454712
0.234442427754402161 0.0925524979829788208 -0.0406720750033855438
0.137059479951858521 0.0126020181924104691 0.284407258033752441
0.520166516304016113 -0.204993724822998047 -0.088361009955406189
-0.536836743354797363 0.124215379357337952 -0.106345951557159424
-0.579636871814727783 0.292228221893310547 -0.00169813667889684439
0.48216778039932251 -0.325465291738510132 0.100092433393001556
0.498916804790496826 -0.269967138767242432 0.0358664132654666901
0.492524147033691406 -0.330537378787994385 -0.0630619898438453674
-0.483905315399169922 0.119741499423980713 -0.0460742264986038208
-0.591904997825622559 0.30107802152633667 0.175070852041244507
0.482952773571014404 -0.323342174291610718 0.134441256523132324
0.505293965339660645 -0.303975790739059448 -0.104042395949363708
-0.381455898284912109 0.316531211137771606 0.158203065395355225
-0.546699941158294678 0.33393368124961853 0.133667081594467163
0.459994494915008545 -0.259774267673492432 0.114894136786460876
0.533387184143066406 -0.207754001021385193 -0.0879888460040092468
0.512850761413574219 -0.232271865010261536 -0.304962337017059326
-0.554382741451263428 0.259067118167877197 -0.0214821323752403259
0.46087956428527832 -0.304988980293273926 0.108937852084636688
-0.452415734529495239 0.112033545970916748 -0.225455492734909058
0.485787004232406616 -0.314704686403274536 -0.303623855113983154
-0.559769272804260254 0.317227303981781006 0.354114174842834473
0.178999572992324829 -0.104578182101249695 -0.0164434388279914856
0.305928289890289307 0.0177185758948326111 -0.111935384571552277
0.505831301212310791 -0.338293522596359253 0.0248635429888963699
0.404386997222900391 0.0223016645759344101 0.00801172386854887009
0.47470518946647644 -0.288735777139663696 -0.300097763538360596
0.0103377904742956161 0.153691843152046204 0.0570597201585769653
0.522644579410552979 -0.300891220569610596 -0.0979715362191200256
-0.381112098693847656 0.333481520414352417 0.204473167657852173
-0.551306664943695068 0.336992114782333374 0.124098867177963257
0.418087184429168701 -0.253023147583007812 0.0979194864630699158
-0.580510139465332031 0.207714259624481201 -0.215475842356681824
0.278142601251602173 -0.0854850634932518005 0.190369352698326111
-0.129999950528144836 0.224056556820869446 0.12610587477684021
-0.382604479789733887 0.103406704962253571 -0.0637358501553535461
0.551009774208068848 -0.22051122784614563 0.114244252443313599
0.383249789476394653 -0.242803722620010376 0.313822925090789795
-0.553069651126861572 0.162629574537277222 0.0793297067284584045
-0.134673342108726501 0.200988978147506714 0.168030470609664917
0.242070272564888 0.109534747898578644 -0.0492813102900981903
0.116329818964004517 0.0394502691924571991 0.32795223593711853
-0.559434056282043457 0.277516186237335205 0.00192981329746544361
0.319523841142654419 -0.13320198655128479 -0.0799304917454719543
-0.575360953807830811 0.199734434485435486 -0.226417765021324158
0.2076835036277771 0.117586731910705566 0.0449075512588024139
0.463299840688705444 -0.308635473251342773 0.134714439511299133
-0.585619091987609863 0.319226950407028198 -0.0253715161234140396
0.529979467391967773 -0.253839582204818726 0.098191678524017334
-0.310125201940536499 0.0819150134921073914 -0.0726595222949981689
-0.449928760528564453 0.00783599168062210083 -0.140550911426544189
-0.301368534564971924 0.290236473083496094 0.145945355296134949
-0.526778459548950195 0.180997684597969055 -0.215702518820762634
-0.392026394605636597 -0.059199802577495575 0.100472651422023773
-0.545636475086212158 0.262208133935928345 -0.165189698338508606
0.313300073146820068 -0.33449140191078186 0.197679311037063599
-0.0599679164588451385 0.0935836508870124817 0.320945084095001221
-0.101867541670799255 0.14331391453742981 0.0931726843118667603
0.499288558959960938 -0.363229840993881226 0.0763261541724205017
0.348501741886138916 -0.283323973417282104 -0.135111331939697266
-0.412586390972137451 0.19754539430141449 0.035977780818939209
-0.345376163721084595 0.251139611005783081 -0.0138721289113163948
-0.267750918865203857 0.0783846154808998108 -0.0149991950020194054
-0.181043311953544617 0.0181141756474971771 0.0392855629324913025
-0.553623378276824951 0.212106272578239441 -0.047859635204076767
0.407308459281921387 -0.401353985071182251 -0.215705439448356628
0.517149031162261963 -0.285615205764770508 -0.100277997553348541
0.394791513681411743 -0.264890879392623901 -0.193757295608520508
0.497374802827835083 -0.274775266647338867 -0.300752222537994385
0.434084594249725342 -0.257644832134246826 -0.00188856897875666618
-0.154812067747116089 -0.244627296924591064 0.148678749799728394
-0.630368053913116455 0.193895578384399414 -0.0481732524931430817
-0.355311930179595947 -0.000246272946242243052 -0.151483803987503052
-0.501330554485321045 0.14585702121257782 0.345890998840332031
-0.331775903701782227 0.299276232719421387 0.190687447786331177
-0.334948718547821045 -0.0322418808937072754 -0.132615134119987488
0.112964905798435211 0.0950532183051109314 0.0290102418512105942
0.469691425561904907 -0.13526490330696106 0.0994431003928184509
0.398572146892547607 -0.305273771286010742 0.145162850618362427
-0.457434684038162231 0.167115315794944763 0.116430051624774933
-0.536469697952270508 0.2868175208568573 0.0416665486991405487
-0.276640772819519043 -0.128198176622390747 0.0816793665289878845
-0.483228296041488647 0.248540148138999939 -0.103354588150978088
0.170809358358383179 -0.272427171468734741 0.0364910028874874115
-0.34489130973815918 0.10290902853012085 0.00621221074834465981
-0.366117298603057861 0.282438009977340698 0.0866430327296257019
0.386118054389953613 -0.230391994118690491 -0.121775440871715546
-0.353372365236282349 0.00188902963418513536 0.0349935702979564667
-0.518231034278869629 0.201492205262184143 0.0487762764096260071
-0.385118484497070312 0.182312607765197754 0.0918268561363220215
-0.571949660778045654 0.32765883207321167 -0.0120844682678580284
-0.339429259300231934 -0.0883618444204330444 -0.0542129576206207275
-0.137294426560401917 -0.269525259733200073 0.130205839872360229
0.274719357490539551 -0.166153490543365479 0.0549388192594051361
0.312726974487304688 -0.303016781806945801 -0.128400638699531555
-0.381383419036865234 0.24985814094543457 0.233096465468406677
0.310403585433959961 -0.217401936650276184 0.201203867793083191
0.495891720056533813 -0.255346745252609253 -0.105399034917354584
-0.11916031688451767 0.0721825510263442993 0.173380821943283081
0.512049853801727295 -0.362363278865814209 -0.0306544490158557892
-0.509316742420196533 0.26850542426109314 -0.00532263610512018204
-0.595366179943084717 0.24342191219329834 -0.00309862196445465088
-0.586467504501342773 0.250579804182052612 0.193951696157455444
-0.548025906085968018 0.120699010789394379 -0.134504735469818115
-0.245111539959907532 0.182367712259292603 0.356732010841369629
0.46198388934135437 -0.26469537615776062 -0.290316611528396606
0.455709338188171387 -0.256385922431945801 -0.186859890818595886
0.518970489501953125 -0.303194165229797363 0.0445932671427726746
-0.625876486301422119 0.19975869357585907 0.044566422700881958
-0.256108492612838745 -0.00524498056620359421 -0.0623966231942176819
0.245316356420516968 0.0986345484852790833 -0.0691192746162414551
0.504580080509185791 -0.160262614488601685 0.130928456783294678
0.342912793159484863 -0.0702896863222122192 0.162048801779747009
0.399508655071258545 -0.237410396337509155 0.130387783050537109
-0.360000103712081909 -0.119368799030780792 0.116326905786991119
-0.479218393564224243 0.189084827899932861 0.0636707842350006104
-0.574828565120697021 0.341504722833633423 0.0249053854495286942
-0.359339118003845215 -0.0639093518257141113 0.09068259596824646
-0.343093931674957275 0.0109959384426474571 -0.114625513553619385
0.302685737609863281 -0.296189546585083008 0.162106245756149292
-0.504813671112060547 0.220472484827041626 0.141615748405456543
-0.48548811674118042 0.0278313383460044861 -0.0471380949020385742
0.0330840982496738434 0.0875622257590293884 0.0876223146915435791
-0.231624320149421692 0.346753984689712524 0.148540541529655457
0.031740039587020874 0.0100921532139182091 0.0418679863214492798
-0.366062700748443604 -0.0373494885861873627 -0.0329434014856815338
-0.0484491847455501556 -0.23460802435874939 0.301693052053451538
0.185551807284355164 -0.293288350105285645 0.00363987777382135391
0.234551236033439636 -0.0118915438652038574 0.230182036757469177
-0.526687979698181152 0.140146017074584961 0.0677497684955596924
-0.520522534847259521 0.20085693895816803 -0.0676663592457771301
-0.552399992942810059 0.285249590873718262 0.107213564217090607
0.1436644047498703 0.00747994054108858109 0.30768468976020813
0.0675690099596977234 -0.286715269088745117 -0.0815707892179489136
-0.362325191497802734 0.0346092768013477325 -0.161373928189277649
0.307006955146789551 -0.294075429439544678 0.029555516317486763
-0.33942839503288269 0.212934106588363647 0.158980175852775574
-0.188296124339103699 0.199693262577056885 0.367600709199905396
-0.540280759334564209 0.254319071769714355 -0.0844139009714126587
0.522172927856445312 -0.200134187936782837 -0.0926033705472946167
-0.519243836402893066 0.184843078255653381 0.136235594749450684
-0.543855488300323486 0.269470363855361938 -0.00273306388407945633
0.470671325922012329 -0.326719552278518677 0.0446687564253807068
0.288708359003067017 0.0306283757090568542 0.0536664463579654694
0.43280753493309021 -0.306678891181945801 -0.285013198852539062
-0.518933653831481934 0.0894238576292991638 -0.135326161980628967
-0.600780069828033447 0.284879803657531738 0.183687716722488403
0.467216938734054565 -0.321613490581512451 0.127451807260513306
0.467146813869476318 -0.261206716299057007 -0.293579846620559692
-0.40417778491973877 0.300044924020767212 0.142583072185516357
-0.454569488763809204 0.118794061243534088 -0.224125578999519348
0.481053650379180908 -0.312508761882781982 -0.302388638257980347
0.467742651700973511 -0.331217974424362183 -0.00293318973854184151
0.456792920827865601 -0.305935561656951904 -0.292333245277404785
0.52378922700881958 -0.262507647275924683 -0.101969964802265167
-0.408931702375411987 0.318160712718963623 0.162444010376930237
-0.561025381088256836 0.267183095216751099 0.365010082721710205
-0.576446652412414551 0.209977731108665466 -0.201065376400947571
0.446943432092666626 -0.297201007604598999 -0.222974255681037903
0.310179948806762695 -0.0766171962022781372 0.148792371153831482
0.534226834774017334 -0.248746722936630249 0.101238362491130829
-0.56292802095413208 0.11916196346282959 -0.233490452170372009
-0.408533692359924316 0.0760465934872627258 -0.116750948131084442
-0.579894065856933594 0.355905055999755859 0.0823094844818115234
0.0412599183619022369 0.114143490791320801 0.312133163213729858
-0.456991136074066162 0.00834872759878635406 0.181464925408363342
0.409022510051727295 -0.344389766454696655 0.159963831305503845
-0.554968953132629395 0.287971407175064087 -0.0495371222496032715
0.542727410793304443 -0.256404519081115723 0.113677389919757843
0.0236522778868675232 -0.250256657600402832 0.204942762851715088
0.195385560393333435 0.129632547497749329 0.0346778258681297302
0.31505778431892395 -0.371090739965438843 -0.157005906105041504
0.110461018979549408 0.0591927617788314819 0.318879574537277222
-0.315080374479293823 0.306014776229858398 0.283930093050003052
-0.254926770925521851 -0.133358180522918701 -0.0733342617750167847
-0.386915326118469238 -0.0607810020446777344 0.106252528727054596
0.452796280384063721 -0.0732294246554374695 -0.116447202861309052
0.315474361181259155 -0.333523929119110107 0.195810958743095398
0.297554999589920044 0.0377714596688747406 0.0499710217118263245
0.475462257862091064 -0.331432491540908813 0.136427059769630432
0.439350724220275879 -0.268109351396560669 -0.282203346490859985
0.461034774780273438 -0.273502498865127563 0.137980416417121887
0.503609180450439453 -0.346902281045913696 0.01748611219227314
0.518521547317504883 -0.270092606544494629 -0.0871019884943962097
0.498365283012390137 -0.0884694382548332214 0.161801993846893311
0.541890978813171387 -0.215704381465911865 0.110860124230384827
-0.577325105667114258 0.326415956020355225 0.0801286175847053528
0.246464937925338745 0.110884495079517365 -0.054571978747844696
0.0334301330149173737 0.0679941996932029724 0.272319614887237549
-0.562312185764312744 0.274764478206634521 0.0236455295234918594
-0.614248573780059814 0.271556764841079712 0.0382443517446517944
0.535245239734649658 -0.239689901471138 0.102893434464931488
-0.576378524303436279 0.212169468402862549 -0.117003262042999268
-0.42547181248664856 0.0300007779151201248 -0.188729062676429749
0.304154396057128906 -0.126902461051940918 -0.108388923108577728
-0.385528057813644409 -0.0562966838479042053 0.100491523742675781
-0.603555083274841309 0.259082794189453125 0.0171436835080385208
-0.460928589105606079 0.305811494588851929 0.0809462964534759521
0.504473030567169189 -0.264465600252151489 -0.10921739786863327
0.534240305423736572 -0.192818492650985718 0.02870161272585392
-0.616526901721954346 0.20997186005115509 -0.0564218200743198395
0.452256560325622559 -0.124001592397689819 0.0893480777740478516
0.0332149416208267212 -0.280050039291381836 -0.0359579063951969147
0.401600569486618042 -0.319232702255249023 0.130926281213760376
-0.094074055552482605 0.0736217200756072998 0.292995572090148926
0.242923960089683533 -0.137196749448776245 0.011021854355931282
0.161015734076499939 -0.271980732679367065 0.0437873974442481995
-0.590835511684417725 0.368701785802841187 0.0899052843451499939
0.0268033705651760101 -0.0121509693562984467 0.0277347955852746964
0.195624932646751404 0.033664412796497345 0.178011447191238403
-0.30654868483543396 -0.0919112265110015869 0.305352777242660522
0.493285328149795532 -0.367324948310852051 0.019868943840265274
0.521197795867919922 -0.31186985969543457 0.0460800305008888245
0.502294421195983887 -0.153890088200569153 0.118979819118976593
0.0804601758718490601 -0.272569745779037476 -0.0596585869789123535
-0.325854510068893433 -0.10382138192653656 0.0882636681199073792
-0.586466431617736816 0.334336578845977783 0.018268754705786705
-0.0742368996143341064 -0.236174166202545166 0.301561534404754639
0.193951696157455444 -0.340388059616088867 -0.0624100677669048309
-0.399148076772689819 0.27149122953414917 -0.054867185652256012
-0.522132813930511475 0.0435415245592594147 -0.0579592809081077576
-0.258076220750808716 0.141717180609703064 0.0910917297005653381
-0.21397845447063446 -0.13637116551399231 -0.0634184703230857849
0.50819242000579834 -0.105048611760139465 0.144293561577796936
0.213774725794792175 -0.28010442852973938 -0.00936011131852865219
0.237901493906974792 -0.0764170140027999878 0.126783236861228943
-0.140607520937919617 0.296126186847686768 0.147579878568649292
-0.656342387199401855 0.170936673879623413 -0.1127653568983078
0.253137946128845215 -0.00975790992379188538 0.249853715300559998
0.249948173761367798 -0.179135039448738098 0.302651941776275635
-0.263507455587387085 -0.137650266289710999 -0.0678139850497245789
-0.201003208756446838 0.31390729546546936 0.0987096577882766724
0.257417976856231689 -0.278363317251205444 0.322997868061065674
0.178573012351989746 -0.0544791035354137421 -0.0511158742010593414
-0.44370606541633606 -0.067237168550491333 0.128916516900062561
-0.504146218299865723 0.0295642092823982239 0.246969029307365417
-0.497410684823989868 0.0359230972826480865 -0.0118951266631484032
0.232472747564315796 0.0225433260202407837 0.313942492008209229
-0.371775567531585693 -0.0463243946433067322 0.143211409449577332
-0.349224209785461426 0.106009386479854584 0.0657847225666046143
0.307263642549514771 -0.199113503098487854 0.242877557873725891
0.308179795742034912 -0.00581883545964956284 0.219490379095077515
-0.443048387765884399 0.266024351119995117 -0.0375170521438121796
0.516668438911437988 -0.327039659023284912 -0.0812480524182319641
-0.539108037948608398 0.137879490852355957 -0.0974232926964759827
0.465406656265258789 -0.124821245670318604 0.00199416186660528183
-0.385588318109512329 0.254796832799911499 0.0325310453772544861
0.493512392044067383 -0.302311450242996216 0.121152289211750031
0.46496957540512085 -0.106542795896530151 0.0595848523080348969
0.20350492000579834 0.0148022230714559555 -0.0423434525728225708
-0.224758461117744446 0.29529842734336853 0.158458232879638672
-0.125456243753433228 -0.0494821630418300629 0.010721743106842041
-0.231915578246116638 0.227988526225090027 0.347974121570587158
-0.38117218017578125 -0.0548861920833587646 0.145326033234596252
0.340921908617019653 -0.074118487536907196 0.0476476848125457764
-0.436315327882766724 -0.0128259584307670593 0.0338805876672267914
0.205193385481834412 0.0162734631448984146 0.0702917054295539856
0.0559953860938549042 -0.0863189548254013062 0.239178374409675598
-0.38426557183265686 -0.060087740421295166 0.116433024406433105
-0.13719312846660614 -0.265401661396026611 -0.00130247010383754969
-0.244019955396652222 0.0631013214588165283 0.244675889611244202
-0.542346060276031494 0.210373088717460632 0.162520259618759155
-0.590961873531341553 0.28665471076965332 -0.00755840679630637169
0.306733280420303345 0.0172750838100910187 0.0428075119853019714
0.478050589561462402 -0.315331369638442993 -0.305267035961151123
0.50331878662109375 -0.34599071741104126 -0.0636603906750679016
0.471256136894226074 -0.305525213479995728 0.115164466202259064
0.526683390140533447 -0.303370058536529541 -0.109239153563976288
-0.403054118156433105 0.310985088348388672 0.134482622146606445
0.517494142055511475 -0.251825958490371704 -0.307251721620559692
0.50716102123260498 -0.329620510339736938 -0.31462058424949646
0.518415987491607666 -0.33175995945930481 0.0917202010750770569
0.476935237646102905 -0.304800152778625488 -0.30290377140045166
0.527145087718963623 -0.286107867956161499 -0.107855223119258881
-0.560141503810882568 0.266798585653305054 0.365396678447723389
-0.640364766120910645 0.28909146785736084 0.0849156007170677185
0.370985656976699829 -0.401677548885345459 -0.217423811554908752
-0.450077056884765625 -0.00157184270210564137 0.174953609704971313
0.176269307732582092 0.0725842118263244629 0.00652400776743888855
-0.453856140375137329 0.13402770459651947 -0.213833630084991455
0.402746200561523438 -0.336242973804473877 0.129068583250045776
-0.599142491817474365 0.206861302256584167 0.000565659196581691504
0.247266098856925964 -0.114934064447879791 -0.0708265677094459534
-0.483435750007629395 0.182083114981651306 -0.210257574915885925
-0.376441448926925659 -0.0636452585458755493 0.0915659144520759583
0.522516429424285889 -0.321373522281646729 0.036014121025800705
0.542032420635223389 -0.217771783471107483 0.10838724672794342
0.525341451168060303 -0.273928016424179077 0.0554485544562339783
0.111072465777397156 0.0837512612342834473 0.31716763973236084
-0.351201772689819336 -0.0484624952077865601 0.0448664352297782898
0.104987151920795441 0.0718897655606269836 0.295403033494949341
-0.165464773774147034 0.132583662867546082 0.151179209351539612
0.502378463745117188 -0.256935328245162964 -0.102335967123508453
0.428576827049255371 -0.304224073886871338 0.136049434542655945
-0.35603100061416626 -0.101947873830795288 0.158937141299247742
0.498252809047698975 -0.202065035700798035 -0.107803598046302795
-0.578596055507659912 0.347595512866973877 0.151893198490142822
0.104861557483673096 -0.0119058182463049889 0.021062137559056282
-0.341536641120910645 -0.123909555375576019 0.104484274983406067
-0.121037058532238007 -0.276093810796737671 0.174004584550857544
-0.161279678344726562 0.166894808411598206 0.325026959180831909
0.514618039131164551 -0.359013259410858154 0.0269457101821899414
0.520668447017669678 -0.288000971078872681 -0.0115323979407548904
0.478567540645599365 -0.140314742922782898 0.107746690511703491
-0.181087851524353027 0.0287996828556060791 0.0257542412728071213
-0.342251837253570557 -0.122131079435348511 0.103626862168312073
-0.600297391414642334 0.376321077346801758 0.188144445419311523
-0.120021596550941467 -0.267185300588607788 0.218265771865844727
0.523064792156219482 -0.309273809194564819 -0.0746353119611740112
0.515940546989440918 -0.252640753984451294 -0.309375345706939697
0.454595208168029785 -0.308745205402374268 -0.294323623180389404
0.240404218435287476 -0.0962939336895942688 0.158654481172561646
-0.62033921480178833 0.271745085716247559 0.0369340740144252777
-0.43015587329864502 -0.00431258557364344597 0.17719598114490509
-0.250710964202880859 -0.137420341372489929 -0.0711962953209877014
0.317002207040786743 -0.319339275360107422 0.122625380754470825
0.53895413875579834 -0.250095278024673462 0.106773205101490021
0.452407419681549072 -0.140150055289268494 0.0155419167131185532
0.429007738828659058 -0.321381449699401855 0.123838283121585846
0.412919670343399048 -0.331287205219268799 -0.209672048687934875
0.473512977361679077 -0.128888711333274841 0.109628923237323761
-0.549035906791687012 0.378104865550994873 0.172364413738250732
0.190217390656471252 -0.340216279029846191 -0.0132987862452864647
-0.201990112662315369 -0.135926097631454468 -0.0685421973466873169
-0.185637325048446655 0.311637699604034424 0.117705024778842926
0.10324762761592865 0.107404962182044983 0.174367725849151611
-0.444551676511764526 -0.0548163466155529022 0.0917232632637023926
-0.489561200141906738 0.0295606069266796112 0.0166932269930839539
0.231241196393966675 0.0107473861426115036 0.315022528171539307
-0.0248004700988531113 0.112851917743682861 0.312354952096939087
0.243082508444786072 -0.0389145910739898682 0.204671978950500488
-0.384939521551132202 0.244814217090606689 0.0341247469186782837
-0.654199063777923584 0.216240778565406799 -0.0394636876881122589
0.482685655355453491 -0.116593509912490845 0.0235686805099248886
0.122082121670246124 0.0791942179203033447 0.138496279716491699
-0.382150411605834961 -0.0730795562267303467 0.0955150574445724487
0.319468438625335693 -0.0726746246218681335 0.0624665208160877228
-0.440861970186233521 -0.0121610602363944054 0.00672383280470967293
-0.502294600009918213 0.233155548572540283 -0.071293167769908905
-0.54736781120300293 0.202931582927703857 -0.0687058120965957642
0.0884871333837509155 0.0913613587617874146 0.0799540132284164429
-0.51999366283416748 0.204032629728317261 -0.0473498404026031494
-0.168362855911254883 0.0720135122537612915 0.23239077627658844
-0.0575879216194152832 -0.187243640422821045 0.0267487913370132446
-0.212583333253860474 0.290325552225112915 0.108960658311843872
0.249459013342857361 -0.00573770469054579735 0.0223678406327962875
-0.555884599685668945 0.203895270824432373 0.118169985711574554
-0.457418620586395264 0.215922921895980835 0.0243627186864614487
-0.462695777416229248 0.265953183174133301 -0.00291125173680484295
-0.575548410415649414 0.247080147266387939 -0.0766478478908538818
-0.389444440603256226 0.27456781268119812 -0.0842896178364753723
0.343535870313644409 -0.134926244616508484 0.318907320499420166
-0.498704522848129272 0.206319570541381836 -0.0117899663746356964
-0.346075475215911865 0.292291253805160522 -0.0503061674535274506
0.525617539882659912 -0.361437231302261353 0.0418487675487995148
-0.540043950080871582 0.214676454663276672 0.200891688466072083
-0.569367587566375732 0.293888390064239502 -0.00338013703003525734
0.316408216953277588 0.0234004035592079163 0.048794332891702652
0.481669306755065918 -0.307475656270980835 -0.303572803735733032
0.479356706142425537 -0.326648116111755371 0.125442057847976685
0.522832274436950684 -0.307418316602706909 -0.0986274182796478271
0.490022003650665283 -0.311245739459991455 -0.307333201169967651
0.515866696834564209 -0.325380623340606689 0.11991148442029953
0.444204717874526978 -0.300660789012908936 -0.290565133094787598
0.522849738597869873 -0.304968595504760742 -0.0972901135683059692
0.134160056710243225 0.116067551076412201 0.337017863988876343
-0.642526865005493164 0.242104604840278625 -0.00965638738125562668
-0.29290422797203064 -0.114421248435974121 -0.105771332979202271
0.538888752460479736 -0.255838930606842041 0.0922725796699523926
0.12901817262172699 0.0972784087061882019 0.317292243242263794
-0.235513016581535339 -0.144057512283325195 -0.0714281126856803894
0.252253890037536621 0.0296805966645479202 -0.0859317854046821594
0.530596435070037842 -0.323528826236724854 0.00690483022481203079
-0.599449276924133301 0.306863993406295776 0.104280032217502594
0.531748473644256592 -0.245011061429977417 0.0866239890456199646
-0.374325603246688843 -0.0613413415849208832 0.0922257900238037109
0.526201784610748291 -0.275738567113876343 -0.123167231678962708
-0.501322686672210693 0.14829118549823761 0.352899760007858276
0.384849607944488525 -0.297967314720153809 0.131883516907691956
0.132417663931846619 -0.332428634166717529 -0.100466713309288025
0.522391378879547119 -0.355261415243148804 -0.0148614551872014999
-0.4366435706615448 0.14995613694190979 -0.0851543396711349487
0.515410840511322021 -0.300471752882003784 0.0647783577442169189
0.392745375633239746 -0.368332594633102417 -0.213630005717277527
0.500211238861083984 -0.171788513660430908 0.130112066864967346
0.532866239547729492 -0.334392666816711426 0.0284618008881807327
-0.58001554012298584 0.348349153995513916 0.0400669053196907043
0.519623160362243652 -0.241397902369499207 -0.308618009090423584
-0.601113021373748779 0.37014201283454895 0.104429028928279877
-0.500825047492980957 0.146662741899490356 0.355105131864547729
0.233700349926948547 -0.278148144483566284 0.31738513708114624
-0.181631341576576233 -0.137537375092506409 -0.0557035356760025024
-0.22867053747177124 -0.138508513569831848 -0.0535972714424133301
-0.204386353492736816 0.297934561967849731 0.126543492078781128
0.26224479079246521 -0.289956748485565186 0.323686271905899048
-0.362528592348098755 -0.0310350563377141953 0.119443438947200775
-0.500342369079589844 0.0189071092754602432 0.0317299962043762207
0.242715775966644287 -0.000172393745742738247 0.322270065546035767
0.141088530421257019 -0.290739685297012329 0.311706036329269409
0.307836621999740601 -0.20782788097858429 0.248215898871421814
-0.386246681213378906 0.254337549209594727 0.0341758131980895996
0.530761599540710449 -0.262623876333236694 0.102997705340385437
0.223945692181587219 0.0224655307829380035 0.305415868759155273
0.530250251293182373 -0.147857174277305603 -0.308141499757766724
-0.645046889781951904 0.230881616473197937 -0.0476988926529884338
0.540900588035583496 -0.311343729496002197 -0.0443707928061485291
0.507458209991455078 -0.268222033977508545 -0.311400532722473145
0.51393282413482666 -0.316572368144989014 -0.29499700665473938
0.458493709564208984 -0.291342645883560181 -0.296491026878356934
-0.543272733688354492 0.267606467008590698 -0.189538806676864624
-0.6215706467628479 0.288500368595123291 0.0664511919021606445
0.363117128610610962 -0.384660959243774414 -0.206055387854576111
-0.0925778895616531372 0.266881972551345825 0.18918144702911377
-0.44867175817489624 0.130743443965911865 -0.208937168121337891
-0.575632691383361816 0.20327933132648468 -0.127286344766616821
-0.630262672901153564 0.191237762570381165 -0.0401178114116191864
-0.469975441694259644 0.138388216495513916 -0.231247320771217346
0.257462829351425171 -0.0173947140574455261 -0.0721179470419883728
0.230360671877861023 0.0535460077226161957 -0.0452161766588687897
0.112980544567108154 0.109476596117019653 0.301547318696975708
-0.584302067756652832 0.217874825000762939 -0.221647590398788452
-0.598377585411071777 0.234765037894248962 -0.0109963798895478249
-0.36730349063873291 -0.0922006592154502869 0.122703887522220612
-0.330304652452468872 -0.125818639993667603 0.137162074446678162
-0.634790718555450439 0.199156954884529114 -0.0385359153151512146
-0.425962179899215698 -0.0553843863308429718 0.0990902632474899292
-0.478329211473464966 0.0196499675512313843 -0.0367193184792995453
0.208533391356468201 0.00834017246961593628 0.300790846347808838
-0.634351849555969238 0.247632384300231934 -0.00622875522822141647
-0.128159984946250916 0.269512802362442017 0.132051512598991394
0.270777434110641479 -0.330570369958877563 0.180094167590141296
0.532682836055755615 -0.210486575961112976 -0.0987918749451637268
-0.126755788922309875 -0.113072969019412994 -0.0549299828708171844
0.453798234462738037 -0.339316099882125854 -0.298018485307693481
-0.212850660085678101 0.0357906930148601532 -0.0598375722765922546
-0.553372085094451904 0.175325095653533936 0.0125818820670247078
-0.198708564043045044 0.13922514021396637 0.0209637116640806198
-0.0128072714433073997 -0.102876521646976471 -0.0430772863328456879
0.264472067356109619 -0.275166809558868408 0.202439948916435242
0.348354548215866089 -0.321408540010452271 -1.81686900759814307e-05
-0.156147301197052002 0.0694104582071304321 0.0273646805435419083
-0.249405905604362488 0.130351632833480835 -0.0346117131412029266
0.198965951800346375 0.00140325992833822966 0.0190067589282989502
0.0762207061052322388 0.080578438937664032 0.0238142255693674088
-0.283574730157852173 0.287825703620910645 -0.00613744603469967842
0.476565539836883545 -0.290233731269836426 -0.301646918058395386
-0.557036161422729492 0.265308618545532227 -0.0174869280308485031
-0.237606987357139587 0.0972032472491264343 -0.0326225608587265015
0.137588143348693848 -0.281136780977249146 0.15000779926776886
0.296072721481323242 -0.297667473554611206 0.0569151490926742554
-0.286193579435348511 0.256815284490585327 0.000350621208781376481
-0.0212648306041955948 -0.0406670421361923218 0.0888612791895866394
0.204362809658050537 0.0425013527274131775 0.0656249821186065674
-0.143991753458976746 -0.0855546295642852783 0.0915794819593429565
0.372263818979263306 -0.073637060821056366 0.0315586552023887634
0.520991086959838867 -0.199421674013137817 -0.0984852612018585205
0.486708521842956543 -0.298235625028610229 -0.305305004119873047
0.480081140995025635 -0.315107285976409912 0.122339151799678802
0.513211607933044434 -0.307529568672180176 -0.102377109229564667
0.495629817247390747 -0.309869527816772461 -0.309673726558685303
0.505780160427093506 -0.328136354684829712 -0.00409846240654587746
0.511369049549102783 -0.324816077947616577 0.1183747798204422
0.465495198965072632 -0.289132297039031982 -0.296502411365509033
0.437613427639007568 -0.263780117034912109 -0.194261759519577026
0.134967565536499023 0.116714954376220703 0.336933791637420654
0.396228283643722534 -0.244542837142944336 0.318773329257965088
-0.601790487766265869 0.353897064924240112 0.065309673547744751
-0.505360126495361328 0.356792807579040527 0.178099781274795532
0.542257189750671387 -0.28279411792755127 0.0979428812861442566
0.256201684474945068 0.0366454683244228363 -0.0721336826682090759
-0.233397111296653748 0.155565261840820312 -0.0054716295562684536
0.505770087242126465 -0.332303851842880249 -0.00252143014222383499
0.444419920444488525 -0.250377625226974487 -0.227977916598320007
-0.639352917671203613 0.254127740859985352 0.0543416514992713928
0.532238543033599854 -0.262961745262145996 0.0932578742504119873
-0.393504828214645386 -0.0597127676010131836 0.100282281637191772
0.523513317108154297 -0.289990335702896118 -0.0920722782611846924
0.0276489071547985077 -0.274534702301025391 -0.0354225896298885345
0.384812027215957642 -0.306307435035705566 0.11880936473608017
-0.582463502883911133 0.366450875997543335 0.131497010588645935
0.240021154284477234 0.0027396713849157095 0.181056380271911621
-0.113234087824821472 0.165226921439170837 0.347365409135818481
0.481789052486419678 -0.368679702281951904 -0.0220442060381174088
0.41184622049331665 -0.321528792381286621 -0.211007490754127502
0.506937384605407715 -0.155753821134567261 0.124027401208877563
0.528417110443115234 -0.335029870271682739 0.0128349596634507179
-0.584419906139373779 0.336030840873718262 0.033891577273607254
-0.591040313243865967 0.381551235914230347 0.131051868200302124
0.52591407299041748 -0.244758084416389465 -0.3105926513671875
0.474034100770950317 -0.2911548912525177 -0.299398094415664673
-0.597510695457458496 0.353340953588485718 0.169459044933319092
-0.587624073028564453 0.371083706617355347 0.100894205272197723
-0.212481305003166199 -0.130013793706893921 -0.0578245073556900024
0.234025582671165466 -0.293245553970336914 0.314953863620758057
0.237851604819297791 0.0669630840420722961 0.320004105567932129
0.541454493999481201 -0.314187228679656982 -0.058091532438993454
-0.445099681615829468 -0.0488332249224185944 0.126924052834510803
0.359156548976898193 -0.388740390539169312 -0.209002211689949036
-0.556903719902038574 0.210740238428115845 -0.113855831325054169
0.520416378974914551 -0.279921352863311768 -0.177081078290939331
0.241701528429985046 0.0346068106591701508 0.314489215612411499
0.242521569132804871 0.000248129101237282157 0.023593975231051445
0.380408257246017456 0.0386697724461555481 0.0118693076074123383
0.526387691497802734 -0.231053769588470459 -0.310098737478256226
0.3267403244972229 0.0960095077753067017 -0.0359618440270423889
-0.374671339988708496 -0.0607670880854129791 -0.133041456341743469
0.512558519840240479 -0.167753905057907104 0.135920926928520203
-0.574792623519897461 0.321633636951446533 0.049265153706073761
-0.559317827224731445 0.283115148544311523 0.36393246054649353
0.224186420440673828 0.0317506082355976105 -0.0582669824361801147
-0.574688732624053955 0.214188113808631897 -0.221279799938201904
-0.0445374622941017151 0.156335711479187012 0.0810328051447868347
0.113870665431022644 0.109864957630634308 0.0253213904798030853
0.342377334833145142 -0.247281491756439209 -0.0968857556581497192
-0.285366415977478027 0.300035804510116577 -0.00303310924209654331
0.153050318360328674 -0.00457942113280296326 -0.00366570008918642998
0.0688439086079597473 0.138642311096191406 0.0755148530006408691
-0.270359039306640625 0.27979317307472229 0.00149666343349963427
0.502957642078399658 -0.292963773012161255 -0.159323781728744507
0.136710062623023987 -0.0260109305381774902 0.0130170835182070732
-0.339448809623718262 -0.0324350185692310333 0.0226495135575532913
0.37307313084602356 -0.092030547559261322 0.044274602085351944
0.199718371033668518 0.10109303891658783 -0.0019127292325720191
-0.297677993774414062 -0.0254518743604421616 0.0357860364019870758
0.13150767982006073 -0.0180157758295536041 -0.0261921174824237823
0.101170927286148071 0.0158702246844768524 0.0911085978150367737
0.175461441278457642 0.119195684790611267 0.0379236862063407898
-0.230908870697021484 -0.0640497356653213501 0.10451643168926239
0.48569217324256897 -0.297098070383071899 -0.303533077239990234
-0.603493928909301758 0.289157867431640625 0.184923127293586731
0.466807246208190918 -0.308983117341995239 0.120095036923885345
0.377958744764328003 -0.0146396933123469353 0.00635778019204735756
0.513962090015411377 -0.295662075281143188 -0.103468321263790131
0.518456578254699707 -0.240145355463027954 -0.307599812746047974
0.477527439594268799 -0.310164660215377808 -0.300290048122406006
0.48299860954284668 -0.274944067001342773 -0.299914002418518066
0.117027617990970612 0.118601314723491669 0.297491997480392456
-0.584488213062286377 0.355959504842758179 0.0655299052596092224
0.383356153964996338 -0.337601512670516968 0.125498950481414795
-0.574779152870178223 0.317282766103744507 -0.0268357321619987488
-0.604791164398193359 0.216721907258033752 -0.0871658101677894592
0.267469406127929688 0.0390391834080219269 -0.0863242447376251221
-0.356831878423690796 -0.0226679444313049316 -0.131334781646728516
-0.56458282470703125 0.313916504383087158 -0.00819154735654592514
0.190274149179458618 -0.341170281171798706 -0.074846312403678894
0.403771162033081055 -0.358029544353485107 -0.224063500761985779
-0.500574290752410889 0.145246490836143494 0.354448974132537842
0.509238958358764648 -0.151717022061347961 0.115000233054161072
0.496463865041732788 -0.264351189136505127 -0.304396688938140869
0.457582682371139526 -0.28130069375038147 -0.28975445032119751
0.440553873777389526 -0.265372514724731445 -0.283716440200805664
-0.5883064866065979 0.357063531875610352 0.0614427365362644196
0.504852712154388428 -0.127028614282608032 0.124418064951896667
-0.206488087773323059 0.312091201543807983 0.10852321982383728
0.267834007740020752 -0.284268051385879517 0.319146037101745605
0.232318192720413208 0.00336641422472894192 0.31779065728187561
0.512875199317932129 -0.176068797707557678 -0.281759291887283325
-0.115558803081512451 0.00955885834991931915 0.00571312103420495987
0.403502821922302246 -0.360058963298797607 -0.224686995148658752
0.417236655950546265 -0.313527107238769531 0.143763259053230286
-0.555756330490112305 0.376111418008804321 0.186521291732788086
-0.17590196430683136 0.308779031038284302 0.118205949664115906
-0.390040338039398193 0.275538712739944458 -0.0852910056710243225
0.364981651306152344 0.0516101419925689697 0.0245681405067443848
0.128995150327682495 0.115501619875431061 0.318727344274520874
-0.286949843168258667 -0.101093262434005737 -0.0922061353921890259
0.257875710725784302 0.100672431290149689 -0.0621116012334823608
-0.361683458089828491 -0.0603274479508399963 -0.144302070140838623
0.133945301175117493 0.113466367125511169 0.337677657604217529
-0.563461065292358398 0.19883766770362854 -0.22925199568271637
-0.276686131954193115 0.287557303905487061 -0.00113534415140748024
0.45451045036315918 -0.246862620115280151 -0.288301467895507812
0.459847122430801392 -0.275831520557403564 -0.290821343660354614
-0.635156214237213135 0.30778658390045166 0.170119836926460266
0.512086629867553711 -0.317809939384460449 -0.0385667383670806885
0.468555033206939697 -0.266230642795562744 -0.29794996976852417
0.477761715650558472 -0.295456737279891968 -0.300224393606185913
0.457767128944396973 -0.246647030115127563 -0.289872348308563232
0.380739033222198486 -0.361388951539993286 -0.213881805539131165
-0.479789257049560547 -0.0129839768633246422 0.185675323009490967
-0.516733944416046143 0.365368247032165527 0.173797100782394409
-0.618880331516265869 0.201616808772087097 -0.0874274149537086487
-0.237659454345703125 0.0183691587299108505 -0.0727314800024032593
-0.382980227470397949 -0.0595078170299530029 0.0235342122614383698
0.474473118782043457 -0.368660151958465576 0.0218244325369596481
-0.649580299854278564 0.236366957426071167 0.0319702029228210449
0.412196844816207886 -0.347125232219696045 -0.221658274531364441
0.52567058801651001 -0.337452888488769531 0.0800810158252716064
0.50565415620803833 -0.239445760846138 -0.308061182498931885
0.249193891882896423 -0.2824535071849823 0.318197667598724365
0.239006280899047852 0.0663928687572479248 0.314548909664154053
0.539171695709228516 -0.302193135023117065 -0.0936477631330490112
-0.448251456022262573 -0.0418351292610168457 0.126355081796646118
-0.0440637245774269104 0.104223206639289856 0.317639470100402832
0.247750729322433472 0.0208523999899625778 0.32212299108505249
-0.285272866487503052 -0.100226767361164093 -0.0992246866226196289
-0.138102561235427856 -0.0154835348948836327 -0.0489941425621509552
-0.278130441904067993 0.337437808513641357 0.0467546321451663971
-0.254982084035873413 0.289475739002227783 -0.00346539868041872978
-0.219157248735427856 0.321494907140731812 0.0696139782667160034
-0.573592305183410645 0.151836439967155457 -0.0747305154800415039
-0.290215641260147095 0.292267531156539917 0.0158101636916399002
0.525238335132598877 -0.320977151393890381 0.027196371927857399
0.345822989940643311 -0.030748169869184494 -0.0345101803541183472
0.521854102611541748 -0.363216608762741089 0.0894145220518112183
-0.083647407591342926 -0.112170778214931488 0.0783240199089050293
-0.404223978519439697 0.325616121292114258 0.120984897017478943
0.504363059997558594 -0.367401719093322754 -0.00446779094636440277
-0.11893928050994873 0.265768259763717651 0.120740070939064026
0.518333196640014648 -0.343270570039749146 0.0358642041683197021
0.129923820495605469 -0.334924519062042236 0.30117112398147583
0.466251671314239502 -0.311341643333435059 0.0724764391779899597
0.482477575540542603 -0.374313414096832275 0.0523431412875652313
0.420802921056747437 -0.0262795910239219666 0.0648476630449295044
0.493758469820022583 -0.363862901926040649 -0.0155167039483785629
-0.233210712671279907 0.286761850118637085 0.0839112997055053711
0.53082805871963501 -0.332087427377700806 -0.00720422947779297829
-0.272194594144821167 0.314994752407073975 0.113733008503913879
0.307993799448013306 0.0023654585238546133 0.0462475530803203583
0.467037618160247803 -0.263837695121765137 -0.29602205753326416
0.473451226949691772 -0.304605007171630859 0.114250928163528442
0.510782301425933838 -0.313994437456130981 -0.10436643660068512
0.508801162242889404 -0.245794981718063354 -0.308379977941513062
0.447564959526062012 -0.292933374643325806 -0.292716085910797119
0.465998321771621704 -0.283701837062835693 -0.297226071357727051
0.13817751407623291 0.112585633993148804 0.336618900299072266
-0.652402222156524658 0.285359978675842285 0.0977538749575614929
-0.638615965843200684 0.244431376457214355 -0.038457043468952179
0.136146962642669678 0.0690716207027435303 0.337747931480407715
-0.577384829521179199 0.303399652242660522 -0.0558300763368606567
0.26224672794342041 0.0302223321050405502 -0.0735348090529441833
0.541587948799133301 -0.217002764344215393 0.111584410071372986
-0.36046832799911499 -0.0363105945289134979 -0.134511873126029968
-0.575019598007202148 0.327086776494979858 -0.0298456009477376938
-0.362171351909637451 -0.0714557096362113953 -0.0341714769601821899
-0.130977332592010498 -0.268020927906036377 0.118935056030750275
0.494729191064834595 -0.366153478622436523 -0.000352547765942290425
0.373430162668228149 -0.359784841537475586 -0.210050091147422791
-0.378783524036407471 -0.107406765222549438 0.101133257150650024
-0.0674740448594093323 -0.264374643564224243 0.296367913484573364
0.519480228424072266 -0.24374920129776001 -0.309399038553237915
0.509065926074981689 -0.330882936716079712 0.0152894211933016777
-0.593612551689147949 0.368623048067092896 0.120311945676803589
-0.655700623989105225 0.175269722938537598 -0.103270329535007477
-0.223429888486862183 -0.144657447934150696 -0.0539026297628879547
-0.19148235023021698 0.316277563571929932 0.100477777421474457
0.25629541277885437 -0.283743321895599365 0.319633632898330688
0.238965883851051331 0.0320374853909015656 0.319025576114654541
-0.120456866919994354 -0.0464850403368473053 0.00711870007216930389
-0.641839325428009033 0.308288455009460449 0.101611346006393433
0.364314496517181396 -0.37433016300201416 -0.20696847140789032
0.537378549575805664 -0.218009099364280701 0.161863371729850769
-0.552989304065704346 0.382103055715560913 0.157706886529922485
-0.122724980115890503 0.258982807397842407 0.114873744547367096
0.119258180260658264 0.102227874100208282 0.0892928168177604675
-0.375713646411895752 0.265383601188659668 -0.0898247808218002319
0.516490399837493896 -0.349361121654510498 0.0987798944115638733
-0.29393690824508667 -0.107699781656265259 -0.109483569860458374
0.274787664413452148 0.102727249264717102 -0.0577463060617446899
-0.57542121410369873 0.219099238514900208 -0.212875828146934509
-0.115751348435878754 0.268281161785125732 0.179557770490646362
0.235651418566703796 -0.288228839635848999 0.314314067363739014
0.30983501672744751 -0.187557876110076904 0.240977689623832703
0.54135739803314209 -0.326177269220352173 -0.0208995155990123749
0.0786014348268508911 -0.338041007518768311 0.282110005617141724
-0.00677145924419164658 -0.172225818037986755 0.00409062253311276436
-0.282513558864593506 0.261322498321533203 0.00678813038393855095
0.512735366821289062 -0.237518161535263062 -0.309395164251327515
-0.647208452224731445 0.277908533811569214 0.0792865604162216187
-0.646628320217132568 0.182783588767051697 -0.0911198928952217102
0.513702929019927979 -0.322839438915252686 0.0243005063384771347
-0.407320141792297363 -0.0641075074672698975 0.113325603306293488
0.51641690731048584 -0.356045961380004883 -0.0206082612276077271
-0.566806435585021973 0.373978108167648315 0.152213975787162781
0.235725581645965576 0.0428493060171604156 0.313569992780685425
