ply
format ascii 1.0
element vertex 738
property float x
property float y
property float z
end_header
0.0632372424006462097 -0.0107609797269105911 0.321713447570800781
0.511205554008483887 -0.360952109098434448 0.047431018203496933
0.135604649782180786 -0.100708507001399994 0.0404705815017223358
0.049401547759771347 0.0115333264693617821 0.0296388175338506699
0.0206304881721735001 0.0482222437858581543 0.0425050705671310425
0.0880297422409057617 -0.0660811588168144226 0.289648652076721191
-0.162120193243026733 -0.26554030179977417 0.14799712598323822
0.264797687530517578 -0.0202536080032587051 0.0614572577178478241
-0.0290270652621984482 -0.0290052331984043121 0.29557192325592041
0.502165794372558594 -0.240372821688652039 -0.302170991897583008
0.475964635610580444 -0.314984649419784546 -0.302111268043518066
-0.631189107894897461 0.306417673826217651 0.16721189022064209
0.47537955641746521 -0.320907622575759888 0.120961114764213562
0.509031951427459717 -0.300911366939544678 -0.105656728148460388
0.528208434581756592 -0.274939835071563721 -0.317353039979934692
0.493573099374771118 -0.332448750734329224 -0.310866743326187134
0.503411412239074707 -0.320226222276687622 0.0979478955268859863
0.474210768938064575 -0.305821269750595093 -0.298263698816299438
-0.559569597244262695 0.268197625875473022 0.364433020353317261
0.124808818101882935 0.116787359118461609 0.314208060503005981
-0.633819460868835449 0.282379716634750366 0.0540910400450229645
-0.587638974189758301 0.362924844026565552 0.102257817983627319
0.371592938899993896 -0.374090433120727539 -0.212861999869346619
0.438399463891983032 -0.34807133674621582 0.154298782348632812
0.0579286031424999237 0.121266268193721771 0.321132093667984009
-0.574855506420135498 0.368931233882904053 0.215422123670578003
0.264605462551116943 0.0245147999376058578 -0.0587555915117263794
0.36876639723777771 -0.336878567934036255 0.160588338971138
0.51047593355178833 -0.301629692316055298 -0.112106874585151672
0.133744820952415466 -0.320585310459136963 -0.0978275313973426819
0.516522586345672607 -0.348881721496582031 -0.0203735195100307465
0.389369338750839233 -0.346824586391448975 -0.214220121502876282
-0.577269375324249268 0.319205522537231445 0.0406133607029914856
0.536021947860717773 -0.277909189462661743 -0.320757776498794556
0.467925578355789185 -0.310955286026000977 -0.299399286508560181
0.507137477397918701 -0.347226172685623169 0.0178560446947813034
-0.556175053119659424 0.309839427471160889 0.102106809616088867
0.193999335169792175 -0.33937796950340271 -0.0592193230986595154
0.0702284276485443115 -0.282208174467086792 -0.0779389292001724243
0.252463698387145996 -0.25038301944732666 0.320184051990509033
0.23977971076965332 0.0307872649282217026 0.316908687353134155
-0.121073760092258453 -0.0478431358933448792 0.00811506249010562897
0.178754478693008423 -0.100277289748191833 -0.0148589117452502251
0.532400250434875488 -0.332414239645004272 -0.0132507719099521637
0.370449423789978027 -0.349545300006866455 -0.208995640277862549
0.534858644008636475 -0.246001213788986206 0.177233517169952393
0.561147570610046387 -0.315856724977493286 -0.331092983484268188
0.554409682750701904 -0.211889952421188354 0.133873388171195984
-0.54356306791305542 0.380878955125808716 0.164398223161697388
0.122687555849552155 0.117058232426643372 0.133103266358375549
-0.582515120506286621 0.352045327425003052 0.0976518094539642334
-0.481727451086044312 0.186053678393363953 -0.0916704237461090088
0.515579640865325928 -0.339304685592651367 0.0387674346566200256
0.253482192754745483 -0.279292494058609009 0.322007417678833008
0.278634995222091675 -0.356018871068954468 -0.126133903861045837
0.507947742938995361 -0.286720812320709229 -0.313824504613876343
-0.432221442461013794 -0.0571753643453121185 0.11666502058506012
0.201795205473899841 0.0903295502066612244 0.223361000418663025
0.244148164987564087 0.104397125542163849 -0.0573167018592357635
-0.195883437991142273 0.201516151428222656 0.349349915981292725
0.250344187021255493 0.0247477944940328598 0.323339313268661499
0.239709511399269104 0.0188439395278692245 0.321034103631973267
-0.0315875411033630371 0.162639185786247253 0.382706612348556519
-0.482617467641830444 -0.0156143242493271828 0.180147707462310791
0.483802288770675659 -0.369216084480285645 0.0460154153406620026
-0.643765866756439209 0.287222981452941895 0.0860727578401565552
0.276000171899795532 -0.165951341390609741 -0.0705562010407447815
-0.411878019571304321 -0.0568515807390213013 0.0788755938410758972
-0.643190979957580566 0.175811409950256348 -0.0821746140718460083
-0.225905030965805054 -0.133931845426559448 -0.0522345192730426788
0.254979938268661499 -0.265710771083831787 0.321167320013046265
-0.345374882221221924 0.0173195600509643555 -0.116979919373989105
-0.287092447280883789 -0.0915499031543731689 -0.106536805629730225
-0.585192024707794189 0.209916025400161743 -0.218165889382362366
0.267643958330154419 -0.297162085771560669 0.315243303775787354
-0.0255202874541282654 -0.187326028943061829 -0.0434844493865966797
-0.618294298648834229 0.277018994092941284 0.0312647633254528046
-0.609092533588409424 0.298330008983612061 0.0923604145646095276
-0.397621184587478638 -0.0628552138805389404 0.118876568973064423
-0.451784759759902954 -0.0381666123867034912 0.11945950984954834
0.431093573570251465 -0.271974086761474609 0.329226702451705933
-0.0526114478707313538 0.140691637992858887 0.0917077213525772095
-0.503198921680450439 0.151150792837142944 0.355444610118865967
0.240873128175735474 -0.319431692361831665 0.322868645191192627
0.497172176837921143 -0.371038287878036499 0.0573354922235012054
0.399295449256896973 -0.257095575332641602 0.322502046823501587
-0.158273324370384216 -0.263528048992156982 0.18164294958114624
-0.499296665191650391 0.0140340402722358704 0.158052921295166016
0.417588412761688232 -0.297590166330337524 0.328778177499771118
0.535326898097991943 -0.340401768684387207 -0.0184826888144016266
0.344399064779281616 -0.267578065395355225 -0.127909809350967407
-0.496631413698196411 0.0719854086637496948 0.203964009881019592
0.443631440401077271 -0.272419840097427368 0.333454608917236328
0.52205580472946167 -0.335619062185287476 0.0327684059739112854
0.453496098518371582 -0.320087432861328125 -0.293138086795806885
0.474257200956344604 -0.311923563480377197 0.116699166595935822
0.517319321632385254 -0.278610855340957642 -0.312936186790466309
0.502777278423309326 -0.326133936643600464 -0.314433485269546509
0.518128633499145508 -0.327348977327346802 0.10191064327955246
0.479439616203308105 -0.311621159315109253 -0.302281945943832397
0.114402100443840027 0.118391573429107666 0.289066702127456665
-0.122204072773456573 0.268535703420639038 0.158809274435043335
-0.615045726299285889 0.265491515398025513 0.0519753284752368927
-0.479517370462417603 0.00304603716358542442 0.181325227022171021
0.426742970943450928 -0.355259329080581665 0.1585816890001297
-0.292266786098480225 -0.110615625977516174 -0.10579836368560791
0.130398347973823547 0.0653048083186149597 0.321280330419540405
0.253673195838928223 0.0384416617453098297 -0.0778695791959762573
0.235381439328193665 0.0936259105801582336 -0.0531379915773868561
0.417798101902008057 -0.261764854192733765 -0.202427610754966736
0.521732568740844727 -0.35487934947013855 -0.019500046968460083
-0.609158813953399658 0.381111651659011841 0.181166335940361023
0.517670989036560059 -0.279510974884033203 -0.31485903263092041
0.499164313077926636 -0.350236624479293823 0.0240501780062913895
-0.588125407695770264 0.369297206401824951 0.112947046756744385
0.50588458776473999 -0.105032838881015778 0.147260725498199463
-0.198309749364852905 0.311468958854675293 0.112945213913917542
0.26409032940864563 -0.286751359701156616 0.319833070039749146
0.236788660287857056 0.0618931129574775696 0.310570687055587769
-0.144516408443450928 -0.0435766987502574921 0.00418027164414525032
-0.657963097095489502 0.214707136154174805 -0.0463274307548999786
-0.288583487272262573 -0.0760119780898094177 -0.0686416402459144592
0.227179914712905884 0.0419205613434314728 -0.0482110381126403809
0.551454484462738037 -0.144786804914474487 0.132012933492660522
0.519766628742218018 -0.295622944831848145 0.0748759284615516663
0.51765364408493042 -0.284288913011550903 -0.181264862418174744
-0.358117461204528809 -0.0171469822525978088 -0.0279899649322032928
0.0913312435150146484 0.0879826918244361877 0.0857750028371810913
0.466718107461929321 -0.36212921142578125 -0.0107070840895175934
-0.433064669370651245 0.157703951001167297 -0.0665610954165458679
0.523810505867004395 -0.335892200469970703 0.0688781216740608215
0.262950330972671509 -0.28612026572227478 0.318556308746337891
0.00937717314809560776 -0.091116979718208313 -0.0261401236057281494
0.032571103423833847 -0.130522832274436951 0.0218638032674789429
-0.630951046943664551 0.26500856876373291 0.0289247184991836548
0.24198324978351593 0.0740608498454093933 0.318837881088256836
0.240088775753974915 0.0293124448508024216 0.318922042846679688
-0.175105020403862 0.300741910934448242 0.116324186325073242
0.304605603218078613 -0.151553809642791748 0.307825475931167603
0.261986434459686279 -0.290918469429016113 0.321042925119400024
-0.47632753849029541 -0.00821612309664487839 0.16619873046875
0.242610856890678406 0.0814966410398483276 0.312195569276809692
0.520236790180206299 -0.351542651653289795 0.0819160118699073792
-0.0348590314388275146 -0.237689241766929626 0.124130763113498688
-0.638582408428192139 0.290002256631851196 0.0987067371606826782
-0.234219953417778015 -0.132902741432189941 -0.0580215305089950562
-0.37934112548828125 -0.108854174613952637 0.105529338121414185
-0.236423879861831665 -0.147919580340385437 -0.0578661821782588959
-0.658179283142089844 0.214399963617324829 -0.034030623733997345
0.528872132301330566 -0.352874487638473511 0.0778566673398017883
-0.621404588222503662 0.270268112421035767 0.0523699894547462463
-0.40424036979675293 -0.0643972158432006836 0.112045839428901672
-0.446442276239395142 -0.0415540598332881927 0.121967695653438568
0.268051445484161377 -0.285814553499221802 0.323516517877578735
0.127699196338653564 -0.326735496520996094 0.312656521797180176
0.152357369661331177 -0.343226701021194458 0.317927837371826172
0.447831630706787109 -0.335843950510025024 -0.293111205101013184
0.515775382518768311 -0.303208142518997192 -0.108026646077632904
0.515293359756469727 -0.280482351779937744 -0.312954485416412354
0.484953105449676514 -0.327900230884552002 -0.309913933277130127
0.464443743228912354 -0.346106886863708496 -0.302787244319915771
0.549619793891906738 -0.210461422801017761 -0.316111743450164795
0.524160921573638916 -0.300264865159988403 -0.322607308626174927
0.518029093742370605 -0.301076292991638184 -0.318502545356750488
0.246714890003204346 0.0567801445722579956 0.316430240869522095
0.241175487637519836 0.0872502624988555908 0.3127632737159729
-0.291714578866958618 -0.100624382495880127 -0.101922996342182159
-0.453694611787796021 -0.0520316176116466522 0.117058508098125458
0.404769062995910645 -0.272512286901473999 0.322547614574432373
-0.50255507230758667 0.00373401748947799206 0.189105898141860962
0.401067465543746948 -0.287484198808670044 0.324865430593490601
0.399211883544921875 -0.273806214332580566 0.323343664407730103
0.342253327369689941 -0.259205222129821777 0.0900917872786521912
-0.0187577586621046066 -0.244486302137374878 0.128704294562339783
-0.464668810367584229 0.0359334386885166168 0.189539775252342224
-0.194655001163482666 0.221483245491981506 0.172086372971534729
0.366904854774475098 -0.329487800598144531 -0.0235542673617601395
0.323534488677978516 -0.39027521014213562 -0.15894635021686554
0.53542017936706543 -0.323859989643096924 -0.0582835972309112549
-0.441903620958328247 -0.00478370115160942078 0.152687892317771912
-0.0191943515092134476 -0.0596680603921413422 0.141757696866989136
-0.000203683011932298541 -0.236228018999099731 0.106418058276176453
0.52617192268371582 -0.202054500579833984 -0.0801005065441131592
0.449882298707962036 -0.308532774448394775 -0.292995184659957886
0.526880979537963867 -0.275642424821853638 -0.315807521343231201
0.499973595142364502 -0.325084090232849121 -0.312802791595458984
0.475289762020111084 -0.305251240730285645 -0.297516316175460815
-0.12775072455406189 0.246501624584197998 0.138986960053443909
-0.649291336536407471 0.282028913497924805 0.0940796136856079102
-0.199225142598152161 0.286551594734191895 0.335967063903808594
0.497859269380569458 -0.0870488658547401428 0.136624664068222046
0.200871884822845459 -0.359291821718215942 -0.0908456966280937195
0.50541996955871582 -0.367899656295776367 -0.0227593258023262024
0.52717965841293335 -0.242948293685913086 0.172936350107192993
-0.586282730102539062 0.379326701164245605 0.170556381344795227
0.445101708173751831 -0.315124630928039551 -0.287868469953536987
0.498451977968215942 -0.111406750977039337 0.112134583294391632
-0.655976772308349609 0.175522550940513611 -0.103950202465057373
-0.20227910578250885 0.308667898178100586 0.0891528874635696411
0.201212197542190552 -0.0138308089226484299 0.295302540063858032
0.16001012921333313 -0.062348581850528717 -0.0440965555608272552
-0.579810023307800293 0.302243202924728394 0.368634730577468872
0.274887353181838989 0.0981184765696525574 -0.0291780326515436172
-0.435427010059356689 0.155409067869186401 -0.0860881656408309937
0.53441917896270752 -0.333273649215698242 0.0126973753795027733
-0.568896949291229248 0.197367802262306213 -0.229247644543647766
-0.497757315635681152 0.0450204499065876007 -0.0869494080543518066
0.031413692981004715 -0.104136630892753601 0.0330151990056037903
0.534127235412597656 -0.264683455228805542 -0.316453695297241211
0.00953561440110206604 0.197502091526985168 0.0275664534419775009
0.302065640687942505 0.0386366099119186401 -0.0845548436045646667
-0.332196682691574097 -0.0159920696169137955 -0.107734374701976776
0.236374974250793457 0.0142028992995619774 0.321840345859527588
0.124972693622112274 0.0127937467768788338 0.299009442329406738
0.527494370937347412 -0.355390787124633789 0.0663006901741027832
0.467160165309906006 -0.310032278299331665 -0.233226165175437927
-0.652273774147033691 0.285368978977203369 0.104187808930873871
0.546500623226165771 -0.220231160521507263 0.163491725921630859
0.528026163578033447 -0.323597133159637451 -0.0160955637693405151
-0.383051782846450806 -0.0563952997326850891 0.0762201249599456787
0.457000792026519775 -0.311015218496322632 -0.292693495750427246
0.505052030086517334 -0.340004175901412964 -0.318041145801544189
0.4789084792137146 -0.314496845006942749 -0.299640476703643799
0.520435035228729248 -0.301481276750564575 -0.317466914653778076
-0.00222195149399340153 -0.140076622366905212 -0.0248024482280015945
0.397546380758285522 -0.273364096879959106 0.323518842458724976
0.401215165853500366 -0.27179226279258728 0.323823481798171997
0.506079614162445068 -0.33220556378364563 0.10583968460559845
-0.467666417360305786 0.0424698516726493835 0.170645564794540405
0.410079210996627808 -0.346079409122467041 0.156603351235389709
-0.360770910978317261 -0.0352600328624248505 -0.148135378956794739
-0.128106683492660522 -0.26770251989364624 0.112459674477577209
0.512632369995117188 -0.369238585233688354 -0.0147023880854249001
-0.213899701833724976 0.312472045421600342 0.0976866036653518677
0.250656872987747192 -0.287256181240081787 0.322984069585800171
0.208918631076812744 0.00922279246151447296 -0.0461394190788269043
0.0700569525361061096 -0.151628315448760986 -0.0172168202698230743
-0.169948339462280273 0.304693549871444702 0.118888959288597107
0.471165508031845093 -0.364550232887268066 0.0070189167745411396
-0.290834516286849976 -0.0994152575731277466 -0.103180311620235443
0.0365493372082710266 -0.149774849414825439 -0.0216829739511013031
0.232090353965759277 0.0560123920440673828 0.309256166219711304
0.253463000059127808 -0.288818627595901489 0.320764899253845215
-0.471749752759933472 0.00117413466796278954 0.168664664030075073
0.240903109312057495 0.0624651238322257996 0.313153326511383057
0.508982717990875244 -0.352233409881591797 0.0639514625072479248
0.227504312992095947 -0.314943283796310425 0.314675718545913696
-0.375340521335601807 -0.0931185558438301086 0.0862045437097549438
-0.0625936463475227356 -0.241663232445716858 0.302668094635009766
-0.222573131322860718 -0.127648144960403442 -0.0530812069773674011
-0.409853935241699219 -0.0654098019003868103 0.0985331758856773376
-0.444986075162887573 -0.0446757078170776367 0.13274577260017395
0.239054843783378601 -0.294193774461746216 0.314543277025222778
0.154023155570030212 -0.324441641569137573 0.320238739252090454
0.425339072942733765 -0.256285786628723145 0.328667014837265015
0.438391059637069702 -0.343067973852157593 -0.292763710021972656
0.50646895170211792 -0.334706693887710571 -0.318185955286026001
0.445239156484603882 -0.352416276931762695 -0.286821603775024414
0.238167554140090942 0.0655290484428405762 0.312433153390884399
0.403294175863265991 -0.287712931632995605 0.325989723205566406
-0.494778752326965332 0.00676419679075479507 0.188392996788024902
0.485698670148849487 -0.0634846016764640808 0.131750628352165222
0.0126727679744362831 -0.170802727341651917 0.00989333353936672211
0.531617045402526855 -0.307795703411102295 -0.0622484534978866577
0.314983546733856201 -0.302390754222869873 -0.126834437251091003
0.446063101291656494 -0.291468560695648193 -0.285729050636291504
-0.336948275566101074 0.224677026271820068 0.12575899064540863
-0.40076369047164917 -0.0281269494444131851 -0.00191064388491213322
0.403200268745422363 -0.27193528413772583 0.324206739664077759
-0.133352562785148621 0.195711120963096619 0.167829558253288269
0.399251312017440796 -0.271871507167816162 0.3240203857421875
-0.446435749530792236 -0.0248912349343299866 0.021399298682808876
-0.138059690594673157 0.24477030336856842 0.191788837313652039
-0.612827003002166748 0.294086813926696777 0.183692097663879395
0.124524012207984924 0.115919888019561768 0.316797375679016113
-0.121009655296802521 0.250501960515975952 0.161916375160217285
-0.583331167697906494 0.348213642835617065 0.0580613128840923309
0.426982522010803223 -0.348253846168518066 0.153085023164749146
-0.566706359386444092 0.295149475336074829 -0.0690818578004837036
0.251943618059158325 0.0265729688107967377 -0.0795956775546073914
0.247667834162712097 0.100241273641586304 -0.0483581796288490295
-0.35723915696144104 -0.0556067526340484619 -0.141867861151695251
0.198678001761436462 0.12006726861000061 0.0357871204614639282
0.545578420162200928 -0.131728768348693848 0.112006939947605133
-0.58161628246307373 0.321839332580566406 -0.0229370202869176865
0.206183269619941711 0.0245129875838756561 0.176914438605308533
-0.595368325710296631 0.375204205513000488 0.171968430280685425
0.444941878318786621 -0.319352865219116211 0.127410575747489929
0.25526195764541626 -0.278789728879928589 0.316607266664505005
0.235584676265716553 0.0236388370394706726 0.316685080528259277
-0.362717568874359131 -0.0496437624096870422 -0.023760523647069931
-0.182565823197364807 0.118151262402534485 0.0423596389591693878
0.254979372024536133 -0.288224101066589355 0.319424867630004883
0.242013290524482727 0.033011801540851593 0.321948081254959106
0.399833559989929199 0.0231729727238416672 0.115189440548419952
-0.340267956256866455 -0.0659592300653457642 -0.147307842969894409
0.0760296657681465149 -0.332899808883666992 0.299115538597106934
-0.386578291654586792 -0.060644492506980896 0.0938567221164703369
-0.448020279407501221 -0.0411506406962871552 0.127752229571342468
0.439487427473068237 -0.279402703046798706 0.333742231130599976
0.0346883870661258698 -0.122835412621498108 -0.02559669129550457
0.4144631028175354 -0.280852377414703369 0.327086776494979858
0.43316948413848877 -0.296143382787704468 0.333247095346450806
0.368160754442214966 -0.278711646795272827 -0.130311086773872375
-0.477258920669555664 0.00161209667567163706 0.188353240489959717
-0.291249662637710571 -0.0961251407861709595 -0.104513168334960938
0.241612792015075684 -0.312975078821182251 0.309789896011352539
0.473386913537979126 -0.35427364706993103 0.00702944118529558182
-0.296085894107818604 -0.0963717550039291382 -0.106969378888607025
0.244959324598312378 -0.288568615913391113 0.320180505514144897
0.0625657588243484497 -0.329598814249038696 0.297200262546539307
0.158322319388389587 -0.267676591873168945 -0.105516962707042694
0.250196665525436401 0.0632723718881607056 0.315576851367950439
-0.482351064682006836 -0.00773316016420722008 0.177966147661209106
0.23633912205696106 0.0664458870887756348 0.314935445785522461
0.238957569003105164 -0.331769466400146484 0.321522802114486694
-0.382012516260147095 -0.0917948856949806213 0.036752067506313324
-0.2158326655626297 -0.139880210161209106 -0.0543134324252605438
-0.382478058338165283 -0.0634521842002868652 0.0835711210966110229
0.1502360999584198 -0.331545710563659668 0.332031667232513428
0.446005702018737793 -0.279935091733932495 0.333665519952774048
0.4075775146484375 -0.280563235282897949 0.325199723243713379
-0.501866936683654785 0.00674753682687878609 0.188704550266265869
-0.321724086999893188 0.0973530858755111694 -0.0702546983957290649
0.532666146755218506 -0.207591786980628967 -0.0526728108525276184
0.451255500316619873 -0.293906956911087036 -0.290619641542434692
0.487711608409881592 -0.325252890586853027 -0.311044365167617798
0.446705520153045654 -0.309746712446212769 -0.290983468294143677
-0.577655553817749023 0.269254148006439209 0.365826815366744995
-0.461200416088104248 0.105955101549625397 -0.23106740415096283
0.375046014785766602 -0.318744003772735596 0.199128895998001099
-0.589733600616455078 0.36696198582649231 0.131178602576255798
0.392872899770736694 -0.353444814682006836 -0.217593461275100708
0.441404074430465698 -0.310288310050964355 -0.289191752672195435
-0.200664222240447998 0.305394083261489868 0.0950153321027755737
-0.155508652329444885 0.267879009246826172 0.151727467775344849
0.52996903657913208 -0.338522583246231079 0.0717944055795669556
0.464077234268188477 -0.266175776720046997 -0.217787429690361023
-0.633440613746643066 0.275771230459213257 0.106962904334068298
0.438725948333740234 -0.308580726385116577 -0.287361890077590942
0.515735149383544922 -0.27722582221031189 -0.317006438970565796
0.516869008541107178 -0.340359687805175781 -0.320923060178756714
0.4546642005443573 -0.307063698768615723 -0.293420404195785522
0.491069287061691284 -0.322012454271316528 0.0943668708205223083
0.0209328383207321167 -0.275706321001052856 -0.0185377001762390137
-0.65390390157699585 0.172059804201126099 -0.10822615772485733
-0.224693581461906433 0.318495035171508789 0.121416173875331879
0.465564846992492676 -0.364154934883117676 0.00585773307830095291
0.481261700391769409 -0.336885601282119751 0.0502432622015476227
0.51177370548248291 -0.339419275522232056 -0.319581747055053711
0.440503776073455811 -0.356564790010452271 -0.297777324914932251
-0.269974261522293091 0.321982204914093018 0.0419175587594509125
0.424454182386398315 -0.313299417495727539 -0.282053291797637939
0.415667414665222168 -0.295301884412765503 0.328534603118896484
-0.32587859034538269 -0.0752760767936706543 0.123536087572574615
-0.366675794124603271 -0.0665892660617828369 0.154741451144218445
-0.338197469711303711 0.214845508337020874 0.132897317409515381
0.0101190637797117233 0.119314782321453094 0.105196982622146606
0.542211234569549561 -0.309268742799758911 -0.0462783463299274445
0.0139385256916284561 -0.261708050966262817 0.039559531956911087
-0.00326841254718601704 -0.236499965190887451 0.0943258032202720642
0.000485364755149930716 -0.219545260071754456 0.081581510603427887
0.465136885643005371 -0.361012905836105347 0.0302667580544948578
-0.269151598215103149 -0.137890651822090149 0.177588418126106262
-0.344876408576965332 -0.0657681822776794434 0.141332492232322693
0.123735316097736359 -0.276669561862945557 0.129040330648422241
-0.13375149667263031 0.0787886157631874084 0.0903390198945999146
0.463562101125717163 -0.0545702949166297913 0.0175181720405817032
-0.0138521287590265274 -0.216852784156799316 0.0804226696491241455
-0.554716885089874268 0.391655772924423218 0.147714152932167053
0.496817559003829956 -0.366884529590606689 0.00518478313460946083
-0.610655665397644043 0.29408419132232666 0.186497300863265991
0.530260443687438965 -0.275291711091995239 -0.317844003438949585
0.370537161827087402 -0.264730989933013916 0.181539997458457947
0.420538574457168579 -0.344570130109786987 0.150851666927337646
0.252067416906356812 0.0390670448541641235 -0.0667241364717483521
0.549487948417663574 -0.150117591023445129 0.124199062585830688
-0.570474028587341309 0.284117817878723145 -0.00646861083805561066
0.501085638999938965 -0.362736672163009644 -0.00134761608205735683
0.208225786685943604 0.115527473390102386 -0.0104716243222355843
-0.288926631212234497 -0.0855157896876335144 -0.0663657262921333313
0.159402966499328613 -0.0833078473806381226 -0.036175459623336792
-0.33972632884979248 -0.105324074625968933 0.141377434134483337
0.511278510093688965 -0.281453162431716919 -0.31335863471031189
-0.339044451713562012 -0.0795186012983322144 0.0386673286557197571
-0.369252055883407593 0.280765175819396973 -0.0625613853335380554
0.510002672672271729 -0.341090679168701172 0.0650767534971237183
0.302429467439651489 -0.206042647361755371 0.247941881418228149
0.542956531047821045 -0.312151610851287842 -0.0608305223286151886
0.141563922166824341 0.0693682655692100525 0.336451530456542969
-0.594790160655975342 0.267595827579498291 0.0121305389329791069
0.222032234072685242 -0.00724205328151583672 0.295629203319549561
0.23085823655128479 0.0341711491346359253 0.312819063663482666
0.533657670021057129 -0.319763898849487305 -0.0128631554543972015
-0.389111995697021484 -0.0638542771339416504 0.105824828147888184
-0.447363674640655518 -0.0400032848119735718 0.126603633165359497
0.49596676230430603 -0.0915581285953521729 0.154423654079437256
0.250864177942276001 0.0629493892192840576 0.316694706678390503
-0.291124463081359863 -0.0926190018653869629 0.307859152555465698
-0.366313636302947998 -0.114615485072135925 0.104130275547504425
-0.563258767127990723 0.127406999468803406 -0.0784836709499359131
-0.501337826251983643 0.0235888715833425522 0.186749041080474854
0.51833641529083252 -0.2974720299243927 -0.314195722341537476
0.472822070121765137 -0.328364044427871704 -0.300044983625411987
-0.574189126491546631 0.268919825553894043 0.362754106521606445
-0.57114255428314209 0.354947507381439209 0.167051240801811218
-0.191751942038536072 0.304642230272293091 0.101378023624420166
-0.661979019641876221 0.239867120981216431 0.0416222475469112396
-0.504772484302520752 0.144496172666549683 0.353430420160293579
0.507360994815826416 -0.34728577733039856 -0.318478822708129883
-0.200574859976768494 0.304977297782897949 0.102037787437438965
0.475286900997161865 -0.35780063271522522 0.00461435317993164062
0.509885787963867188 -0.330911219120025635 0.0663533061742782593
-0.610674381256103516 0.367649197578430176 0.0877644345164299011
-0.562407076358795166 0.288369834423065186 -0.0559769235551357269
0.219956308603286743 0.0101177627220749855 0.309157967567443848
0.240519300103187561 0.00494574196636676788 0.321615040302276611
-0.359291046857833862 -0.0567511841654777527 -0.137863859534263611
0.399377286434173584 -0.252949714660644531 0.321946620941162109
0.399683058261871338 -0.26331755518913269 0.324700295925140381
0.224229350686073303 -0.324224680662155151 0.320755302906036377
0.411164581775665283 -0.26805838942527771 0.325119644403457642
-0.508986532688140869 0.049551103264093399 0.19533894956111908
-0.631078600883483887 0.156618013978004456 -0.0526813901960849762
-0.501746714115142822 0.147061005234718323 0.345402956008911133
0.52115929126739502 -0.350846797227859497 -0.323223710060119629
0.495455741882324219 -0.348528534173965454 0.000131987457280047238
-0.197693943977355957 0.0161787755787372589 -0.0499257370829582214
-0.557682633399963379 0.341847985982894897 -0.00574846658855676651
0.488663196563720703 -0.360659480094909668 0.0409653633832931519
0.449188888072967529 -0.0744845867156982422 0.00183746370021253824
-0.556245386600494385 0.385263830423355103 0.157837286591529846
0.374710440635681152 -0.0814048871397972107 -0.12005944550037384
-0.389655768871307373 0.319599926471710205 0.168881028890609741
-0.384618252515792847 0.3281574547290802 0.197585403919219971
-0.364025861024856567 0.23804125189781189 -0.0834659412503242493
-0.407191097736358643 0.199558854103088379 0.0409359633922576904
-0.644396185874938965 0.286900460720062256 0.0935928076505661011
0.408710658550262451 -0.347439855337142944 0.136370167136192322
0.222340047359466553 0.0826854407787322998 -0.0336158424615859985
0.498588323593139648 -0.161556154489517212 0.123734936118125916
0.500302553176879883 -0.093165472149848938 0.134651228785514832
0.215373307466506958 0.00167495652567595243 0.299491852521896362
-0.35290566086769104 -0.0680557414889335632 -0.00905025284737348557
-0.38527977466583252 0.26603013277053833 -0.0716541111469268799
0.506574749946594238 -0.347308933734893799 0.0548266507685184479
-0.356709659099578857 -0.0562143363058567047 -0.145455464720726013
0.132190272212028503 0.072430044412612915 0.322178304195404053
-0.0993031561374664307 -0.265515804290771484 0.00614870293065905571
0.242418274283409119 0.023082539439201355 0.321919888257980347
-0.480213403701782227 -0.0116567639634013176 0.185351282358169556
0.242435291409492493 0.0480654165148735046 0.317099541425704956
-0.278140723705291748 0.332654565572738647 0.0407000668346881866
0.369856268167495728 -0.0311330463737249374 -0.0400900207459926605
0.520285069942474365 -0.348214149475097656 -0.0364472940564155579
0.293310075998306274 -0.0122287385165691376 0.0369132049381732941
-0.644082307815551758 0.284819334745407104 0.0924403592944145203
0.0356948040425777435 0.136528238654136658 0.0850989371538162231
-0.397244453430175781 -0.0575621537864208221 0.12592683732509613
-0.441221952438354492 -0.0381582155823707581 0.131349429488182068
0.523954391479492188 -0.317806333303451538 -0.0655967816710472107
0.422520309686660767 -0.280243515968322754 0.331186383962631226
0.509737014770507812 -0.345205098390579224 0.0569948926568031311
0.403935492038726807 -0.259124964475631714 0.323594003915786743
-0.480133861303329468 0.0180903784930706024 0.176734894514083862
0.235465124249458313 0.0682483687996864319 0.314497530460357666
-0.479277461767196655 -0.00831216387450695038 0.167379647493362427
0.239089250564575195 0.0672563686966896057 0.314898580312728882
0.388081580400466919 0.0256393440067768097 0.105872534215450287
0.219751730561256409 -0.316228240728378296 0.310411214828491211
0.382902413606643677 0.0425546765327453613 0.0689048245549201965
0.462587743997573853 0.0103630777448415756 0.174939334392547607
0.399561554193496704 -0.258915424346923828 0.32716900110244751
-0.499447762966156006 0.0211683139204978943 0.180950403213500977
-0.573381900787353516 0.266195774078369141 0.359977662563323975
-0.664436817169189453 0.229933470487594604 0.0217640362679958344
-0.149280309677124023 0.275222063064575195 0.0790669769048690796
0.522195816040039062 -0.335271626710891724 -0.322838515043258667
-0.220381170511245728 0.315543800592422485 0.0967602133750915527
0.499963164329528809 -0.346798121929168701 0.0668887272477149963
-0.189745694398880005 0.302620738744735718 0.114781178534030914
0.313683688640594482 -0.130466490983963013 0.300671935081481934
0.225120887160301208 -0.0355245247483253479 0.305131345987319946
0.0576166249811649323 -0.330869674682617188 0.291445732116699219
0.435309797525405884 -0.280280619859695435 0.332698047161102295
0.409045606851577759 -0.286071360111236572 0.330867260694503784
0.385754972696304321 -0.26610991358757019 0.318745166063308716
0.397625595331192017 -0.38488355278968811 -0.225891634821891785
-0.162260696291923523 0.278245121240615845 0.128629982471466064
0.380540668964385986 0.0435761250555515289 0.0768494978547096252
0.390875846147537231 -0.256073176860809326 0.318751037120819092
-0.500168681144714355 0.0244495794177055359 0.185788363218307495
0.499756336212158203 -0.326152801513671875 -0.313464641571044922
0.380807042121887207 -0.376173943281173706 -0.216498523950576782
0.521265804767608643 -0.349492937326431274 -0.325240284204483032
0.520824849605560303 -0.348632544279098511 -0.322178781032562256
0.513442039489746094 -0.319882661104202271 -0.31880497932434082
0.255097061395645142 -0.222614243626594543 0.0573712810873985291
0.186138182878494263 -0.142504692077636719 -0.10576300323009491
0.507857441902160645 -0.32050025463104248 0.029035419225692749
-0.469307214021682739 -0.0119121819734573364 0.18104805052280426
0.496352970600128174 -0.349188297986984253 -0.310133188962936401
0.521600663661956787 -0.32775646448135376 -0.322311550378799438
0.47616046667098999 -0.320473074913024902 -0.303411394357681274
-0.3410663902759552 0.229809403419494629 -0.0443589165806770325
0.201569512486457825 0.13250279426574707 0.112100176513195038
-0.172448739409446716 0.0221178513020277023 0.025550423189997673
0.265697479248046875 -0.166077196598052979 0.00588200334459543228
0.544766068458557129 -0.328575819730758667 -0.0480818971991539001
-0.456130623817443848 -0.053096037358045578 0.162164077162742615
0.469867736101150513 -0.356280684471130371 -0.307467818260192871
0.478587210178375244 -0.270039558410644531 -0.301896780729293823
0.467483341693878174 -0.362087756395339966 -0.308557659387588501
-0.320107251405715942 0.266580313444137573 0.011465846560895443
0.0331044159829616547 0.0983475521206855774 0.128446370363235474
-0.284307539463043213 -0.10007089376449585 -0.0873870179057121277
-0.616625726222991943 0.21701909601688385 -0.104905746877193451
0.244304090738296509 0.104197882115840912 -0.0299301706254482269
0.466377466917037964 -0.23536209762096405 -0.228840738534927368
-0.293569087982177734 -0.0885265693068504333 -0.0959458574652671814
0.249218523502349854 -0.27613377571105957 0.322514563798904419
0.221973270177841187 0.0665810257196426392 -0.0280813891440629959
-0.250597506761550903 -0.130207404494285583 -0.055525604635477066
-0.211611583828926086 0.301872134208679199 0.14869825541973114
0.33982318639755249 -0.140915676951408386 0.318218082189559937
0.529729902744293213 -0.356841981410980225 0.0694686993956565857
-0.599793314933776855 0.356619060039520264 0.0603402145206928253
-0.346024185419082642 -0.0557437911629676819 -0.143690943717956543
-0.432592242956161499 0.157568082213401794 -0.0846933871507644653
0.526630043983459473 -0.331969916820526123 0.0201614871621131897
0.528215289115905762 -0.288218647241592407 -0.0703961849212646484
-0.4986133873462677 0.142705917358398438 -0.253972679376602173
0.14636547863483429 0.156481474637985229 0.0586811117827892303
0.253203302621841431 -0.00797299481928348541 0.327587813138961792
0.349967002868652344 -0.14750206470489502 0.320452749729156494
0.442428916692733765 -0.322708308696746826 -0.229647308588027954
-0.223824352025985718 -0.140023142099380493 -0.053837999701499939
0.522549331188201904 -0.350482195615768433 0.0967455282807350159
-0.645951747894287109 0.253487348556518555 0.023798743262887001
0.393249243497848511 -0.280374258756637573 0.322197467088699341
-0.474483907222747803 -0.00985686108469963074 0.164826005697250366
0.224517792463302612 -0.325226575136184692 0.31901174783706665
-0.363409161567687988 -0.12117353081703186 0.130374535918235779
-0.238269820809364319 -0.140644475817680359 -0.0539676658809185028
-0.113820634782314301 -0.00926336552947759628 -0.0167323071509599686
0.389475554227828979 -0.278645753860473633 0.320528209209442139
-0.506807327270507812 0.01127619668841362 0.201913923025131226
0.462774038314819336 -0.297080010175704956 -0.294612675905227661
0.351310640573501587 -0.148460134863853455 0.321308940649032593
0.458012610673904419 -0.303886383771896362 -0.229115620255470276
0.0246538762003183365 -0.143872976303100586 -0.0202375557273626328
0.369052916765213013 -0.328000009059906006 0.318681538105010986
0.391701698303222656 -0.281798332929611206 0.316789358854293823
0.128803297877311707 -0.319254457950592041 -0.0971996262669563293
-0.134559392929077148 0.278304040431976318 0.117486476898193359
-0.333109647035598755 0.0945072472095489502 -0.102430790662765503
0.374244928359985352 -0.376035511493682861 -0.215050205588340759
0.520042359828948975 -0.3458823561668396 -0.322856694459915161
0.523610472679138184 -0.358144581317901611 -0.326716035604476929
-0.068104967474937439 -0.254842847585678101 0.0989010035991668701
0.325761348009109497 -0.131157055497169495 0.314641833305358887
0.424354404211044312 -0.260050177574157715 0.328195929527282715
-0.479757457971572876 0.031912095844745636 0.196672335267066956
0.526774227619171143 -0.299753040075302124 -0.322321236133575439
0.538203001022338867 -0.29260486364364624 -0.324735522270202637
0.378038704395294189 -0.374275416135787964 -0.21376153826713562
0.371541142463684082 -0.357213497161865234 -0.213763996958732605
0.524230778217315674 -0.351744621992111206 -0.325097918510437012
0.525538861751556396 -0.363520056009292603 -0.323185652494430542
0.515700280666351318 -0.327297776937484741 -0.320177257061004639
0.479668259620666504 -0.352439731359481812 -0.312311083078384399
0.478638499975204468 -0.365707278251647949 -0.313027411699295044
-0.361789792776107788 0.310372889041900635 0.239790439605712891
-0.320698082447052002 0.10409168154001236 0.0222055502235889435
-0.447498440742492676 0.204298108816146851 -0.040392901748418808
-0.377665668725967407 0.279352933168411255 -0.00730481836944818497
-0.0223654191941022873 -0.260785549879074097 0.143871590495109558
-0.591902554035186768 0.361488074064254761 0.0641395077109336853
0.367746293544769287 -0.373600006103515625 -0.212551206350326538
-0.123965412378311157 -0.0107110962271690369 0.00796700827777385712
0.396802753210067749 -0.353495508432388306 -0.218377649784088135
0.507343530654907227 -0.159813836216926575 0.125121548771858215
0.195338144898414612 0.124543003737926483 0.00633928412571549416
-0.0269542746245861053 0.16672535240650177 0.38306427001953125
-0.333888977766036987 -0.121023476123809814 0.100370004773139954
-0.32519039511680603 0.302898198366165161 -0.0367205254733562469
0.534167885780334473 -0.347001522779464722 0.0377484895288944244
0.525416374206542969 -0.332037180662155151 0.0344205833971500397
-0.595742166042327881 0.38212817907333374 0.113328196108341217
-0.0109350541606545448 -0.144275844097137451 -0.0268568377941846848
-0.235216081142425537 0.172017499804496765 -0.00164787110406905413
-0.485373795032501221 -0.0105423014611005783 0.177247092127799988
-0.278063118457794189 0.336065739393234253 0.0422503761947154999
0.513505935668945312 -0.34927031397819519 0.0970089957118034363
-0.448468327522277832 -0.0356886088848114014 0.117441222071647644
0.43442961573600769 -0.253501921892166138 0.331794828176498413
0.414930045604705811 -0.278598785400390625 0.327270299196243286
-0.468799352645874023 0.0345239937305450439 0.193611681461334229
0.502360224723815918 -0.3397541344165802 0.00787314120680093765
-0.481341332197189331 -0.00270692957565188408 0.177577361464500427
-0.377287060022354126 -0.106597401201725006 0.0929530933499336243
-0.500916242599487305 0.0223022475838661194 0.184349313378334045
0.360814452171325684 -0.287051111459732056 -0.141878411173820496
0.00173861812800168991 -0.231407240033149719 0.0901075974106788635
-0.140329658985137939 0.265016824007034302 0.0884542912244796753
-0.129639118909835815 0.254336148500442505 0.0714420899748802185
0.312782108783721924 -0.293396443128585815 -0.131221920251846313
0.428265959024429321 -0.255739808082580566 0.330294787883758545
-0.615332424640655518 0.306654274463653564 0.39225199818611145
0.410957306623458862 -0.358081847429275513 -0.22645220160484314
0.505302369594573975 -0.346607476472854614 -0.319952249526977539
0.50799858570098877 -0.35264250636100769 -0.322660565376281738
0.523757815361022949 -0.298614501953125 -0.318741917610168457
0.509956240653991699 -0.346954345703125 -0.320277690887451172
0.270158767700195312 -0.169546112418174744 -0.079594247043132782
0.133707255125045776 0.120167970657348633 0.32918199896812439
0.251949816942214966 -0.285154938697814941 0.328256845474243164
0.324509561061859131 -0.120453394949436188 0.310675501823425293
0.302512764930725098 -0.204614505171775818 0.251209735870361328
0.250083863735198975 -0.00398519961163401604 0.325143635272979736
0.507360577583312988 -0.343307852745056152 0.0875447168946266174
0.241678923368453979 0.089675411581993103 0.310052722692489624
0.463055402040481567 -0.284199237823486328 -0.231235787272453308
-0.262217909097671509 0.313945889472961426 0.0458822958171367645
0.344161659479141235 -0.14021223783493042 0.329480141401290894
0.374087274074554443 -0.363964200019836426 -0.208757713437080383
0.337703913450241089 -0.129482090473175049 0.320722579956054688
0.526688992977142334 -0.347295969724655151 -0.32410004734992981
0.524457752704620361 -0.352150887250900269 -0.326654255390167236
0.480278968811035156 -0.372417598962783813 -0.313117682933807373
-0.359862864017486572 -0.0649344921112060547 0.08294658362865448
-0.407337844371795654 0.0886914357542991638 -0.113170146942138672
0.0140919312834739685 0.0980163514614105225 0.217237308621406555
-0.378338038921356201 -0.093105413019657135 -0.028303908184170723
0.26549115777015686 0.0682441368699073792 -0.0918769538402557373
-0.10815129429101944 -0.0151946144178509712 0.0460613220930099487
-0.357920914888381958 -0.0919467434287071228 0.0129665927961468697
-0.290389448404312134 0.304764330387115479 0.166667729616165161
-0.355379790067672729 -0.073498070240020752 0.040678754448890686
-0.598563611507415771 0.294603705406188965 0.186549574136734009
0.249378755688667297 0.0965966507792472839 -0.0343327447772026062
0.37936672568321228 -0.355019420385360718 -0.209430575370788574
0.469841539859771729 -0.324912995100021362 0.13798774778842926
0.464612096548080444 -0.271994918584823608 -0.0930361226201057434
-0.439504325389862061 -0.043007679283618927 0.0842612758278846741
-0.336162179708480835 -0.124693118035793304 0.127680554986000061
0.528392672538757324 -0.342080295085906982 0.0509871430695056915
0.392653882503509521 0.0468800775706768036 0.133577883243560791
-0.18598233163356781 0.31402471661567688 0.107894770801067352
-0.441466003656387329 -0.0429029986262321472 0.117841631174087524
0.53744882345199585 -0.326339453458786011 -0.0557056628167629242
-0.353040635585784912 0.306372553110122681 0.114241823554039001
0.494223475456237793 -0.346268951892852783 0.0440720953047275543
-0.575509905815124512 0.305183351039886475 0.379396349191665649
0.431018263101577759 -0.281187087297439575 0.333756446838378906
-0.47752419114112854 0.00405886396765708923 0.164163544774055481
0.525054037570953369 -0.350029259920120239 -0.00261529511772096157
-0.0671469345688819885 -0.262871623039245605 0.298589944839477539
-0.511822283267974854 0.0046200254000723362 0.188090920448303223
0.390112042427062988 -0.360443621873855591 -0.215729683637619019
-0.118550777435302734 0.254306972026824951 0.0636661574244499207
-0.500337183475494385 0.00503481039777398109 0.19328482449054718
0.426500141620635986 -0.274692356586456299 0.330687612295150757
-0.333453088998794556 0.104151830077171326 -0.118513777852058411
-0.105925850570201874 0.254161655902862549 0.0936875566840171814
0.510874688625335693 -0.341848492622375488 -0.319755256175994873
-0.612792789936065674 0.30261838436126709 0.396275758743286133
-0.508913993835449219 0.0366117320954799652 0.188610970973968506
-0.29090610146522522 -0.0891195982694625854 -0.0786060765385627747
0.509731173515319824 -0.34512704610824585 -0.321180760860443115
0.0717688500881195068 0.139167577028274536 0.0725450366735458374
0.24552290141582489 0.106993429362773895 0.321499943733215332
0.473330169916152954 -0.286962240934371948 -0.230766460299491882
0.305336028337478638 -0.314863771200180054 0.331815391778945923
0.511945903301239014 -0.350193977355957031 -0.322206199169158936
-0.315209895372390747 -0.0869528055191040039 -0.0342582464218139648
0.514558255672454834 -0.355897665023803711 -0.323172390460968018
-0.625143110752105713 0.180423244833946228 -0.0862589403986930847
-0.353375285863876343 -0.0558410435914993286 -0.143992260098457336
-0.33120688796043396 0.269531458616256714 -0.0550751946866512299
-0.177247762680053711 0.13887488842010498 0.00502773048356175423
0.545399129390716553 -0.217702090740203857 0.15916714072227478
0.03056337870657444 0.102399632334709167 0.0653959289193153381
0.509999752044677734 -0.331064879894256592 -0.319555193185806274
0.585999131202697754 -0.325354784727096558 -0.320145219564437866
0.249819040298461914 -0.288468211889266968 0.318476438522338867
0.25555342435836792 -0.00329325231723487377 0.328080892562866211
0.301628023386001587 -0.282755583524703979 0.331331431865692139
-0.344040513038635254 -0.0907564237713813782 0.0179978981614112854
-0.374214828014373779 -0.0899416208267211914 -0.0182615946978330612
-0.065183296799659729 -0.273480325937271118 0.15948091447353363
-0.630473911762237549 0.275717735290527344 0.075877845287322998
0.366831362247467041 -0.365783751010894775 -0.212328150868415833
-0.124283678829669952 -0.0292306952178478241 -0.00659975595772266388
-0.598591089248657227 0.342385292053222656 0.0904871076345443726
0.444126546382904053 -0.249634653329849243 -0.286414206027984619
0.382871925830841064 -0.348268717527389526 -0.212198406457901001
0.312615633010864258 -0.372870504856109619 -0.15617312490940094
-0.179617211222648621 0.312662839889526367 0.100080788135528564
0.535204648971557617 -0.319529086351394653 -0.0325099900364875793
-0.655140578746795654 0.238448619842529297 0.0139711964875459671
-0.452924668788909912 -0.0538229532539844513 0.163313359022140503
0.50002366304397583 -0.348821967840194702 0.0713029429316520691
0.440547972917556763 -0.261144936084747314 0.334362834692001343
0.507315754890441895 -0.344041109085083008 0.0298339724540710449
0.264419734477996826 0.121362783014774323 0.0270746331661939621
0.399767100811004639 0.0322804376482963562 0.139745712280273438
-0.106530353426933289 0.252564013004302979 0.0727089941501617432
0.316869497299194336 -0.380896776914596558 -0.157051458954811096
-0.566617369651794434 0.295611768960952759 -0.0515069290995597839
0.390571534633636475 -0.362957656383514404 -0.221111416816711426
0.358968555927276611 0.0332029648125171661 0.0485103391110897064
0.194811880588531494 -0.365579336881637573 -0.0958320274949073792
0.391445279121398926 -0.35588604211807251 -0.217236459255218506
0.51986849308013916 -0.335363596677780151 -0.322702020406723022
0.523070931434631348 -0.33354833722114563 -0.324143201112747192
0.244259655475616455 0.0239213388413190842 0.324006944894790649
0.212583348155021667 -0.338702619075775146 0.318687647581100464
0.237017422914505005 0.105850465595722198 0.315076529979705811
0.521828651428222656 -0.337271779775619507 -0.325792193412780762
0.318365901708602905 -0.380008965730667114 -0.151204764842987061
0.584329307079315186 -0.318234622478485107 -0.334364861249923706
-0.380823343992233276 -0.0933774039149284363 -0.0177684314548969269
0.458343476057052612 -0.32574424147605896 0.124998889863491058
0.388823658227920532 0.0533036403357982635 0.131568759679794312
-0.173852384090423584 0.307264447212219238 0.105962991714477539
-0.462075978517532349 -0.030019029974937439 0.134529352188110352
0.43968626856803894 -0.261728495359420776 0.335141360759735107
0.400189578533172607 0.0244746133685112 0.127873197197914124
0.427367478609085083 -0.263871222734451294 0.332073420286178589
-0.509679853916168213 0.00434404332190752029 0.190883100032806396
-0.13116919994354248 0.253548085689544678 0.0816212072968482971
-0.283992648124694824 0.335784047842025757 0.0343190878629684448
0.455367475748062134 -0.259755730628967285 0.33666539192199707
-0.330677270889282227 0.0978201627731323242 -0.117713034152984619
-0.508415400981903076 0.03612552210688591 0.188568383455276489
0.258052051067352295 0.00728556280955672264 0.327570497989654541
0.445940971374511719 -0.256273210048675537 0.333849638700485229
