ply
format ascii 1.0
element vertex 738
property float x
property float y
property float z
end_header
0.542066037654876709 -0.215620413422584534 0.111200645565986633
-0.577305376529693604 0.326449036598205566 0.0802706778049468994
0.246642410755157471 0.110886916518211365 -0.0541701130568981171
0.0336323902010917664 0.067981429398059845 0.272609561681747437
-0.56227409839630127 0.274796605110168457 0.0237981602549552917
-0.614210844039916992 0.271601498126983643 0.0383844450116157532
0.535426974296569824 -0.23959977924823761 0.103227682411670685
-0.576310515403747559 0.212224632501602173 -0.116849400103092194
-0.425338864326477051 0.0300989970564842224 -0.188557460904121399
0.304405957460403442 -0.126816704869270325 -0.108023792505264282
-0.385368466377258301 -0.0562184453010559082 0.100652895867824554
-0.603512465953826904 0.259126752614974976 0.0172877609729766846
-0.460893362760543823 0.305821269750595093 0.0811196044087409973
0.504669189453125 -0.264336287975311279 -0.108887962996959686
0.534412205219268799 -0.19273105263710022 0.0290503706783056259
-0.616465389728546143 0.210029140114784241 -0.0562776289880275726
0.452449440956115723 -0.123946666717529297 0.089716009795665741
0.0335272662341594696 -0.279904425144195557 -0.0357030816376209259
0.401856571435928345 -0.319130182266235352 0.131237134337425232
-0.0938631966710090637 0.073601067066192627 0.29323965311050415
0.24318327009677887 -0.137124836444854736 0.0113678863272070885
0.161315843462944031 -0.271868109703063965 0.0440758541226387024
-0.590829730033874512 0.368739217519760132 0.0900390073657035828
0.027044953778386116 -0.0121037513017654419 0.0280480422079563141
0.195819169282913208 0.0336700752377510071 0.178359761834144592
-0.306323409080505371 -0.0918591320514678955 0.305485904216766357
0.493502676486968994 -0.367197781801223755 0.0201723054051399231
0.521393954753875732 -0.311756253242492676 0.0463960617780685425
0.502474129199981689 -0.15382780134677887 0.119338184595108032
0.0807699486613273621 -0.272427529096603394 -0.0593851767480373383
-0.325658679008483887 -0.103725537657737732 0.0884346812963485718
-0.586441159248352051 0.334376275539398193 0.0184127632528543472
-0.0739226341247558594 -0.23609045147895813 0.30171358585357666
0.194257184863090515 -0.340240597724914551 -0.0621213503181934357
-0.399071455001831055 0.271515309810638428 -0.0546618662774562836
-0.522027552127838135 0.0436138473451137543 -0.0578058362007141113
-0.257942497730255127 0.141730412840843201 0.0913371220231056213
-0.213736608624458313 -0.136239245533943176 -0.0632041990756988525
0.508357822895050049 -0.105003692209720612 0.144660875201225281
0.214070409536361694 -0.279984146356582642 -0.00905090756714344025
0.238136127591133118 -0.0763755068182945251 0.127122625708580017
-0.140515223145484924 0.296118408441543579 0.147860303521156311
-0.656269311904907227 0.171012401580810547 -0.112631961703300476
0.253345757722854614 -0.00974915549159049988 0.250189870595932007
0.250223040580749512 -0.179088518023490906 0.302926301956176758
-0.263282686471939087 -0.137514084577560425 -0.0676172971725463867
-0.200920730829238892 0.313909202814102173 0.0989769920706748962
0.257718145847320557 -0.278292924165725708 0.323241889476776123
0.178822517395019531 -0.0544215887784957886 -0.050760999321937561
-0.443558603525161743 -0.067158430814743042 0.129057377576828003
-0.504036068916320801 0.0296006370335817337 0.247106835246086121
-0.497304469347000122 0.0359878316521644592 -0.0117371687665581703
0.2326698899269104 0.0225368756800889969 0.314270257949829102
-0.371612459421157837 -0.0462567843496799469 0.143371760845184326
-0.349106758832931519 0.10603710263967514 0.0659944415092468262
0.307531267404556274 -0.1990547776222229 0.243177682161331177
0.308375149965286255 -0.0058060837909579277 0.219846323132514954
-0.44298204779624939 0.266047507524490356 -0.0373276807367801666
0.516866564750671387 -0.326901763677597046 -0.080938190221786499
-0.539022564888000488 0.137935861945152283 -0.0972644537687301636
0.465597629547119141 -0.124757781624794006 0.00236709136515855789
-0.385517358779907227 0.254807442426681519 0.0327378548681735992
0.493725031614303589 -0.302211642265319824 0.121471263468265533
0.46515318751335144 -0.106490932404994965 0.0599586591124534607
0.203724473714828491 0.0148338153958320618 -0.0419676564633846283
-0.224675089120864868 0.295293867588043213 0.158706873655319214
-0.125212937593460083 -0.0494047664105892181 0.0109834745526313782
-0.231798097491264343 0.227956026792526245 0.348197102546691895
-0.381008774042129517 -0.0548158027231693268 0.145481690764427185
0.341138958930969238 -0.0740730613470077515 0.048018481582403183
-0.436184555292129517 -0.0127535685896873474 0.0340442098677158356
0.205398261547088623 0.0162938833236694336 0.0706559419631958008
0.0562598966062068939 -0.086284637451171875 0.239435270428657532
-0.384103357791900635 -0.0600108429789543152 0.116591550409793854
-0.136902675032615662 -0.26525115966796875 -0.00110480934381484985
-0.243843004107475281 0.0631058886647224426 0.24487854540348053
-0.542298495769500732 0.210390612483024597 0.162670880556106567
-0.590924382209777832 0.286695331335067749 -0.00741123547777533531
0.30692523717880249 0.0172942392528057098 0.043192494660615921
0.47824588418006897 -0.315143853425979614 -0.30496641993522644
0.50352632999420166 -0.345852494239807129 -0.0633536726236343384
0.47147822380065918 -0.305423885583877563 0.115484438836574554
0.526872932910919189 -0.303231596946716309 -0.108925208449363708
-0.40301242470741272 0.310987174510955811 0.134669572114944458
0.517666459083557129 -0.251654714345932007 -0.306939601898193359
0.507342755794525146 -0.329430222511291504 -0.314330637454986572
0.518618881702423096 -0.331649124622344971 0.0920298174023628235
0.477130740880966187 -0.304614245891571045 -0.302598387002944946
0.527332425117492676 -0.285973429679870605 -0.107536129653453827
-0.560090720653533936 0.266792029142379761 0.365554213523864746
-0.64033663272857666 0.289139539003372192 0.0850446820259094238
0.371244966983795166 -0.40149223804473877 -0.217134028673171997
-0.449955552816390991 -0.00152255687862634659 0.175098851323127747
0.176462113857269287 0.0725912675261497498 0.00690542254596948624
-0.453750759363174438 0.134100750088691711 -0.213660940527915955
0.403004437685012817 -0.336136817932128906 0.129375025629997253
-0.599086999893188477 0.206907853484153748 0.000713073764927685261
0.247524857521057129 -0.11485707014799118 -0.070468999445438385
-0.48334425687789917 0.182143688201904297 -0.210090711712837219
-0.376276552677154541 -0.0635632723569869995 0.0917295888066291809
0.522713005542755127 -0.321256577968597412 0.0363271832466125488
0.542207598686218262 -0.217686966061592102 0.108727268874645233
0.525530397891998291 -0.273823648691177368 0.0557751879096031189
0.111257851123809814 0.0837285444140434265 0.317477047443389893
-0.35103297233581543 -0.0483785979449748993 0.0450476221740245819
0.105179049074649811 0.0718708261847496033 0.295712560415267944
-0.165305808186531067 0.132586389780044556 0.151443704962730408
0.5025748610496521 -0.256809353828430176 -0.10200374573469162
0.428820043802261353 -0.304126203060150146 0.136365354061126709
-0.355841070413589478 -0.10186506062746048 0.159085780382156372
0.498445093631744385 -0.201954349875450134 -0.107454419136047363
-0.578584134578704834 0.347622901201248169 0.152030676603317261
0.105096988379955292 -0.0118654267862439156 0.0214010104537010193
-0.341339677572250366 -0.123810566961765289 0.104642555117607117
-0.120725274085998535 -0.275977969169616699 0.174167469143867493
-0.161125510931015015 0.166863247752189636 0.325265765190124512
0.514823198318481445 -0.358888089656829834 0.0272484701126813889
0.520860075950622559 -0.287883579730987549 -0.0112089430913329124
0.478753775358200073 -0.140256240963935852 0.108109869062900543
-0.180886507034301758 0.0288530979305505753 0.0260158590972423553
-0.342055708169937134 -0.122032478451728821 0.103785507380962372
-0.600292444229125977 0.37634924054145813 0.18827587366104126
-0.119709201157093048 -0.267078876495361328 0.218418970704078674
0.523257732391357422 -0.309140712022781372 -0.0743208155035972595
0.51611328125 -0.252468705177307129 -0.309063434600830078
0.454801976680755615 -0.308560937643051147 -0.294016748666763306
0.240645900368690491 -0.0962500795722007751 0.158982738852500916
-0.620301187038421631 0.2717914879322052 0.0370729565620422363
-0.430025547742843628 -0.00426299730315804482 0.177345335483551025
-0.250481784343719482 -0.137284174561500549 -0.0709950998425483704
0.317284196615219116 -0.319234311580657959 0.122925266623497009
0.539136052131652832 -0.250003010034561157 0.107104033231735229
0.452605605125427246 -0.140081807971000671 0.0159096699208021164
0.429252445697784424 -0.32127806544303894 0.124150924384593964
0.413157284259796143 -0.331119120121002197 -0.209361046552658081
0.47369876503944397 -0.128834277391433716 0.109994977712631226
-0.54903411865234375 0.378125905990600586 0.172503456473350525
0.190524086356163025 -0.340079158544540405 -0.0130130359902977943
-0.201744183897972107 -0.135794013738632202 -0.0683233514428138733
-0.185553461313247681 0.311636567115783691 0.117974728345870972
0.103421181440353394 0.107394516468048096 0.174708887934684753
-0.4444102942943573 -0.054736357182264328 0.0918705835938453674
-0.48945462703704834 0.0296227019280195236 0.016850767657160759
0.231443867087364197 0.0107434205710887909 0.315346509218215942
-0.0246143322438001633 0.112825684249401093 0.312629163265228271
0.243302121758460999 -0.0388922020792961121 0.2050066739320755
-0.384865850210189819 0.244824916124343872 0.0343319922685623169
-0.654140770435333252 0.216304183006286621 -0.0393275022506713867
0.482866257429122925 -0.116535142064094543 0.0239420756697654724
0.122267007827758789 0.0791943073272705078 0.138841822743415833
-0.381984353065490723 -0.0729949921369552612 0.095674470067024231
0.319689095020294189 -0.072630077600479126 0.0628327652812004089
-0.440731793642044067 -0.0120863365009427071 0.00688852416351437569
-0.502226173877716064 0.233191058039665222 -0.0711212381720542908
-0.547299623489379883 0.202975466847419739 -0.0685446858406066895
0.0886730849742889404 0.0913639962673187256 0.080305635929107666
-0.519924581050872803 0.204069569706916809 -0.0471826568245887756
-0.168171688914299011 0.072014249861240387 0.23262360692024231
-0.0572978779673576355 -0.187127813696861267 0.0269936695694923401
-0.212494850158691406 0.290325433015823364 0.109224066138267517
0.249672219157218933 -0.00570837082341313362 0.0227417610585689545
-0.555837690830230713 0.203919470310211182 0.118320256471633911
-0.457352161407470703 0.215939447283744812 0.0245457235723733902
-0.462639510631561279 0.265969008207321167 -0.00272929342463612556
-0.575490951538085938 0.247128099203109741 -0.0764933452010154724
-0.389361679553985596 0.274595022201538086 -0.0840808674693107605
0.343774348497390747 -0.134889781475067139 0.319218605756759644
-0.498638570308685303 0.206345707178115845 -0.0116177350282669067
-0.345993071794509888 0.292313843965530396 -0.0500800237059593201
0.525817930698394775 -0.361313521862030029 0.0421494133770465851
-0.539996027946472168 0.214688614010810852 0.201041862368583679
-0.569336771965026855 0.293918758630752563 -0.0032284401822835207
0.316595077514648438 0.0234170723706483841 0.0491810217499732971
0.481862723827362061 -0.307289630174636841 -0.303269416093826294
0.47958064079284668 -0.326544225215911865 0.125753730535507202
0.523024499416351318 -0.307281017303466797 -0.0983133763074874878
0.490211308002471924 -0.311059027910232544 -0.307033300399780273
0.516072869300842285 -0.3252754807472229 0.120221644639968872
0.444415807723999023 -0.300479352474212646 -0.290254592895507812
0.523041725158691406 -0.304832041263580322 -0.0969752445816993713
0.134326815605163574 0.11603817343711853 0.337337076663970947
-0.642477095127105713 0.242161571979522705 -0.0095190955325961113
-0.292694300413131714 -0.114283494651317596 -0.1055760458111763
0.53907012939453125 -0.255742967128753662 0.0926024541258811951
0.129194676876068115 0.0972537025809288025 0.3176097571849823
-0.235277116298675537 -0.143919780850410461 -0.0712236911058425903
0.252466678619384766 0.0297107938677072525 -0.0855426713824272156
0.530788302421569824 -0.323406785726547241 0.00721608754247426987
-0.599426746368408203 0.306899309158325195 0.104417294263839722
0.531931579113006592 -0.244917511940002441 0.0869576185941696167
-0.3741607666015625 -0.0612602420151233673 0.0923904851078987122
0.526388168334960938 -0.275603741407394409 -0.122845999896526337
-0.501234054565429688 0.148285284638404846 0.353057920932769775
0.385108321905136108 -0.297868847846984863 0.13219916820526123
0.132729038596153259 -0.332268178462982178 -0.100193560123443604
0.522590994834899902 -0.355130195617675781 -0.0145591376349329948
-0.436544299125671387 0.149997532367706299 -0.0849647000432014465
0.515608668327331543 -0.300363242626190186 0.0650982856750488281
0.392995774745941162 -0.36815527081489563 -0.213328525424003601
0.500396668910980225 -0.171722352504730225 0.130465671420097351
0.533059239387512207 -0.334271848201751709 0.0287695359438657761
-0.579996168613433838 0.348386257886886597 0.0402101911604404449
0.519793570041656494 -0.241229191422462463 -0.308303505182266235
-0.601105332374572754 0.370179086923599243 0.104562677443027496
-0.500735640525817871 0.146656841039657593 0.355263173580169678
0.234003603458404541 -0.278076350688934326 0.317622154951095581
-0.181378915905952454 -0.137409180402755737 -0.0554785430431365967
-0.228433415293693542 -0.13837704062461853 -0.0533891580998897552
-0.204300180077552795 0.297932684421539307 0.126805707812309265
0.26254698634147644 -0.289883524179458618 0.323928624391555786
-0.36237037181854248 -0.030968518927693367 0.119613714516162872
-0.500235497951507568 0.0189729258418083191 0.0318818502128124237
0.242921307682991028 -0.000173514054040424526 0.322592765092849731
0.141405463218688965 -0.290657401084899902 0.311907410621643066
0.30810701847076416 -0.207767859101295471 0.248512431979179382
-0.38617590069770813 0.254348039627075195 0.0343822427093982697
0.5309486985206604 -0.262528449296951294 0.10332595556974411
0.224144428968429565 0.0224590692669153214 0.305742919445037842
0.530408084392547607 -0.147718265652656555 -0.307804763317108154
-0.644990742206573486 0.230942845344543457 -0.0475607253611087799
0.541085541248321533 -0.311215609312057495 -0.0440587662160396576
0.507635593414306641 -0.268045008182525635 -0.311091572046279907
0.514113426208496094 -0.316389232873916626 -0.294701695442199707
0.458697259426116943 -0.291159927845001221 -0.296177715063095093
-0.543208599090576172 0.267666339874267578 -0.189381986856460571
-0.621539652347564697 0.288544327020645142 0.0665871351957321167
0.363381356000900269 -0.38448101282119751 -0.20575714111328125
-0.0924759060144424438 0.266867309808731079 0.189472764730453491
-0.448564708232879639 0.130815640091896057 -0.208762362599372864
-0.575562000274658203 0.203337103128433228 -0.127133101224899292
-0.630199313163757324 0.191298410296440125 -0.0399774685502052307
-0.469874322414398193 0.138466298580169678 -0.231081947684288025
0.257690459489822388 -0.0173513684421777725 -0.071737922728061676
0.23056165874004364 0.0535643547773361206 -0.0448276437819004059
0.113153442740440369 0.1094503253698349 0.301866382360458374
-0.584232449531555176 0.217953398823738098 -0.221504509449005127
-0.598326146602630615 0.234811469912528992 -0.0108490539714694023
-0.367124289274215698 -0.0921146571636199951 0.122858956456184387
-0.330100327730178833 -0.125725582242012024 0.137316852807998657
-0.634729206562042236 0.199217677116394043 -0.0383963510394096375
-0.425815075635910034 -0.0553056821227073669 0.0992412790656089783
-0.478212833404541016 0.0197216030210256577 -0.0365579240024089813
0.208742186427116394 0.00833470188081264496 0.301110953092575073
-0.634303808212280273 0.24768693745136261 -0.0060901101678609848
-0.128055676817893982 0.269505530595779419 0.132339522242546082
0.271078139543533325 -0.330470234155654907 0.180365771055221558
0.53285980224609375 -0.210373401641845703 -0.0984514802694320679
-0.126493021845817566 -0.112960010766983032 -0.054679185152053833
0.454007387161254883 -0.339125841856002808 -0.297722727060317993
-0.212654262781143188 0.0358581691980361938 -0.0595777221024036407
-0.553309500217437744 0.175362035632133484 0.0127396322786808014
-0.198551744222640991 0.139245897531509399 0.0212408583611249924
-0.0125300129875540733 -0.102782458066940308 -0.0427889488637447357
0.264767825603485107 -0.275084078311920166 0.202718794345855713
0.348624259233474731 -0.321284681558609009 0.000300829211482778192
-0.155954822897911072 0.0694475248456001282 0.0276429299265146255
-0.24925348162651062 0.130386829376220703 -0.0343501977622509003
0.19918370246887207 0.00143104849848896265 0.0193761102855205536
0.0764202997088432312 0.0805907249450683594 0.0241664126515388489
-0.283481746912002563 0.28783649206161499 -0.00587377371266484261
0.476760596036911011 -0.290049195289611816 -0.301334917545318604
-0.556989908218383789 0.265344232320785522 -0.0173304248601198196
-0.237440600991249084 0.0972465500235557556 -0.0323610827326774597
0.137895822525024414 -0.281036287546157837 0.150260388851165771
0.296353399753570557 -0.297556966543197632 0.05722857266664505
-0.286094337701797485 0.25682908296585083 0.000602638116106390953
-0.0210160203278064728 -0.0406155288219451904 0.0891436561942100525
0.204557538032531738 0.0425145365297794342 0.0659950003027915955
-0.143742531538009644 -0.0854768902063369751 0.0918118506669998169
0.372474312782287598 -0.0735919550061225891 0.031935572624206543
0.521172106266021729 -0.199312657117843628 -0.0981397330760955811
0.486898750066757202 -0.298050910234451294 -0.304999351501464844
0.480302244424819946 -0.315005183219909668 0.12265467643737793
0.5134086012840271 -0.307391464710235596 -0.10206148773431778
0.495816081762313843 -0.309682995080947876 -0.309374719858169556
0.505984961986541748 -0.328012287616729736 -0.00378520390950143337
0.511577069759368896 -0.3247109055519104 0.118685610592365265
0.465695887804031372 -0.288948178291320801 -0.296187311410903931
0.43783530592918396 -0.263632446527481079 -0.193930685520172119
0.135133892297744751 0.116685502231121063 0.337253332138061523
0.396486937999725342 -0.244485273957252502 0.319068163633346558
-0.601774632930755615 0.353936851024627686 0.0654468908905982971
-0.505348622798919678 0.356803357601165771 0.178251639008522034
0.542439460754394531 -0.282691687345504761 0.098265424370765686
0.256409496068954468 0.0366713814437389374 -0.0717432126402854919
-0.233251944184303284 0.155588343739509583 -0.00520283868536353111
0.505975484848022461 -0.332179248332977295 -0.0022094829473644495
0.444633930921554565 -0.250225812196731567 -0.227646902203559875
-0.639312148094177246 0.254177749156951904 0.0544764213263988495
0.532424092292785645 -0.262864619493484497 0.0935863330960273743
-0.393346518278121948 -0.0596332810819149017 0.10044078528881073
0.523703336715698242 -0.289857983589172363 -0.0917527377605438232
0.0279605444520711899 -0.274389743804931641 -0.0351679734885692596
0.38507118821144104 -0.306204825639724731 0.119125589728355408
-0.58245617151260376 0.366481512784957886 0.131633564829826355
0.2402229905128479 0.00275342748500406742 0.181406617164611816
-0.113073624670505524 0.165191203355789185 0.347616076469421387
0.482011467218399048 -0.368545502424240112 -0.0217400882393121719
0.412083238363265991 -0.321362435817718506 -0.210693463683128357
0.507115781307220459 -0.155691370368003845 0.124384663999080658
0.528611838817596436 -0.334906727075576782 0.0131430057808756828
-0.584396719932556152 0.336069017648696899 0.0340351350605487823
-0.59103548526763916 0.381583362817764282 0.131187424063682556
0.526081621646881104 -0.244588211178779602 -0.310280561447143555
0.474230825901031494 -0.290969759225845337 -0.299084961414337158
-0.597499608993530273 0.353370189666748047 0.169592693448066711
-0.587621450424194336 0.371120363473892212 0.101026371121406555
-0.212240278720855713 -0.129885479807853699 -0.0576079376041889191
0.234332159161567688 -0.29316943883895874 0.315187424421310425
0.23802734911441803 0.0669470280408859253 0.320344001054763794
0.541639447212219238 -0.314056128263473511 -0.0577809847891330719
-0.444959402084350586 -0.0487601980566978455 0.127068296074867249
0.359420746564865112 -0.388558954000473022 -0.208706855773925781
-0.556833922863006592 0.210791334509849548 -0.113697260618209839
0.52060312032699585 -0.279774248600006104 -0.176763847470283508
0.241891711950302124 0.0345981940627098083 0.314822584390640259
0.242733210325241089 0.000275782280368730426 0.0239677261561155319
0.380578428506851196 0.0386802591383457184 0.0122695453464984894
0.526554226875305176 -0.230887606739997864 -0.309782803058624268
0.326907843351364136 0.0960105955600738525 -0.0355543717741966248
-0.374502837657928467 -0.0606452450156211853 -0.132865935564041138
0.512738168239593506 -0.167689099907875061 0.136274203658103943
-0.574767768383026123 0.321668297052383423 0.0494106300175189972
-0.559272408485412598 0.283107519149780273 0.364089637994766235
0.224398627877235413 0.0317778140306472778 -0.0578832253813743591
-0.574617505073547363 0.21426507830619812 -0.221134379506111145
-0.0443734526634216309 0.156335383653640747 0.0813512951135635376
0.11405298113822937 0.109866239130496979 0.0256898421794176102
0.342637479305267334 -0.247157126665115356 -0.0965456366539001465
-0.285279303789138794 0.30004960298538208 -0.00277942465618252754
0.153279140591621399 -0.00454276381060481071 -0.00330905034206807613
0.0690115168690681458 0.138637140393257141 0.0758668407797813416
-0.270263046026229858 0.279805153608322144 0.00175798032432794571
0.503155529499053955 -0.292817384004592896 -0.159006059169769287
0.136947467923164368 -0.0259677134454250336 0.0133616579696536064
-0.339280694723129272 -0.0323534682393074036 0.0228411220014095306
0.373287826776504517 -0.0919802486896514893 0.0446466952562332153
0.19989699125289917 0.101083710789680481 -0.00151021487545222044
-0.29749751091003418 -0.0253744758665561676 0.035992693156003952
0.131747126579284668 -0.0179694071412086487 -0.0258431285619735718
0.101389490067958832 0.0158935189247131348 0.0914441719651222229
0.175630107522010803 0.119190461933612823 0.0383071452379226685
-0.230691611766815186 -0.0639738813042640686 0.104723840951919556
0.485883146524429321 -0.296913594007492065 -0.303226321935653687
-0.603468060493469238 0.289186626672744751 0.185056939721107483
0.467032790184020996 -0.308881968259811401 0.120413042604923248
0.378153175115585327 -0.014614851213991642 0.00675245560705661774
0.514157354831695557 -0.295526295900344849 -0.103149197995662689
0.518627583980560303 -0.239977210760116577 -0.307284623384475708
0.477723449468612671 -0.309978663921356201 -0.299986481666564941
0.483189642429351807 -0.274764776229858398 -0.299599140882492065
0.117195390164852142 0.118574604392051697 0.297814458608627319
-0.584474146366119385 0.355996161699295044 0.0656695887446403503
0.383621454238891602 -0.337494045495986938 0.125804021954536438
-0.574743688106536865 0.317323416471481323 -0.0266855526715517044
-0.604727864265441895 0.216779112815856934 -0.0870184972882270813
0.267676621675491333 0.0390655659139156342 -0.0859309881925582886
-0.356666892766952515 -0.0225623231381177902 -0.131143659353256226
-0.564549386501312256 0.313952594995498657 -0.00803968589752912521
0.190580368041992188 -0.341019570827484131 -0.0745581835508346558
0.404013574123382568 -0.357852429151535034 -0.223761692643165588
-0.50048452615737915 0.145240947604179382 0.354606866836547852
0.509414970874786377 -0.151654630899429321 0.115358978509902954
0.496647000312805176 -0.264176011085510254 -0.304083436727523804
0.457786858081817627 -0.281121432781219482 -0.289436697959899902
0.440764397382736206 -0.265201807022094727 -0.283394604921340942
-0.588291823863983154 0.357101112604141235 0.0615822188556194305
0.505024850368499756 -0.126975208520889282 0.12478211522102356
-0.206406250596046448 0.312092244625091553 0.108786895871162415
0.268134713172912598 -0.284196138381958008 0.319392681121826172
0.232523903250694275 0.00336409383453428745 0.318112343549728394
0.513046681880950928 -0.175926312804222107 -0.281422078609466553
-0.11533057689666748 0.00961559358984231949 0.00599390733987092972
0.403745472431182861 -0.359881311655044556 -0.224385872483253479
0.417486995458602905 -0.313428193330764771 0.144074812531471252
-0.555762052536010742 0.376135140657424927 0.186649978160858154
-0.175816074013710022 0.308777093887329102 0.118479155004024506
-0.389957726001739502 0.275565952062606812 -0.0850825309753417969
0.365149378776550293 0.0516168922185897827 0.024968218058347702
0.129162877798080444 0.115473926067352295 0.319048315286636353
-0.286733001470565796 -0.100959360599517822 -0.091990254819393158
0.258057445287704468 0.100677512586116791 -0.0617089010775089264
-0.361511200666427612 -0.0602027475833892822 -0.144122481346130371
0.134113356471061707 0.11343730241060257 0.337996155023574829
-0.563386142253875732 0.19891674816608429 -0.229105696082115173
-0.27659258246421814 0.287567704916000366 -0.000870611809659749269
0.45471268892288208 -0.246696010231971741 -0.287976175546646118
0.460049659013748169 -0.275653570890426636 -0.290502548217773438
-0.635131776332855225 0.307823151350021362 0.170249789953231812
0.512286484241485596 -0.31768190860748291 -0.0382519997656345367
0.468751758337020874 -0.266054719686508179 -0.297631353139877319
0.477956861257553101 -0.29527166485786438 -0.299914181232452393
0.457967758178710938 -0.246480077505111694 -0.289547443389892578
0.38099294900894165 -0.361212670803070068 -0.213578298687934875
-0.479678452014923096 -0.0129333939403295517 0.185809552669525146
-0.516724944114685059 0.365381598472595215 0.173946559429168701
-0.618814349174499512 0.201678529381752014 -0.0872838869690895081
-0.237464949488639832 0.0184467360377311707 -0.0724839866161346436
-0.38281780481338501 -0.0594168975949287415 0.0237048491835594177
0.47470015287399292 -0.36853337287902832 0.0221295319497585297
-0.64953303337097168 0.236421942710876465 0.0321049243211746216
0.412434875965118408 -0.346951097249984741 -0.221353426575660706
0.525869846343994141 -0.337339013814926147 0.0803885161876678467
0.505830764770507812 -0.239277288317680359 -0.307743459939956665
0.249496161937713623 -0.282381206750869751 0.318438798189163208
0.239182159304618835 0.0663773417472839355 0.314889967441558838
0.539354979991912842 -0.302057564258575439 -0.0933347940444946289
-0.448114752769470215 -0.0417642369866371155 0.126499906182289124
-0.0438721440732479095 0.104197829961776733 0.317903876304626465
0.247946172952651978 0.0208466090261936188 0.322452932596206665
-0.285056352615356445 -0.100092045962810516 -0.0990092605352401733
-0.137869641184806824 -0.0154061336070299149 -0.0487223118543624878
-0.278062105178833008 0.337449520826339722 0.0469977706670761108
-0.254886001348495483 0.289489686489105225 -0.00320224533788859844
-0.219076618552207947 0.321501255035400391 0.0698777586221694946
-0.57351529598236084 0.151892900466918945 -0.0745783671736717224
-0.290130078792572021 0.292278975248336792 0.0160597413778305054
0.525433182716369629 -0.320858895778656006 0.0275092385709285736
0.346031785011291504 -0.0307089798152446747 -0.0341240651905536652
0.522059142589569092 -0.36309930682182312 0.0897149890661239624
-0.0833773612976074219 -0.112088426947593689 0.0785718634724617004
-0.404185950756072998 0.325620681047439575 0.121171839535236359
0.504574060440063477 -0.367270499467849731 -0.00416604941710829735
-0.118832558393478394 0.265761762857437134 0.121033169329166412
0.518534839153289795 -0.343149513006210327 0.03617115318775177
0.130249559879302979 -0.334826469421386719 0.301359236240386963
0.466474175453186035 -0.311232805252075195 0.072797037661075592
0.482701480388641357 -0.374189376831054688 0.0526452101767063141
0.420977771282196045 -0.0262529123574495316 0.0652341991662979126
0.493974357843399048 -0.363730639219284058 -0.0152126047760248184
-0.233121871948242188 0.286765217781066895 0.0841702669858932495
0.531020700931549072 -0.331961601972579956 -0.00689590396359562874
-0.272125065326690674 0.314997762441635132 0.113970369100570679
0.308190882205963135 0.00238883472047746181 0.0466294065117835999
0.467235058546066284 -0.263663113117218018 -0.295702606439590454
0.473671972751617432 -0.304503679275512695 0.11457139253616333
0.510981142520904541 -0.313854634761810303 -0.104052551090717316
0.508976757526397705 -0.24562479555606842 -0.308064669370651245
0.44777369499206543 -0.292752683162689209 -0.292403221130371094
0.466198205947875977 -0.283518999814987183 -0.296909630298614502
0.138345420360565186 0.112556889653205872 0.336938619613647461
-0.652379751205444336 0.285413891077041626 0.0978729724884033203
-0.638563573360443115 0.244489714503288269 -0.038317948579788208
0.136335521936416626 0.0690506696701049805 0.338056862354278564
-0.577342092990875244 0.303443849086761475 -0.0556782558560371399
0.26245647668838501 0.0302501320838928223 -0.0731445178389549255
0.541763484477996826 -0.216918691992759705 0.111924514174461365
-0.36030113697052002 -0.0361985042691230774 -0.134325489401817322
-0.574985802173614502 0.327128112316131592 -0.0296960100531578064
-0.361996948719024658 -0.0713502615690231323 -0.0339932851493358612
-0.130677565932273865 -0.267894744873046875 0.119113683700561523
0.49494558572769165 -0.366023600101470947 -4.87197066831868142e-05
0.373687118291854858 -0.359609514474868774 -0.209745630621910095
-0.378606498241424561 -0.107311949133872986 0.101285144686698914
-0.0671526417136192322 -0.264280527830123901 0.29651448130607605
0.519650757312774658 -0.243579685688018799 -0.309085249900817871
0.509269893169403076 -0.330761343240737915 0.0156014114618301392
-0.593605279922485352 0.368657052516937256 0.120446667075157166
-0.655628561973571777 0.175343051552772522 -0.103136703372001648
-0.223189666867256165 -0.144524037837982178 -0.0536944977939128876
-0.191399723291397095 0.316278934478759766 0.100748047232627869
0.256597131490707397 -0.283671140670776367 0.31987646222114563
0.239157527685165405 0.0320289917290210724 0.319356769323348999
-0.120213091373443604 -0.0464086271822452545 0.00738325435668230057
-0.641814887523651123 0.308334082365036011 0.101740457117557526
0.364577203989028931 -0.374152094125747681 -0.206667259335517883
0.53756105899810791 -0.217933520674705505 0.162200391292572021
-0.552986443042755127 0.382125675678253174 0.15784771740436554
-0.122615054249763489 0.258976995944976807 0.115166693925857544
0.119435302913188934 0.102226085960865021 0.0896521508693695068
-0.375625014305114746 0.265412330627441406 -0.0896104052662849426
0.516697347164154053 -0.349248021841049194 0.0990844592452049255
-0.293728619813919067 -0.107563547790050507 -0.109286390244960785
0.274965792894363403 0.102730445563793182 -0.057341109961271286
-0.575350821018218994 0.219173446297645569 -0.212729215621948242
-0.115648321807384491 0.26826825737953186 0.179842352867126465
0.235956758260726929 -0.288154095411300659 0.314549684524536133
0.310098350048065186 -0.187501609325408936 0.241282001137733459
0.541543960571289062 -0.326050162315368652 -0.0205912720412015915
0.0789322331547737122 -0.337934106588363647 0.282283961772918701
-0.00647681532427668571 -0.172114983201026917 0.00436138734221458435
-0.282415688037872314 0.261335045099258423 0.00704158283770084381
0.512908458709716797 -0.237350121140480042 -0.309078365564346313
-0.647177636623382568 0.277959227561950684 0.0794145315885543823
-0.646558403968811035 0.18285292387008667 -0.090983860194683075
0.513903677463531494 -0.32272067666053772 0.0246143396943807602
-0.407163888216018677 -0.0640284046530723572 0.113477759063243866
0.516619622707366943 -0.355913728475570679 -0.0203054137527942657
-0.566801786422729492 0.374003887176513672 0.152352169156074524
0.235912829637527466 0.0428386926651000977 0.313904225826263428
-0.665057539939880371 0.226823389530181885 0.0229875706136226654
-0.44832274317741394 -0.0388665124773979187 0.127008825540542603
0.502793788909912109 -0.302500307559967041 -0.178536802530288696
-0.589350342750549316 0.3607138991355896 0.0859466418623924255
-0.194240942597389221 0.314552366733551025 0.104864545166492462
0.246929839253425598 0.0237495508044958115 0.324046403169631958
0.530698776245117188 -0.324017643928527832 -0.0577534735202789307
-0.182983547449111938 0.306660652160644531 0.128481552004814148
0.247178226709365845 0.00682815490290522575 0.324176400899887085
0.0586441941559314728 0.139413148164749146 0.345847159624099731
-0.505910098552703857 0.149043798446655273 0.356807410717010498
0.270648002624511719 -0.311418265104293823 0.326420426368713379
-0.253902733325958252 0.0231770221143960953 -0.0707020312547683716
0.241003230214118958 -0.295466691255569458 0.322652459144592285
0.248960182070732117 0.0436261929571628571 0.314639866352081299
0.468223124742507935 -0.102161645889282227 0.0349811986088752747
-0.124855317175388336 0.194787129759788513 0.115448407828807831
0.239893198013305664 -0.326788753271102905 0.318095475435256958
0.500058531761169434 -0.36679038405418396 0.0749566704034805298
0.523227691650390625 -0.324925899505615234 0.0265314169228076935
0.444483965635299683 -0.253439277410507202 0.33263126015663147
0.321417301893234253 -0.131658762693405151 -0.106349050998687744
0.0633715242147445679 -0.0109787313267588615 0.321793109178543091
0.511101245880126953 -0.361096203327178955 0.0478201806545257568
0.135666370391845703 -0.100899204611778259 0.0407112240791320801
0.0495249517261981964 0.0113079249858856201 0.0298514142632484436
0.0207771528512239456 0.0479814335703849792 0.0426992923021316528
0.0881390869617462158 -0.0662790089845657349 0.28973957896232605
-0.162230983376502991 -0.265995591878890991 0.147989809513092041
0.264927417039871216 -0.0203647874295711517 0.0618101060390472412
-0.0289202295243740082 -0.0292850788682699203 0.295601218938827515
0.501984715461730957 -0.240592464804649353 -0.301661819219589233
0.47576257586479187 -0.315211713314056396 -0.301624387502670288
-0.631111025810241699 0.305971443653106689 0.167235240340232849
0.475313931703567505 -0.321020901203155518 0.12132640928030014
0.508893430233001709 -0.301080882549285889 -0.105209603905677795
0.528011858463287354 -0.275173217058181763 -0.316855072975158691
0.493365585803985596 -0.332683712244033813 -0.31038549542427063
0.503335773944854736 -0.320346862077713013 0.0983278825879096985
0.474009454250335693 -0.306044012308120728 -0.29777100682258606
-0.559508621692657471 0.267756551504135132 0.364418208599090576
0.1250276118516922 0.116603866219520569 0.314347445964813232
-0.633763134479522705 0.281917035579681396 0.0541540682315826416
-0.587537705898284912 0.362469881772994995 0.102284230291843414
0.371412754058837891 -0.374305993318557739 -0.212442293763160706
0.438338398933410645 -0.348191738128662109 0.154628679156303406
0.0581367984414100647 0.121041588485240936 0.321223914623260498
-0.574747920036315918 0.368489623069763184 0.215408101677894592
0.264713793992996216 0.0243625827133655548 -0.0583493560552597046
0.36872333288192749 -0.337004214525222778 0.160886794328689575
0.510335206985473633 -0.301801741123199463 -0.11165887862443924
0.133621454238891602 -0.320889472961425781 -0.0976105481386184692
0.516398191452026367 -0.349038869142532349 -0.0199598334729671478
0.389195680618286133 -0.347035616636276245 -0.21378779411315918
-0.577192008495330811 0.318730562925338745 0.040666624903678894
0.535823404788970947 -0.278145372867584229 -0.320261269807815552
0.467725217342376709 -0.31118011474609375 -0.298911452293395996
0.50702744722366333 -0.347372114658355713 0.0182591266930103302
-0.556075990200042725 0.309370517730712891 0.102141983807086945
0.193890407681465149 -0.339634597301483154 -0.0589663386344909668
0.070119120180606842 -0.282539963722229004 -0.0777650773525238037
0.252472788095474243 -0.250526100397109985 0.320346981287002563
0.239951983094215393 0.030671682208776474 0.317135274410247803
-0.121074728667736053 -0.0482076257467269897 0.00823712721467018127
0.178800955414772034 -0.100453279912471771 -0.0145572852343320847
0.532281339168548584 -0.332569032907485962 -0.0128348441794514656
0.37027856707572937 -0.34975925087928772 -0.208574160933494568
0.534820616245269775 -0.2460947185754776 0.17760273814201355
0.560938119888305664 -0.316104531288146973 -0.330611258745193481
0.554375171661376953 -0.211985006928443909 0.134274154901504517
-0.543447136878967285 0.380422890186309814 0.164390251040458679
0.122930809855461121 0.116882652044296265 0.133317694067955017
-0.582416534423828125 0.351586520671844482 0.0976810455322265625
-0.481726348400115967 0.185479700565338135 -0.0915649011731147766
0.515478253364562988 -0.339445888996124268 0.0391651131212711334
0.253478914499282837 -0.279446899890899658 0.322159916162490845
0.278499245643615723 -0.356250107288360596 -0.125797554850578308
0.507749080657958984 -0.286951184272766113 -0.313328206539154053
-0.432307064533233643 -0.0577065683901309967 0.116693854331970215
0.202026963233947754 0.0902002677321434021 0.223591580986976624
0.244317278265953064 0.104229860007762909 -0.0569259077310562134
-0.19573192298412323 0.201129317283630371 0.349319636821746826
0.25051039457321167 0.024637194350361824 0.323572933673858643
0.239873692393302917 0.0187287703156471252 0.32125815749168396
-0.0313976816833019257 0.162355810403823853 0.382738381624221802
-0.482673227787017822 -0.0161407645791769028 0.180160865187644958
0.483698785305023193 -0.369358569383621216 0.0464014559984207153
-0.643699049949645996 0.286773055791854858 0.0861288309097290039
0.275972157716751099 -0.166122987866401672 -0.0701798796653747559
-0.41196933388710022 -0.0573821589350700378 0.0789186730980873108
-0.643215417861938477 0.175315648317337036 -0.0820647403597831726
-0.226029619574546814 -0.134419575333595276 -0.0521528460085391998
0.254982262849807739 -0.26585853099822998 0.32132643461227417
-0.345470577478408813 0.0167869068682193756 -0.116867184638977051
-0.287244230508804321 -0.0920745283365249634 -0.106441378593444824
-0.585252642631530762 0.209390431642532349 -0.218037918210029602
0.267634212970733643 -0.297315359115600586 0.315403908491134644
-0.0255904272198677063 -0.187680348753929138 -0.0433450974524021149
-0.618241012096405029 0.276548683643341064 0.0313341803848743439
-0.609015107154846191 0.297870397567749023 0.0924074351787567139
-0.397702902555465698 -0.0633802264928817749 0.118900619447231293
-0.451861172914505005 -0.0386963412165641785 0.119492083787918091
0.431071490049362183 -0.272068619728088379 0.329497247934341431
-0.0524145923554897308 0.140404984354972839 0.0918416976928710938
-0.503175258636474609 0.150666669011116028 0.355423331260681152
0.240854188799858093 -0.319612830877304077 0.322995394468307495
0.497070103883743286 -0.371180444955825806 0.0577182881534099579
0.399285465478897095 -0.257185012102127075 0.32276761531829834
-0.158374696969985962 -0.263975918292999268 0.18162122368812561
-0.49934038519859314 0.0135172810405492783 0.158079266548156738
0.417560607194900513 -0.297697246074676514 0.329033821821212769
0.535203516483306885 -0.340560197830200195 -0.0180675722658634186
0.344290107488632202 -0.26776459813117981 -0.127502381801605225
-0.496632516384124756 0.071475788950920105 0.20397523045539856
0.443606317043304443 -0.272514551877975464 0.33372795581817627
0.521952629089355469 -0.335761815309524536 0.0331693552434444427
0.453298449516296387 -0.320312678813934326 -0.292659193277359009
0.474193751811981201 -0.312032699584960938 0.117069944739341736
0.517122983932495117 -0.278841495513916016 -0.312438607215881348
0.502570092678070068 -0.326370120048522949 -0.313950300216674805
0.518049538135528564 -0.327475041151046753 0.102287501096725464
0.479237556457519531 -0.311847716569900513 -0.301793009042739868
0.11462828516960144 0.118204116821289062 0.289203107357025146
-0.121964782476425171 0.268205076456069946 0.158859372138977051
-0.614990413188934326 0.265022367238998413 0.0520399138331413269
-0.479558944702148438 0.00251688039861619473 0.181340143084526062
0.42668268084526062 -0.355383008718490601 0.158903300762176514
-0.292424887418746948 -0.111146315932273865 -0.105710819363594055
0.13058646023273468 0.0651272684335708618 0.321419388055801392
0.253783255815505981 0.0382782481610774994 -0.0774642452597618103
0.235546112060546875 0.0934591814875602722 -0.0527548827230930328
0.417651921510696411 -0.261954963207244873 -0.201962664723396301
0.521606028079986572 -0.355038374662399292 -0.0190880242735147476
-0.609060823917388916 0.380670934915542603 0.18116740882396698
0.517473995685577393 -0.279742389917373657 -0.314361631870269775
0.499056488275527954 -0.350380629301071167 0.0244501922279596329
-0.588022828102111816 0.368843972682952881 0.112968727946281433
0.505919456481933594 -0.10509788990020752 0.147683903574943542
-0.198099911212921143 0.311086028814315796 0.112980946898460388
0.264084219932556152 -0.286902546882629395 0.319992870092391968
0.236981555819511414 0.0617745406925678253 0.310799360275268555
-0.144528374075889587 -0.0439612716436386108 0.00429606111720204353
-0.657964825630187988 0.214223682880401611 -0.0462302938103675842
-0.288705408573150635 -0.07652292400598526 -0.0685501024127006531
0.227310046553611755 0.0417584925889968872 -0.0478368140757083893
0.551454246044158936 -0.144869625568389893 0.132434427738189697
0.519690215587615967 -0.295744270086288452 0.0752732008695602417
0.517493844032287598 -0.284479409456253052 -0.180796116590499878
-0.358206689357757568 -0.0176715254783630371 -0.0279017724096775055
0.0915615260601043701 0.0878057628870010376 0.0859956145286560059
0.466597616672515869 -0.362278282642364502 -0.0102982437238097191
-0.433069556951522827 0.157164245843887329 -0.0664660558104515076
0.523718833923339844 -0.336027830839157104 0.0692661255598068237
0.262944579124450684 -0.286271601915359497 0.318715751171112061
0.00939048733562231064 -0.0914021804928779602 -0.0259532053023576736
0.0325814932584762573 -0.130792886018753052 0.0220336113125085831
-0.630905568599700928 0.264539420604705811 0.0289979297667741776
0.242180913686752319 0.0739432945847511292 0.319070041179656982
0.240259632468223572 0.0291969217360019684 0.319148242473602295
-0.174884915351867676 0.300374150276184082 0.116369396448135376
0.30466046929359436 -0.151639550924301147 0.308071672916412354
0.261978566646575928 -0.291073083877563477 0.321198970079421997
-0.476379722356796265 -0.00874048564583063126 0.166217386722564697
0.242815032601356506 0.0813795328140258789 0.312430232763290405
0.52014470100402832 -0.351679414510726929 0.0822951793670654297
-0.0349050946533679962 -0.23802611231803894 0.12418895959854126
-0.638512849807739258 0.289551854133605957 0.098757326602935791
-0.234348967671394348 -0.133396804332733154 -0.0579402968287467957
-0.379452705383300781 -0.109390504658222198 0.105551071465015411
-0.236561372876167297 -0.148420602083206177 -0.0577908903360366821
-0.658176839351654053 0.213919550180435181 -0.0339353494346141815
0.528777360916137695 -0.353014081716537476 0.0782373994588851929
-0.6213492751121521 0.26980099081993103 0.0524342767894268036
-0.40432623028755188 -0.0649249106645584106 0.112073175609111786
-0.446519285440444946 -0.0420835688710212708 0.121998012065887451
0.268045276403427124 -0.285963714122772217 0.323678851127624512
0.12766873836517334 -0.326983898878097534 0.312690794467926025
0.152323782444000244 -0.343468993902206421 0.3179740309715271
0.447631627321243286 -0.336072206497192383 -0.292639166116714478
0.515635311603546143 -0.303380489349365234 -0.107580319046974182
0.515096545219421387 -0.280712902545928955 -0.312457233667373657
0.484747141599655151 -0.328133314847946167 -0.309431403875350952
0.46423649787902832 -0.346339315176010132 -0.302312225103378296
0.549440383911132812 -0.210687533020973206 -0.315592676401138306
0.523957014083862305 -0.300502747297286987 -0.322116643190383911
0.517825961112976074 -0.301312059164047241 -0.318011879920959473
0.246902331709861755 0.0566661357879638672 0.3166656494140625
0.24138304591178894 0.087131984531879425 0.312996864318847656
-0.291873008012771606 -0.101153142750263214 -0.101831726729869843
-0.453780800104141235 -0.052564617246389389 0.117090389132499695
0.404752761125564575 -0.272607147693634033 0.322809785604476929
-0.502602159976959229 0.00321596930734813213 0.189119622111320496
0.401046633720397949 -0.287586331367492676 0.32511940598487854
0.399196237325668335 -0.273902148008346558 0.323602586984634399
0.34222903847694397 -0.259323239326477051 0.0904302895069122314
-0.0188001878559589386 -0.244812414050102234 0.128765538334846497
-0.464688032865524292 0.0354173779487609863 0.189550504088401794
-0.194473117589950562 0.22109733521938324 0.172113493084907532
0.366808235645294189 -0.329648435115814209 -0.0231761801987886429
0.323374360799789429 -0.39049983024597168 -0.158577069640159607
0.535289287567138672 -0.324026286602020264 -0.0578551888465881348
-0.441949844360351562 -0.00530439196154475212 0.152708172798156738
-0.019113464280962944 -0.0599339567124843597 0.141862139105796814
-0.000240853143623098731 -0.23654116690158844 0.106500796973705292
0.526079058647155762 -0.202202767133712769 -0.079629749059677124
0.449687331914901733 -0.308755695819854736 -0.29251253604888916
0.52668452262878418 -0.275875240564346313 -0.315309822559356689
0.499767035245895386 -0.325319200754165649 -0.312319278717041016
0.475088328123092651 -0.305473476648330688 -0.297022849321365356
-0.127526432275772095 0.246164679527282715 0.139050260186195374
-0.649220824241638184 0.281586170196533203 0.0941372737288475037
-0.199040934443473816 0.286181449890136719 0.335928648710250854
0.497905910015106201 -0.0871138423681259155 0.137056097388267517
0.200743541121482849 -0.359558373689651489 -0.0905843302607536316
0.505290329456329346 -0.368058979511260986 -0.0223488640040159225
0.527143359184265137 -0.24303889274597168 0.173308119177818298
-0.586175322532653809 0.378882676362991333 0.170554980635643005
0.444907844066619873 -0.315347641706466675 -0.287391126155853271
0.49848020076751709 -0.111475549638271332 0.112572677433490753
-0.656007349491119385 0.175026953220367432 -0.103833593428134918
-0.202075362205505371 0.308279126882553101 0.089199751615524292
0.20137178897857666 -0.0139586841687560081 0.295489758253097534
0.160065636038780212 -0.0625442564487457275 -0.0437931083142757416
-0.579744994640350342 0.301814556121826172 0.368618577718734741
0.275064170360565186 0.097972281277179718 -0.0287721995264291763
-0.435441553592681885 0.154864966869354248 -0.0859884470701217651
0.534308135509490967 -0.333422660827636719 0.013105771504342556
-0.568966925144195557 0.196835175156593323 -0.229117333889007568
-0.497847467660903931 0.0444729998707771301 -0.0868435651063919067
0.0314474441111087799 -0.104395486414432526 0.0331878885626792908
0.533933460712432861 -0.264916032552719116 -0.315953165292739868
0.0097782062366604805 0.197239130735397339 0.0277603156864643097
0.302164822816848755 0.0384830906987190247 -0.0841115266084671021
-0.332306444644927979 -0.0165208671241998672 -0.107626661658287048
0.23653644323348999 0.014086293987929821 0.322060585021972656
0.125136435031890869 0.0126178143545985222 0.29914170503616333
0.527395665645599365 -0.355532854795455933 0.0666849836707115173
0.46698075532913208 -0.31023755669593811 -0.232755586504936218
-0.652201354503631592 0.284928709268569946 0.104242384433746338
0.546468734741210938 -0.220321014523506165 0.163876667618751526
0.527909517288208008 -0.323749959468841553 -0.0156764592975378036
-0.38313746452331543 -0.0569185279309749603 0.0762632936239242554
0.456803768873214722 -0.311238020658493042 -0.292209357023239136
0.504841208457946777 -0.34024384617805481 -0.317561894655227661
0.478706598281860352 -0.314723104238510132 -0.299153119325637817
0.520231962203979492 -0.301717251539230347 -0.316976726055145264
-0.00224738125689327717 -0.140388697385787964 -0.0246391184628009796
0.39753115177154541 -0.27346000075340271 0.323777079582214355
