ply
format ascii 1.0
element vertex 738
property float x
property float y
property float z
end_header
0.383660435676574707 -0.337269872426986694 0.125768318772315979
-0.575354576110839844 0.317937731742858887 -0.0267040450125932693
-0.605375349521636963 0.217282190918922424 -0.087045617401599884
0.267756462097167969 0.0395149029791355133 -0.0859764963388442993
-0.357402682304382324 -0.0222748797386884689 -0.131166502833366394
-0.565155327320098877 0.314577668905258179 -0.00805699359625577927
0.190343663096427917 -0.34096875786781311 -0.0745893567800521851
0.403968989849090576 -0.357799112796783447 -0.22385069727897644
-0.501102566719055176 0.145873412489891052 0.354540467262268066
0.509641110897064209 -0.151238679885864258 0.115294627845287323
0.496673375368118286 -0.264065533876419067 -0.304199457168579102
0.457794874906539917 -0.281046777963638306 -0.289554178714752197
0.440764546394348145 -0.265117257833480835 -0.283504128456115723
-0.58886033296585083 0.357775568962097168 0.061552140861749649
0.505266487598419189 -0.12653447687625885 0.12471684068441391
-0.206846356391906738 0.312835931777954102 0.108810015022754669
0.268061816692352295 -0.283921658992767334 0.319371402263641357
0.232568740844726562 0.00391279486939311028 0.318084836006164551
0.513134896755218506 -0.175721779465675354 -0.28153151273727417
-0.115845613181591034 0.0100306589156389236 0.00599904544651508331
0.403699725866317749 -0.359829366207122803 -0.224474817514419556
0.41756284236907959 -0.31317061185836792 0.144033849239349365
-0.556330561637878418 0.376869231462478638 0.186616778373718262
-0.17622058093547821 0.30952078104019165 0.118502691388130188
-0.390619009733200073 0.276194453239440918 -0.0850710049271583557
0.365398019552230835 0.0521590523421764374 0.0249126460403203964
0.129113152623176575 0.116123802959918976 0.319031357765197754
-0.287513047456741333 -0.100769050419330597 -0.0920086652040481567
0.258174687623977661 0.101204939186573029 -0.0617482513189315796
-0.362260371446609497 -0.0599773861467838287 -0.144150510430335999
0.134071305394172668 0.114089474081993103 0.33797609806060791
-0.564081847667694092 0.199341893196105957 -0.229126244783401489
-0.27715986967086792 0.288264155387878418 -0.000842642795760184526
0.454727888107299805 -0.246593013405799866 -0.288086950778961182
0.460060536861419678 -0.275574415922164917 -0.290619999170303345
-0.635692417621612549 0.308486342430114746 0.170191794633865356
0.512385010719299316 -0.317445278167724609 -0.0383160151541233063
0.468766659498214722 -0.265964865684509277 -0.297747939825057983
0.477967441082000732 -0.295197486877441406 -0.300034582614898682
0.457984596490859985 -0.246375903487205505 -0.289658784866333008
0.380935639142990112 -0.361169785261154175 -0.213663622736930847
-0.480367302894592285 -0.012455526739358902 0.185770586133003235
-0.517294347286224365 0.366119891405105591 0.173923522233963013
-0.619461894035339355 0.202166929841041565 -0.0873149409890174866
-0.238115996122360229 0.0188242830336093903 -0.0724898204207420349
-0.383523166179656982 -0.0590731129050254822 0.0236902981996536255
0.474782377481460571 -0.368319571018218994 0.0220802333205938339
-0.650126814842224121 0.236986443400382996 0.0320554450154304504
0.412400871515274048 -0.34688645601272583 -0.221443340182304382
0.525999069213867188 -0.337059646844863892 0.080337919294834137
0.50586998462677002 -0.23914414644241333 -0.307858109474182129
0.249400466680526733 -0.282110363245010376 0.318419188261032104
0.239280566573143005 0.0669888108968734741 0.314858615398406982
0.539451897144317627 -0.301821738481521606 -0.0934090167284011841
-0.448801279067993164 -0.0413494966924190521 0.126472190022468567
-0.044218454509973526 0.10482468456029892 0.317896813154220581
0.248025819659233093 0.0214162301272153854 0.322421282529830933
-0.285833001136779785 -0.0999047458171844482 -0.0990285575389862061
-0.138438805937767029 -0.0150596592575311661 -0.0487221404910087585
-0.278577029705047607 0.338186293840408325 0.0470226779580116272
-0.255417078733444214 0.290170669555664062 -0.00317809660919010639
-0.219533756375312805 0.322235852479934692 0.0699033215641975403
-0.574181795120239258 0.15236172080039978 -0.0746098235249519348
-0.290686190128326416 0.292976081371307373 0.0160824619233608246
0.525559127330780029 -0.320588469505310059 0.0274529773741960526
0.346177965402603149 -0.0302886106073856354 -0.0341799743473529816
0.522175490856170654 -0.362832456827163696 0.0896679461002349854
-0.0838947966694831848 -0.111785955727100372 0.0785854607820510864
-0.404759317636489868 0.32636570930480957 0.121176265180110931
0.504660248756408691 -0.367048531770706177 -0.00421904632821679115
-0.119175732135772705 0.266475468873977661 0.121054045855998993
0.518648028373718262 -0.3428916335105896 0.0361185632646083832
0.129964336752891541 -0.334624171257019043 0.301350116729736328
0.466589063405990601 -0.310974448919296265 0.0727452188730239868
0.482786417007446289 -0.373961836099624634 0.0525986067950725555
0.421231687068939209 -0.0257598422467708588 0.0651713535189628601
0.494054347276687622 -0.363518208265304565 -0.015267224982380867
-0.233602374792098999 0.287483334541320801 0.0841906815767288208
0.531132876873016357 -0.331706792116165161 -0.00695419637486338615
-0.27262994647026062 0.315747469663619995 0.113988734781742096
0.308342784643173218 0.00286880671046674252 0.0465861856937408447
0.46725037693977356 -0.263571083545684814 -0.295818328857421875
0.473802417516708374 -0.304225504398345947 0.114520527422428131
0.511055707931518555 -0.313649475574493408 -0.104127556085586548
0.509014606475830078 -0.245493695139884949 -0.308179557323455811
0.447765529155731201 -0.292686998844146729 -0.292516261339187622
0.466209828853607178 -0.283447682857513428 -0.297031104564666748
0.138310208916664124 0.11320822685956955 0.336918234825134277
-0.652930855751037598 0.286049634218215942 0.0978113412857055664
-0.639180600643157959 0.245029047131538391 -0.0383553244173526764
0.136269450187683105 0.0696605071425437927 0.338036090135574341
-0.577967464923858643 0.304032385349273682 -0.0556955821812152863
0.262527197599411011 0.0306943021714687347 -0.0731881856918334961
0.541963517665863037 -0.216543853282928467 0.111862987279891968
-0.361041784286499023 -0.035932295024394989 -0.134350121021270752
-0.5755959153175354 0.327747255563735962 -0.0297140441834926605
-0.36272004246711731 -0.0710605978965759277 -0.0340090356767177582
-0.131293594837188721 -0.267736107110977173 0.119125470519065857
0.495033293962478638 -0.365805685520172119 -0.000101305638963822275
0.373626053333282471 -0.35956805944442749 -0.209829628467559814
-0.379308581352233887 -0.106972835958003998 0.101273640990257263
-0.0676898732781410217 -0.264072179794311523 0.296506434679031372
0.519694268703460693 -0.243439480662345886 -0.309200167655944824
0.5093802809715271 -0.330510556697845459 0.0155454659834504128
-0.594158947467803955 0.369355767965316772 0.120408929884433746
-0.65627753734588623 0.175796180963516235 -0.103173531591892242
-0.223880931735038757 -0.14435209333896637 -0.0537050366401672363
-0.191821768879890442 0.31702306866645813 0.10077289491891861
0.256510049104690552 -0.283398956060409546 0.319856107234954834
0.239231735467910767 0.0326079390943050385 0.319326341152191162
-0.120758689939975739 -0.0460662990808486938 0.00738872401416301727
-0.642375588417053223 0.308977365493774414 0.10168784111738205
0.364505916833877563 -0.374120980501174927 -0.206749036908149719
0.537752032279968262 -0.217550307512283325 0.162140429019927979
-0.553542494773864746 0.382854372262954712 0.157818257808685303
-0.122966960072517395 0.259683549404144287 0.115187168121337891
0.11937703937292099 0.102805264294147491 0.0896421894431114197
-0.376282185316085815 0.266030609607696533 -0.0895995646715164185
0.516818702220916748 -0.348974794149398804 0.0990363433957099915
-0.294470250606536865 -0.10738363116979599 -0.109309062361717224
0.275110632181167603 0.103266693651676178 -0.0573827587068080902
-0.576036334037780762 0.219620302319526672 -0.212747931480407715
-0.115991093218326569 0.268999159336090088 0.179860875010490417
0.235840722918510437 -0.287891864776611328 0.314532101154327393
0.310123860836029053 -0.187160611152648926 0.24125555157661438
0.541658639907836914 -0.325791478157043457 -0.0206519663333892822
0.0785679221153259277 -0.337750434875488281 0.282279163599014282
-0.00694634858518838882 -0.171934023499488831 0.00436817016452550888
-0.282976269721984863 0.262003004550933838 0.00706030987203121185
0.512951493263244629 -0.237210899591445923 -0.309193044900894165
-0.647745013236999512 0.278576523065567017 0.0793605372309684753
-0.647203922271728516 0.183319598436355591 -0.0910202115774154663
0.514022767543792725 -0.322459369897842407 0.024558166041970253
-0.40785515308380127 -0.0636428892612457275 0.113458007574081421
0.516708314418792725 -0.355685263872146606 -0.020362023264169693
-0.567358434200286865 0.374722331762313843 0.152318894863128662
0.235989660024642944 0.0434267260134220123 0.313874393701553345
-0.665653407573699951 0.227372467517852783 0.0229355767369270325
-0.449008315801620483 -0.0384480990469455719 0.126980990171432495
0.502847015857696533 -0.302335232496261597 -0.178627058863639832
-0.589912295341491699 0.361400574445724487 0.0859137997031211853
-0.194666475057601929 0.315296798944473267 0.104888871312141418
0.247009977698326111 0.0243222732096910477 0.324014574289321899
0.530794382095336914 -0.323781579732894897 -0.0578196197748184204
-0.183397665619850159 0.307405233383178711 0.128503978252410889
0.247247353196144104 0.00738373585045337677 0.324145376682281494
0.058487478643655777 0.140086054801940918 0.345833629369735718
-0.506526350975036621 0.149678081274032593 0.356739610433578491
0.270565897226333618 -0.311158180236816406 0.326398521661758423
-0.254562616348266602 0.0235627125948667526 -0.0707086101174354553
0.240891128778457642 -0.295205652713775635 0.32263338565826416
0.249056994915008545 0.0442167595028877258 0.314607679843902588
0.468452244997024536 -0.101740442216396332 0.0349131524562835693
-0.12524084746837616 0.195443600416183472 0.115463674068450928
0.239765554666519165 -0.326548308134078979 0.318077981472015381
0.500163435935974121 -0.366542518138885498 0.0749096125364303589
0.523350238800048828 -0.324659347534179688 0.0264756027609109879
0.444583535194396973 -0.25308653712272644 0.332581251859664917
0.321439385414123535 -0.131406068801879883 -0.106409072875976562
0.063130594789981842 -0.0104651246219873428 0.321781247854232788
0.511204421520233154 -0.360847622156143188 0.0477708615362644196
0.135484948754310608 -0.100581042468547821 0.0407026410102844238
0.0492669716477394104 0.0117477420717477798 0.0298486631363630295
0.0204991698265075684 0.0484681092202663422 0.0426993668079376221
0.0879062488675117493 -0.0658360719680786133 0.289733469486236572
-0.16286952793598175 -0.265824437141418457 0.14799778163433075
0.265008896589279175 -0.0199152752757072449 0.0617769137024879456
-0.0293212383985519409 -0.0288078971207141876 0.295596837997436523
0.50202411413192749 -0.240459859371185303 -0.301775902509689331
0.475757986307144165 -0.315141886472702026 -0.301738858222961426
-0.631672978401184082 0.306634008884429932 0.167178541421890259
0.475429892539978027 -0.320748448371887207 0.121278285980224609
0.508972883224487305 -0.300871521234512329 -0.105286367237567902
0.52804267406463623 -0.275050640106201172 -0.316971689462661743
0.493358403444290161 -0.332610666751861572 -0.310499012470245361
0.503467023372650146 -0.320065975189208984 0.0982767567038536072
0.474011480808258057 -0.305972546339035034 -0.297887682914733887
-0.560096561908721924 0.268457472324371338 0.364348322153091431
0.124971300363540649 0.11725374311208725 0.314331561326980591
-0.634342730045318604 0.282526969909667969 0.054108254611492157
-0.588097035884857178 0.36316409707069397 0.102250173687934875
0.371344715356826782 -0.374274104833602905 -0.212525799870491028
0.438410192728042603 -0.347942233085632324 0.154588773846626282
0.0579673461616039276 0.121692433953285217 0.321213036775588989
-0.575310409069061279 0.36921575665473938 0.215363681316375732
0.264788717031478882 0.0248081069439649582 -0.0583921298384666443
0.368745148181915283 -0.336774587631225586 0.160855621099472046
0.510412633419036865 -0.301594674587249756 -0.111736483871936798
0.133295401930809021 -0.32086065411567688 -0.0976398587226867676
0.516490340232849121 -0.348807156085968018 -0.0200173500925302505
0.389148056507110596 -0.346981137990951538 -0.213874474167823792
-0.5777779221534729 0.31937679648399353 0.0406399741768836975
0.535855293273925781 -0.278020352125167847 -0.320378303527832031
0.467719346284866333 -0.311113536357879639 -0.299026072025299072
0.507129251956939697 -0.347129940986633301 0.0182057097554206848
-0.55664980411529541 0.310044735670089722 0.102112658321857452
0.193663060665130615 -0.339571475982666016 -0.0589946731925010681
0.0697054862976074219 -0.282493263483047485 -0.077782854437828064
0.252394735813140869 -0.250230878591537476 0.320325613021850586
0.240026429295539856 0.031248902902007103 0.31710505485534668
-0.121621862053871155 -0.0478671938180923462 0.00824269838631153107
0.178678765892982483 -0.100159309804439545 -0.0145760374143719673
0.532391607761383057 -0.332316190004348755 -0.0128937475383281708
0.370217204093933105 -0.349714040756225586 -0.208657890558242798
0.534993469715118408 -0.245730981230735779 0.177545785903930664
0.56096041202545166 -0.315983891487121582 -0.330728083848953247
0.554580271244049072 -0.211594447493553162 0.134212374687194824
-0.544005811214447021 0.381155848503112793 0.164362475275993347
0.122886210680007935 0.117488019168376923 0.133308693766593933
-0.582980453968048096 0.352274239063262939 0.0976482778787612915
-0.482427090406417847 0.186018615961074829 -0.0915760621428489685
0.515592694282531738 -0.339186936616897583 0.0391123257577419281
0.25338977575302124 -0.279171973466873169 0.322139322757720947
0.278364270925521851 -0.356203794479370117 -0.12585100531578064
0.507767081260681152 -0.286849498748779297 -0.313444912433624268
-0.432998508214950562 -0.0573137067258358002 0.116669788956642151
0.202091515064239502 0.0908100903034210205 0.22357158362865448
0.244417846202850342 0.104759581387042999 -0.056962382048368454
-0.196216851472854614 0.20184171199798584 0.349308311939239502
0.250596344470977783 0.0252112057060003281 0.323540478944778442
0.239939942955970764 0.0192948952317237854 0.321228146553039551
-0.0316883064806461334 0.163051232695579529 0.382724761962890625
-0.483357876539230347 -0.0156756415963172913 0.180121451616287231
0.483785063028335571 -0.36913028359413147 0.046353854238986969
-0.644263029098510742 0.287400186061859131 0.0860749185085296631
0.275929361581802368 -0.165907666087150574 -0.0702265873551368713
-0.412663668394088745 -0.0570046789944171906 0.0788994058966636658
-0.643861949443817139 0.175782039761543274 -0.0821031183004379272
-0.22671915590763092 -0.134233295917510986 -0.0521627180278301239
0.254900842905044556 -0.265573829412460327 0.321305274963378906
-0.346188902854919434 0.0171360503882169724 -0.116884775459766388
-0.287988781929016113 -0.0918741002678871155 -0.106461785733699799
-0.585939168930053711 0.209824144840240479 -0.218058288097381592
0.267554789781570435 -0.297050714492797852 0.315383732318878174
-0.0261012222617864609 -0.187544047832489014 -0.0433476902544498444
-0.618831515312194824 0.277149707078933716 0.031294744461774826
-0.609585583209991455 0.29851415753364563 0.0923643186688423157
-0.398392319679260254 -0.0629913583397865295 0.118881978094577789
-0.452547013759613037 -0.0382803678512573242 0.119464151561260223
0.431153148412704468 -0.271734118461608887 0.329450398683547974
-0.0527344010770320892 0.141005784273147583 0.091851159930229187
-0.503791570663452148 0.151302903890609741 0.355356603860855103
0.240731284022331238 -0.319366604089736938 0.322976887226104736
0.497164905071258545 -0.370941668748855591 0.0576711036264896393
0.399352103471755981 -0.256851494312286377 0.322725296020507812
-0.159008786082267761 -0.263793230056762695 0.181627139449119568
-0.500008344650268555 0.0139966439455747604 0.158037126064300537
0.417620450258255005 -0.29738423228263855 0.328990399837493896
0.535309016704559326 -0.340311586856842041 -0.0181260127574205399
0.344257116317749023 -0.267638325691223145 -0.127569898962974548
-0.497282415628433228 0.0720241516828536987 0.203929618000984192
0.443695753812789917 -0.272175699472427368 0.333679050207138062
0.522070467472076416 -0.335499227046966553 0.0331155210733413696
0.45328095555305481 -0.320253878831863403 -0.292769700288772583
0.474316626787185669 -0.311757296323776245 0.117020420730113983
0.517149090766906738 -0.278727233409881592 -0.312554925680160522
0.502568364143371582 -0.326289474964141846 -0.314064741134643555
0.518182456493377686 -0.327188700437545776 0.102237045764923096
0.479236602783203125 -0.311774671077728271 -0.301908254623413086
0.114554755389690399 0.118850827217102051 0.289191395044326782
-0.122314512729644775 0.268929868936538696 0.158878311514854431
-0.615577638149261475 0.265626192092895508 0.0519980303943157196
-0.480245888233184814 0.00301470048725605011 0.18130163848400116
0.426741868257522583 -0.355141252279281616 0.158865541219711304
-0.293166577816009521 -0.110968798398971558 -0.105733133852481842
0.130507081747055054 0.0657291784882545471 0.321401447057723999
0.253845185041427612 0.0387269072234630585 -0.0775066390633583069
0.235627979040145874 0.0939775332808494568 -0.0527903400361537933
0.417662322521209717 -0.261831074953079224 -0.202053666114807129
0.521697819232940674 -0.35480576753616333 -0.0191446039825677872
-0.609607398509979248 0.381383597850799561 0.181117653846740723
0.517499029636383057 -0.279629349708557129 -0.314478129148483276
0.499155014753341675 -0.350142389535903931 0.0243979189544916153
-0.588578522205352783 0.369544029235839844 0.112933650612831116
0.506175756454467773 -0.104629643261432648 0.147618323564529419
-0.198530524969100952 0.311830461025238037 0.113004215061664581
0.264005124568939209 -0.286630690097808838 0.319971948862075806
0.237073466181755066 0.0623804628849029541 0.310768872499465942
-0.145098939538002014 -0.0436175316572189331 0.00430048070847988129
-0.658587276935577393 0.214732691645622253 -0.04627213254570961
-0.289419561624526978 -0.0762696489691734314 -0.0685645714402198792
0.227345183491706848 0.0422196537256240845 -0.0478720143437385559
0.551701247692108154 -0.144421115517616272 0.132367804646492004
0.519839167594909668 -0.29544675350189209 0.0752176940441131592
0.517561137676239014 -0.284294217824935913 -0.180887848138809204
-0.358909577131271362 -0.0173053797334432602 -0.0279152039438486099
0.0914549082517623901 0.0883766636252403259 0.0859891623258590698
0.466668874025344849 -0.362079441547393799 -0.0103514678776264191
-0.433744162321090698 0.157687023282051086 -0.0664771944284439087
0.523845672607421875 -0.335752308368682861 0.0692147910594940186
0.26286432147026062 -0.285999953746795654 0.318695127964019775
0.00898166187107563019 -0.0911327004432678223 -0.0259511005133390427
0.0322060063481330872 -0.130538031458854675 0.0220369305461645126
-0.631496965885162354 0.26512753963470459 0.0289544817060232162
0.242289096117019653 0.0745631828904151917 0.319037646055221558
0.240333542227745056 0.029773147776722908 0.319117844104766846
-0.175291001796722412 0.301112562417984009 0.116392597556114197
0.304697364568710327 -0.151248231530189514 0.308040916919708252
0.261895030736923218 -0.290804117918014526 0.321178168058395386
-0.477059692144393921 -0.00827342178672552109 0.166180342435836792
0.242929771542549133 0.0820050984621047974 0.312398225069046021
0.520264685153961182 -0.351410120725631714 0.0822464600205421448
-0.0354048646986484528 -0.237834334373474121 0.124202154576778412
-0.639076471328735352 0.290185600519180298 0.0987040102481842041
-0.235044822096824646 -0.133213311433792114 -0.0579518601298332214
-0.380154460668563843 -0.109056591987609863 0.105538181960582733
-0.237262636423110962 -0.148256480693817139 -0.0578037165105342865
-0.658794403076171875 0.214434757828712463 -0.0339796021580696106
0.528899788856506348 -0.352741599082946777 0.0781885161995887756
-0.621934294700622559 0.270406097173690796 0.0523910634219646454
-0.405017554759979248 -0.064540766179561615 0.112053975462913513
-0.447206050157546997 -0.0416706390678882599 0.121970891952514648
0.267971545457839966 -0.28568914532661438 0.323656976222991943
0.127384066581726074 -0.326775014400482178 0.312679588794708252
0.152069598436355591 -0.343262046575546265 0.317961812019348145
0.447603911161422729 -0.336022555828094482 -0.292747557163238525
0.515715837478637695 -0.30316847562789917 -0.107657000422477722
0.515120923519134521 -0.280601352453231812 -0.312573611736297607
0.484737813472747803 -0.328064590692520142 -0.309545129537582397
0.464212477207183838 -0.34628826379776001 -0.302423000335693359
0.549510955810546875 -0.210505783557891846 -0.315707594156265259
0.523972868919372559 -0.300399035215377808 -0.322233438491821289
0.517840445041656494 -0.301211416721343994 -0.318128228187561035
0.247005313634872437 0.0572695434093475342 0.316633075475692749
0.241499572992324829 0.0877628326416015625 0.312965065240859985
-0.292624354362487793 -0.100962251424789429 -0.1018524169921875
-0.454471409320831299 -0.0521663501858711243 0.117062591016292572
0.404816001653671265 -0.272283077239990234 0.322767496109008789
-0.503276228904724121 0.00369576108641922474 0.189073860645294189
0.40109977126121521 -0.287273138761520386 0.325078278779983521
0.399254679679870605 -0.273580580949783325 0.323561131954193115
0.34226524829864502 -0.259078651666641235 0.0903938636183738708
-0.0192805547267198563 -0.244622543454170227 0.128778472542762756
-0.465352326631546021 0.035935133695602417 0.1895131915807724
-0.194936797022819519 0.221790850162506104 0.17212502658367157
0.366806387901306152 -0.329489618539810181 -0.0232252702116966248
0.323263406753540039 -0.390465915203094482 -0.158640488982200623
0.535386860370635986 -0.323787391185760498 -0.0579213425517082214
-0.442625135183334351 -0.00483766989782452583 0.152678981423377991
-0.0195090118795633316 -0.0595353543758392334 0.141870349645614624
-0.000695052265655249357 -0.236352711915969849 0.106513410806655884
0.526225447654724121 -0.201899707317352295 -0.0797089040279388428
0.449672877788543701 -0.308695077896118164 -0.292624086141586304
0.52671515941619873 -0.275753259658813477 -0.315426290035247803
0.499765127897262573 -0.325239509344100952 -0.312433600425720215
0.475091844797134399 -0.305401086807250977 -0.297139853239059448
-0.127892166376113892 0.246867448091506958 0.139068111777305603
-0.649778127670288086 0.282215714454650879 0.0940784960985183716
-0.199500143527984619 0.28695148229598999 0.33592754602432251
0.498173326253890991 -0.086633436381816864 0.136989519000053406
0.200514435768127441 -0.359526008367538452 -0.0906197279691696167
0.505367636680603027 -0.367844283580780029 -0.0224039684981107712
0.527315258979797363 -0.242677614092826843 0.173251345753669739
-0.586729526519775391 0.379601120948791504 0.170514285564422607
0.444888800382614136 -0.315289050340652466 -0.287500321865081787
0.498734265565872192 -0.111025534570217133 0.11250566691160202
-0.656656622886657715 0.175479412078857422 -0.103870436549186707
-0.202513635158538818 0.309014946222305298 0.0892242789268493652
0.201356470584869385 -0.0134333176538348198 0.295475095510482788
0.159922763705253601 -0.0622229091823101044 -0.0438157878816127777
-0.580323874950408936 0.30252915620803833 0.368544995784759521
0.275220781564712524 0.0985172688961029053 -0.0288123823702335358
-0.436124652624130249 0.155374020338058472 -0.0860005244612693787
0.534427523612976074 -0.333158731460571289 0.013049776665866375
-0.569661974906921387 0.197257041931152344 -0.229138419032096863
-0.498564273118972778 0.0448574274778366089 -0.0868740305304527283
0.0310877673327922821 -0.104101449251174927 0.0331922918558120728
0.533971786499023438 -0.264782428741455078 -0.316069513559341431
0.00957993045449256897 0.197872623801231384 0.0277692321687936783
0.302290380001068115 0.0389435701072216034 -0.0841627344489097595
-0.333028495311737061 -0.0162089373916387558 -0.10764467716217041
0.236594632267951965 0.0146474260836839676 0.322031319141387939
0.125012293457984924 0.0131602054461836815 0.299128681421279907
0.527513563632965088 -0.35526585578918457 0.0666358321905136108
0.466994374990463257 -0.310129553079605103 -0.232854962348937988
-0.652755558490753174 0.285563170909881592 0.104181863367557526
0.546661436557769775 -0.219934910535812378 0.163816332817077637
0.528021335601806641 -0.323496580123901367 -0.015736868605017662
-0.383827626705169678 -0.0565404482185840607 0.0762479677796363831
0.456793427467346191 -0.311174392700195312 -0.292321771383285522
0.504833400249481201 -0.34016844630241394 -0.317675799131393433
0.478705108165740967 -0.31464993953704834 -0.299267619848251343
0.520247876644134521 -0.301614284515380859 -0.317092925310134888
-0.00269693182781338692 -0.140181258320808411 -0.0246385615319013596
0.397588580846786499 -0.273138642311096191 0.323735862970352173
0.401260614395141602 -0.271563559770584106 0.324041962623596191
0.506127119064331055 -0.33205181360244751 0.106163397431373596
-0.468344360589981079 0.0424719788134098053 0.170628547668457031
0.410076737403869629 -0.345961719751358032 0.156885400414466858
-0.361657261848449707 -0.0355519987642765045 -0.148054316639900208
-0.128826171159744263 -0.26797795295715332 0.112490624189376831
0.51258695125579834 -0.36917528510093689 -0.0143482284620404243
-0.214150279760360718 0.312816649675369263 0.0977475196123123169
0.250554144382476807 -0.287146866321563721 0.323110610246658325
0.209013655781745911 0.00947771407663822174 -0.0458139032125473022
0.0697077810764312744 -0.151681780815124512 -0.0170220565050840378
-0.170123964548110962 0.305069714784622192 0.118956603109836578
0.471133202314376831 -0.364486515522003174 0.00737533671781420708
-0.291743814945220947 -0.0997520983219146729 -0.103109017014503479
0.0361364930868148804 -0.149858549237251282 -0.0215042755007743835
0.232360884547233582 0.0564914606511592865 0.309451252222061157
0.25336262583732605 -0.288708984851837158 0.320894241333007812
-0.472472906112670898 0.00113079231232404709 0.168646380305290222
0.241193816065788269 0.0629557594656944275 0.313353568315505981
0.508997678756713867 -0.352114468812942505 0.0642872899770736694
0.227348580956459045 -0.314885407686233521 0.314778417348861694
-0.376147866249084473 -0.093303292989730835 0.0862276181578636169
-0.0631577745079994202 -0.241770878434181213 0.302627295255661011
-0.223379477858543396 -0.127937853336334229 -0.0530055463314056396
-0.410638868808746338 -0.0655632913112640381 0.0985472425818443298
-0.445749908685684204 -0.0447919107973575592 0.132743105292320251
0.238931536674499512 -0.294103115797042847 0.314662069082260132
0.153752565383911133 -0.324455022811889648 0.320278346538543701
0.425409048795700073 -0.256030082702636719 0.328894913196563721
0.438154250383377075 -0.343256592750549316 -0.292403370141983032
0.506254076957702637 -0.3348674476146698 -0.317819535732269287
0.445004075765609741 -0.35260009765625 -0.286461144685745239
0.238458618521690369 0.0660207271575927734 0.312631875276565552
0.403327405452728271 -0.28750118613243103 0.326202630996704102
-0.495498180389404297 0.006731369998306036 0.188362881541252136
0.486040800809860229 -0.063051760196685791 0.132119864225387573
0.0122074466198682785 -0.170911058783531189 0.0100480588153004646
0.53159254789352417 -0.307716488838195801 -0.0618832185864448547
0.314789384603500366 -0.302505433559417725 -0.126519292593002319
0.445867836475372314 -0.291616588830947876 -0.285353481769561768
-0.337402522563934326 0.224888280034065247 0.125781476497650146
-0.401567906141281128 -0.0282932519912719727 -0.00184917158912867308
0.403246581554412842 -0.271705925464630127 0.324425607919692993
-0.133553057909011841 0.196038708090782166 0.16789563000202179
0.399295628070831299 -0.271643668413162231 0.32423815131187439
-0.447233021259307861 -0.0250477548688650131 0.0214482471346855164
-0.138224825263023376 0.24514259397983551 0.191836580634117126
-0.61331331729888916 0.294303745031356812 0.183655336499214172
0.124684132635593414 0.116385683417320251 0.316919773817062378
-0.121134094893932343 0.250883162021636963 0.161986544728279114
-0.583818018436431885 0.348415076732635498 0.0580745339393615723
0.426986962556838989 -0.348131030797958374 0.153372719883918762
-0.567304074764251709 0.295228093862533569 -0.0690084323287010193
0.252095609903335571 0.0268431976437568665 -0.0792338550090789795
0.247944965958595276 0.100609242916107178 -0.0480044111609458923
-0.358137637376785278 -0.0559232160449028015 -0.141793176531791687
0.198980093002319336 0.120490998029708862 0.036082979291677475
0.54584050178527832 -0.131357356905937195 0.112372890114784241
-0.582166194915771484 0.321970671415328979 -0.0228874161839485168
0.206403076648712158 0.0249255280941724777 0.177147865295410156
-0.595818281173706055 0.37547340989112854 0.171925768256187439
0.444978594779968262 -0.319203495979309082 0.12771962583065033
0.255172520875930786 -0.278667837381362915 0.316743344068527222
0.235816448926925659 0.024091256782412529 0.316878050565719604
-0.363540083169937134 -0.0498478002846240997 -0.023694898933172226
-0.182981148362159729 0.118313483893871307 0.0424730405211448669
0.254881501197814941 -0.28811269998550415 0.319556266069412231
0.242264658212661743 0.0334774404764175415 0.322144448757171631
0.400257885456085205 0.0236486364156007767 0.115555234253406525
-0.341168850660324097 -0.06629209965467453 -0.147234469652175903
0.075623244047164917 -0.332992702722549438 0.299110263586044312
-0.387352049350738525 -0.0607862211763858795 0.0938758328557014465
-0.448782593011856079 -0.0412644781172275543 0.127752378582954407
0.439544200897216797 -0.279167830944061279 0.333963364362716675
0.0343024469912052155 -0.122881852090358734 -0.025408327579498291
0.414507567882537842 -0.280628591775894165 0.32730451226234436
0.433209687471389771 -0.295929819345474243 0.333461582660675049
0.368026614189147949 -0.278763771057128906 -0.129961937665939331
-0.478007584810256958 0.00160028506070375443 0.188331186771392822
-0.292154461145401001 -0.0964573249220848083 -0.104440785944461823
0.241477444767951965 -0.312904059886932373 0.309907078742980957
0.47335737943649292 -0.354203879833221436 0.0073818666860461235
-0.296982705593109131 -0.0967053622007369995 -0.106898799538612366
0.244848236441612244 -0.288465917110443115 0.320303291082382202
0.0621388815343379974 -0.329700112342834473 0.297190189361572266
0.157952055335044861 -0.267890840768814087 -0.105300076305866241
0.250501006841659546 0.0637696310877799988 0.315782696008682251
-0.483085870742797852 -0.00778344739228487015 0.177942052483558655
0.236627936363220215 0.0669376105070114136 0.315132111310958862
0.238803461194038391 -0.331719696521759033 0.32162630558013916
-0.382846981287002563 -0.0920197814702987671 0.0367908179759979248
-0.216643065214157104 -0.140187546610832214 -0.0542406439781188965
-0.383257389068603516 -0.0636027678847312927 0.0835949629545211792
0.149954631924629211 -0.33156856894493103 0.332060426473617554
0.44606482982635498 -0.279698640108108521 0.333887845277786255
0.407618969678878784 -0.280341774225234985 0.32541656494140625
-0.502585232257843018 0.00671278778463602066 0.188673019409179688
-0.322410434484481812 0.097317717969417572 -0.0701540187001228333
0.532737851142883301 -0.207417190074920654 -0.0522860139608383179
0.451057940721511841 -0.294058293104171753 -0.290243357419967651
0.487498492002487183 -0.32541501522064209 -0.310674935579299927
0.446494936943054199 -0.309909850358963013 -0.290613412857055664
-0.578183293342590332 0.269513487815856934 0.365741550922393799
-0.462043464183807373 0.105751223862171173 -0.230965062975883484
0.375047683715820312 -0.318600833415985107 0.19938679039478302
-0.590187966823577881 0.367210924625396729 0.131156787276268005
0.39264756441116333 -0.353605389595031738 -0.217247605323791504
0.441191643476486206 -0.310453474521636963 -0.28882300853729248
-0.200893670320510864 0.305744826793670654 0.0950855612754821777
-0.155683979392051697 0.268246889114379883 0.151787415146827698
0.530005395412445068 -0.338381052017211914 0.0721299499273300171
0.463951647281646729 -0.266229808330535889 -0.217405408620834351
-0.633942961692810059 0.275945127010345459 0.106958754360675812
0.438514441251754761 -0.308744937181472778 -0.286993235349655151
0.515562474727630615 -0.277345567941665649 -0.316624641418457031
0.516653656959533691 -0.34051889181137085 -0.320558756589889526
0.454457789659500122 -0.307222843170166016 -0.293047815561294556
0.491119265556335449 -0.321859598159790039 0.0946962460875511169
0.0203663930296897888 -0.275968164205551147 -0.018406059592962265
-0.654592156410217285 0.172009706497192383 -0.108148172497749329
-0.224953606724739075 0.31884649395942688 0.121458522975444794
0.465527385473251343 -0.364095360040664673 0.00621198909357190132
0.48127177357673645 -0.336774140596389771 0.0505831874907016754
0.511557459831237793 -0.339580178260803223 -0.319216787815093994
0.440256953239440918 -0.35676342248916626 -0.297418832778930664
-0.270330727100372314 0.322265058755874634 0.0419842749834060669
0.424235522747039795 -0.313471347093582153 -0.281689107418060303
0.415700435638427734 -0.295094043016433716 0.328747212886810303
-0.32662317156791687 -0.0754037350416183472 0.123544484376907349
-0.367428869009017944 -0.0667065829038619995 0.154729664325714111
-0.338659286499023438 0.215049907565116882 0.132916674017906189
0.0101023688912391663 0.119669906795024872 0.105361774563789368
0.542200863361358643 -0.309173673391342163 -0.0459147840738296509
0.0134128369390964508 -0.261904269456863403 0.0396791771054267883
-0.00377061730250716209 -0.23663647472858429 0.0944248959422111511
-9.51819117744889809e-07 -0.21966668963432312 0.0816924870014190674
0.465109705924987793 -0.360939174890518188 0.0306090936064720154
-0.269898295402526855 -0.138067156076431274 0.177565634250640869
-0.345618784427642822 -0.0658817663788795471 0.141330346465110779
0.123441398143768311 -0.276718109846115112 0.129179075360298157
-0.134106457233428955 0.0789799094200134277 0.0904467031359672546
0.463858991861343384 -0.0542020350694656372 0.017927117645740509
-0.0143616972491145134 -0.216984152793884277 0.0805282816290855408
-0.555154740810394287 0.391929775476455688 0.147684395313262939
0.496786326169967651 -0.366812974214553833 0.0055388319306075573
-0.611141562461853027 0.294302493333816528 0.18645961582660675
0.530095040798187256 -0.275401949882507324 -0.317463040351867676
0.370584875345230103 -0.264535367488861084 0.181821182370185852
0.420542478561401367 -0.344447851181030273 0.151139393448829651
0.252247422933578491 0.0393614247441291809 -0.0663653090596199036
0.549727022647857666 -0.14976125955581665 0.124555930495262146
-0.570993602275848389 0.284250706434249878 -0.00639001326635479927
0.501052916049957275 -0.362665086984634399 -0.000993450870737433434
0.208507612347602844 0.115923523902893066 -0.0101509522646665573
-0.289771378040313721 -0.0857871323823928833 -0.0662920773029327393
0.159292548894882202 -0.0832050889730453491 -0.0359016619622707367
-0.340502440929412842 -0.105495668947696686 0.14136938750743866
0.511103272438049316 -0.281575709581375122 -0.312977701425552368
-0.339842110872268677 -0.0797099396586418152 0.0387114621698856354
-0.369813084602355957 0.280889183282852173 -0.0624780692160129547
0.510027468204498291 -0.340962141752243042 0.0654135420918464661
0.302465677261352539 -0.205815091729164124 0.248167827725410461
0.542933404445648193 -0.312069624662399292 -0.0604665689170360565
0.141694620251655579 0.0698058009147644043 0.336575478315353394
-0.595339775085449219 0.267710208892822266 0.012175009585916996
0.222211211919784546 -0.00682954909279942513 0.295817315578460693
0.231097593903541565 0.0346299894154071808 0.313010811805725098
0.533660173416137695 -0.319655835628509521 -0.0125042963773012161
-0.389885365962982178 -0.0639951750636100769 0.105837590992450714
-0.448124945163726807 -0.0401158705353736877 0.126604557037353516
0.496274292469024658 -0.0911402106285095215 0.154781177639961243
0.251168668270111084 0.0634468868374824524 0.316900640726089478
-0.291836649179458618 -0.0927203148603439331 0.307761490345001221
-0.367125451564788818 -0.114825792610645294 0.104138195514678955
-0.563977718353271484 0.12733614444732666 -0.0784099400043487549
-0.502038776874542236 0.023571966215968132 0.186719432473182678
0.518153071403503418 -0.297601222991943359 -0.31382027268409729
0.472606956958770752 -0.328528314828872681 -0.299676507711410522
-0.574716329574584961 0.26917797327041626 0.36266934871673584
-0.571599781513214111 0.355206698179244995 0.167015984654426575
-0.191963151097297668 0.305002897977828979 0.101448923349380493
-0.662537634372711182 0.239968299865722656 0.041643042117357254
-0.50537031888961792 0.144641056656837463 0.353342294692993164
0.507138729095458984 -0.347452670335769653 -0.318115115165710449
-0.200802400708198547 0.305331051349639893 0.102104313671588898
0.475255817174911499 -0.357733190059661865 0.00496883643791079521
0.509919703006744385 -0.330773830413818359 0.066691078245639801
-0.611140787601470947 0.367876797914505005 0.0877583324909210205
-0.562998056411743164 0.28845331072807312 -0.0559080615639686584
0.220150887966156006 0.010547553189098835 0.309341371059417725
0.2407330721616745 0.00538386357948184013 0.321808189153671265
-0.360189497470855713 -0.0570663139224052429 -0.137789860367774963
0.399437487125396729 -0.252701014280319214 0.322171479463577271
0.3997344970703125 -0.263080030679702759 0.324920654296875
0.224061712622642517 -0.324178844690322876 0.320849597454071045
0.411218166351318359 -0.267821580171585083 0.325341582298278809
-0.509660959243774414 0.0495634749531745911 0.195305794477462769
-0.631748735904693604 0.156592592597007751 -0.0526227056980133057
-0.502341628074645996 0.147206678986549377 0.34531790018081665
0.520937979221343994 -0.351010441780090332 -0.322862088680267334
0.495432227849960327 -0.348449230194091797 0.000485933705931529403
-0.198325067758560181 0.0161359086632728577 -0.049800775945186615
-0.558211743831634521 0.342007994651794434 -0.00570643972605466843
0.488651692867279053 -0.360568016767501831 0.0413065403699874878
0.449441343545913696 -0.074155658483505249 0.00224603503011167049
-0.556686639785766602 0.385539054870605469 0.157803207635879517
0.37480694055557251 -0.0812269747257232666 -0.119647346436977386
-0.390083640813827515 0.319888204336166382 0.168861359357833862
-0.38504105806350708 0.328465431928634644 0.197551444172859192
-0.364627599716186523 0.238113299012184143 -0.0833734273910522461
-0.407744854688644409 0.199668139219284058 0.0409895218908786774
-0.644888103008270264 0.287083804607391357 0.0935918763279914856
0.408704638481140137 -0.347332209348678589 0.1366606205701828
0.222571343183517456 0.083036959171295166 -0.0332815200090408325
0.498801857233047485 -0.161226034164428711 0.124089501798152924
0.500608921051025391 -0.0927563086152076721 0.135015964508056641
0.215554296970367432 0.0020942329429090023 0.299674719572067261
-0.353732585906982422 -0.0682718679308891296 -0.00899015925824642181
-0.3858681321144104 0.266127943992614746 -0.071569882333278656
0.506587743759155273 -0.347192108631134033 0.0551656521856784821
-0.357610255479812622 -0.0565349124372005463 -0.145380914211273193
0.132310822606086731 0.0728625506162643433 0.322300881147384644
-0.100043386220932007 -0.265859812498092651 0.00622116774320602417
0.242657646536827087 0.0235392637550830841 0.322115868330001831
-0.480953365564346313 -0.0117073552682995796 0.185323923826217651
0.242707937955856323 0.0485444255173206329 0.317298769950866699
-0.278502434492111206 0.332940101623535156 0.0407625697553157806
0.370082825422286987 -0.0308303162455558777 -0.0396877415478229523
0.520242750644683838 -0.348148763179779053 -0.0360896028578281403
0.293552935123443604 -0.0118819046765565872 0.0372605957090854645
-0.644576013088226318 0.28500029444694519 0.0924401506781578064
0.0357402600347995758 0.136898577213287354 0.0852846056222915649
-0.398008227348327637 -0.0576873943209648132 0.125929266214370728
-0.441978991031646729 -0.0382651090621948242 0.131348446011543274
0.52391660213470459 -0.317740172147750854 -0.0652327314019203186
0.422568827867507935 -0.280015736818313599 0.331404536962509155
0.509753882884979248 -0.345084190368652344 0.0573336035013198853
0.40399286150932312 -0.258881092071533203 0.32381749153137207
-0.480840623378753662 0.0180680397897958755 0.176712751388549805
0.235755234956741333 0.068741142749786377 0.314693838357925415
-0.480010151863098145 -0.00836937688291072845 0.167360395193099976
0.239383161067962646 0.0677504464983940125 0.315097212791442871
0.388503283262252808 0.0261104181408882141 0.106239661574363708
0.219584524631500244 -0.316178798675537109 0.310509145259857178
0.383322805166244507 0.0430146008729934692 0.0692828819155693054
0.463036209344863892 0.0108764199540019035 0.175298064947128296
0.399616241455078125 -0.258672803640365601 0.327389687299728394
-0.500151395797729492 0.0211472548544406891 0.180923745036125183
-0.573909759521484375 0.266449838876724243 0.359892815351486206
-0.665010511875152588 0.230015531182289124 0.0217930004000663757
-0.149451345205307007 0.275570809841156006 0.0791693180799484253
0.52198481559753418 -0.335426390171051025 -0.322473615407943726
-0.220641493797302246 0.315885245800018311 0.0968182757496833801
0.499981611967086792 -0.346677005290985107 0.0672239735722541809
-0.189954563975334167 0.302984297275543213 0.114844955503940582
0.313810914754867554 -0.130131304264068604 0.300901412963867188
0.225263327360153198 -0.035141725093126297 0.305314242839813232
0.057179868221282959 -0.330977559089660645 0.291436076164245605
0.435364067554473877 -0.28004831075668335 0.332918435335159302
0.409082710742950439 -0.285855114459991455 0.331080198287963867
0.385796785354614258 -0.265882045030593872 0.318962723016738892
0.397376835346221924 -0.385064691305160522 -0.225548863410949707
-0.162440180778503418 0.278609752655029297 0.128699466586112976
0.380965769290924072 0.0440409183502197266 0.0772237703204154968
0.390928953886032104 -0.255832016468048096 0.318973511457443237
-0.500868678092956543 0.024433434009552002 0.185759425163269043
0.499546676874160767 -0.326309502124786377 -0.313095748424530029
0.380561172962188721 -0.376354485750198364 -0.216159075498580933
0.521044135093688965 -0.34965747594833374 -0.324878513813018799
0.52060544490814209 -0.348794460296630859 -0.321816623210906982
0.513239085674285889 -0.320031553506851196 -0.318435490131378174
0.255030512809753418 -0.222541674971580505 0.057642962783575058
0.185939610004425049 -0.142537564039230347 -0.105480916798114777
0.50787818431854248 -0.320376664400100708 0.0293855927884578705
-0.470044553279876709 -0.0119646433740854263 0.181023359298706055
0.496130049228668213 -0.349356472492218018 -0.309768736362457275
0.521394312381744385 -0.32790723443031311 -0.32194480299949646
0.475949674844741821 -0.320633977651596069 -0.303040742874145508
-0.341623306274414062 0.229914367198944092 -0.0442696437239646912
0.201929554343223572 0.132979825139045715 0.112362705171108246
-0.17298126220703125 0.0221675895154476166 0.0256651341915130615
0.265674203634262085 -0.165970861911773682 0.0061934259720146656
0.544739425182342529 -0.32849469780921936 -0.0477213449776172638
-0.456899881362915039 -0.0532150007784366608 0.162144720554351807
0.469630509614944458 -0.356467723846435547 -0.30710446834564209
0.478412270545959473 -0.270167320966720581 -0.301510095596313477
0.467241048812866211 -0.362280339002609253 -0.308195233345031738
-0.32057499885559082 0.26677057147026062 0.011540641076862812
0.0331036373972892761 0.0987026616930961609 0.128607705235481262
-0.285224854946136475 -0.100396521389484406 -0.0873137563467025757
-0.617289483547210693 0.217007502913475037 -0.104824617505073547
0.244599565863609314 0.104582905769348145 -0.029583614319562912
0.466271907091140747 -0.235399380326271057 -0.228449165821075439
-0.294465959072113037 -0.0888397395610809326 -0.0958711877465248108
0.249123275279998779 -0.276013165712356567 0.322643846273422241
0.222185343503952026 0.0669208765029907227 -0.0277495868504047394
-0.251434087753295898 -0.130520552396774292 -0.0554599836468696594
-0.21185852587223053 0.302229911088943481 0.148733258247375488
0.339956730604171753 -0.140572667121887207 0.318453013896942139
0.529750406742095947 -0.35671570897102356 0.0698027685284614563
-0.600276947021484375 0.356825083494186401 0.0603488311171531677
-0.346917599439620972 -0.0560588985681533813 -0.143614724278450012
-0.433286309242248535 0.157537072896957397 -0.0846058130264282227
0.526641607284545898 -0.33185279369354248 0.0205123331397771835
0.528199613094329834 -0.288132697343826294 -0.0700266659259796143
-0.499443024396896362 0.142523214221000671 -0.253866910934448242
0.146638780832290649 0.156918272376060486 0.0589346811175346375
0.253416568040847778 -0.00753893610090017319 0.327786684036254883
0.350100338459014893 -0.147159606218338013 0.320690691471099854
0.442244231700897217 -0.322826147079467773 -0.229282930493354797
-0.224642395973205566 -0.140335172414779663 -0.0537680499255657196
0.522584319114685059 -0.350341647863388062 0.0970708057284355164
-0.64650803804397583 0.25359266996383667 0.0238289479166269302
0.39328351616859436 -0.280158430337905884 0.322411507368087769
-0.475217103958129883 -0.00991682801395654678 0.164808288216590881
0.224349766969680786 -0.325181901454925537 0.319106757640838623
-0.364215344190597534 -0.121382221579551697 0.130367457866668701
-0.239102154970169067 -0.140966311097145081 -0.0539027191698551178
-0.114329777657985687 -0.00923823006451129913 -0.0165871810168027878
0.389509290456771851 -0.278429657220840454 0.320742368698120117
-0.507519960403442383 0.0112490393221378326 0.201875388622283936
0.462577223777770996 -0.297231495380401611 -0.294234156608581543
0.351443707942962646 -0.148117765784263611 0.321547001600265503
0.457849085330963135 -0.3039817214012146 -0.228744089603424072
0.024226924404501915 -0.143956154584884644 -0.0200627595186233521
0.369031935930252075 -0.327852815389633179 0.318871140480041504
0.391734868288040161 -0.281584680080413818 0.317005246877670288
0.128346189856529236 -0.319533169269561768 -0.0970150455832481384
-0.134686961770057678 0.27868381142616272 0.117573335766792297
-0.333831876516342163 0.0944365710020065308 -0.102327324450016022
0.373995721340179443 -0.376220077276229858 -0.214713335037231445
0.519823849201202393 -0.346043914556503296 -0.322493940591812134
0.523383617401123047 -0.358313053846359253 -0.326356321573257446
-0.0687313079833984375 -0.255057394504547119 0.0989655852317810059
0.325895756483078003 -0.130812600255012512 0.314872562885284424
0.424420863389968872 -0.259799182415008545 0.328422516584396362
-0.480447620153427124 0.0319093726575374603 0.196640774607658386
0.526587903499603271 -0.299885064363479614 -0.321947485208511353
0.538024783134460449 -0.29272770881652832 -0.324360966682434082
0.377794414758682251 -0.374454528093338013 -0.213422447443008423
0.371302217245101929 -0.35738980770111084 -0.213426753878593445
0.524009168148040771 -0.351908266544342041 -0.324736893177032471
0.525311708450317383 -0.36368715763092041 -0.322827011346817017
0.515492916107177734 -0.327450335025787354 -0.319809854030609131
0.479434579610824585 -0.352622389793395996 -0.311947166919708252
0.478396356105804443 -0.365898013114929199 -0.312665104866027832
-0.362212717533111572 0.310689747333526611 0.239745050668716431
-0.321304172277450562 0.104135967791080475 0.0222818329930305481
-0.448121964931488037 0.204339742660522461 -0.0403161942958831787
-0.378188669681549072 0.279522448778152466 -0.0072270645759999752
-0.0229038204997777939 -0.260935515165328979 0.143931955099105835
-0.59238046407699585 0.361701250076293945 0.0641470253467559814
0.367495536804199219 -0.373786658048629761 -0.212216988205909729
