ply
format ascii 1.0
element vertex 737
property float x
property float y
property float z
end_header
0.467878431081771851 -0.321177363395690918 0.127476096153259277
0.467893928289413452 -0.260569363832473755 -0.293643355369567871
-0.404071122407913208 0.300592690706253052 0.142861008644104004
-0.454203993082046509 0.119558423757553101 -0.223992004990577698
0.481817245483398438 -0.311851263046264648 -0.302459776401519775
0.468450367450714111 -0.330726265907287598 -0.00294157583266496658
0.457566529512405396 -0.305285841226577759 -0.292397201061248779
0.524463653564453125 -0.261979907751083374 -0.102004855871200562
-0.408836811780929565 0.318696767091751099 0.162731379270553589
-0.560878634452819824 0.267669767141342163 0.365322113037109375
-0.576182425022125244 0.210672691464424133 -0.200904473662376404
0.447706818580627441 -0.296600848436355591 -0.223018839955329895
0.310692965984344482 -0.0762724801898002625 0.148893743753433228
0.534822821617126465 -0.248312458395957947 0.101248167455196381
-0.562587499618530273 0.119905233383178711 -0.233348026871681213
-0.408159375190734863 0.0767651796340942383 -0.116597443819046021
-0.579809606075286865 0.356455326080322266 0.0825928151607513428
0.0415832959115505219 0.114481337368488312 0.312379598617553711
-0.456663578748703003 0.00898474361747503281 0.181673869490623474
0.409711480140686035 -0.34395909309387207 0.160009771585464478
-0.554806172847747803 0.288586139678955078 -0.0493111386895179749
0.543321788311004639 -0.255969911813735962 0.113688208162784576
0.0243112333118915558 -0.249769851565361023 0.205110907554626465
0.19572041928768158 0.129989936947822571 0.0348545201122760773
0.315885007381439209 -0.370498716831207275 -0.156994462013244629
0.110837794840335846 0.0595109127461910248 0.319096982479095459
-0.314953058958053589 0.30649101734161377 0.284238427877426147
-0.254319250583648682 -0.132607221603393555 -0.0731959342956542969
-0.38647809624671936 -0.0601022057235240936 0.106430046260356903
0.453383415937423706 -0.0727607607841491699 -0.116448543965816498
0.316169232130050659 -0.333103537559509277 0.195896103978157043
0.297987401485443115 0.038131222128868103 0.0500855632126331329
0.476124584674835205 -0.330994278192520142 0.136451348662376404
0.440111279487609863 -0.267478793859481812 -0.282256186008453369
0.461669266223907471 -0.273090988397598267 0.138011440634727478
0.504300534725189209 -0.346410125494003296 0.0174728482961654663
0.519198715686798096 -0.269571304321289062 -0.0871337130665779114
0.498848497867584229 -0.0881140977144241333 0.161848261952400208
0.542460203170776367 -0.215282395482063293 0.110873691737651825
-0.577224612236022949 0.326975136995315552 0.0804008245468139648
0.246870532631874084 0.111277617514133453 -0.0544395633041858673
0.0337975993752479553 0.0683520287275314331 0.272554248571395874
-0.562177598476409912 0.27535286545753479 0.0238906256854534149
-0.614100217819213867 0.272141247987747192 0.0384934209287166595
0.535834848880767822 -0.239258989691734314 0.102904349565505981
-0.576147377490997314 0.212825089693069458 -0.116815023124217987
-0.425034910440444946 0.0307804513722658157 -0.188602909445762634
0.304819583892822266 -0.126427561044692993 -0.108345769345760345
-0.385093361139297485 -0.0556180626153945923 0.100668542087078094
-0.6033974289894104 0.259676575660705566 0.0173838827759027481
-0.46082642674446106 0.306386500597000122 0.0812080875039100647
0.505161821842193604 -0.263937324285507202 -0.109250277280807495
0.53482210636138916 -0.192372649908065796 0.0286982022225856781
-0.616310834884643555 0.210602015256881714 -0.0562124624848365784
0.452798008918762207 -0.123618297278881073 0.0893848016858100891
0.0339707694947719574 -0.279440730810165405 -0.0358332991600036621
0.402283459901809692 -0.318802624940872192 0.130969509482383728
-0.093710578978061676 0.0740336403250694275 0.29325336217880249
0.243545457720756531 -0.136774897575378418 0.011112443171441555
0.161728262901306152 -0.271494150161743164 0.0438991338014602661
-0.590757310390472412 0.369245767593383789 0.0901952013373374939
0.0273048803210258484 -0.0117030134424567223 0.0279154200106859207
0.196022450923919678 0.0339904874563217163 0.17818547785282135
-0.30605652928352356 -0.0913098528981208801 0.30555763840675354
0.493992596864700317 -0.366829961538314819 0.019855281338095665
0.521851956844329834 -0.31139671802520752 0.0460732467472553253
0.502834677696228027 -0.153502240777015686 0.119008608162403107
0.0812208652496337891 -0.271980077028274536 -0.0595459379255771637
-0.325347661972045898 -0.103136643767356873 0.0884304642677307129
-0.586346685886383057 0.334912657737731934 0.0185274705290794373
-0.0735881030559539795 -0.23566029965877533 0.301739215850830078
0.194746389985084534 -0.33982810378074646 -0.0623349323868751526
-0.39895215630531311 0.272124528884887695 -0.0546488538384437561
-0.521783888339996338 0.0442389324307441711 -0.0577862896025180817
-0.257799059152603149 0.142271637916564941 0.0913235321640968323
-0.213356465101242065 -0.135647639632225037 -0.063273794949054718
0.508687436580657959 -0.104680441319942474 0.144332602620124817
0.214515745639801025 -0.279610484838485718 -0.00927672814577817917
0.238419786095619202 -0.0760585814714431763 0.126908034086227417
-0.14046989381313324 0.296553373336791992 0.147879406809806824
-0.656078457832336426 0.171591624617576599 -0.112572826445102692
0.253578335046768188 -0.00944913271814584732 0.250006020069122314
0.250539451837539673 -0.178800031542778015 0.302780479192733765
-0.262901544570922852 -0.136895790696144104 -0.0676760748028755188
-0.200873181223869324 0.31438136100769043 0.0990013182163238525
0.25807836651802063 -0.277984380722045898 0.323120206594467163
0.179149478673934937 -0.0540412850677967072 -0.0510043390095233917
-0.443287640810012817 -0.0665543600916862488 0.129101365804672241
-0.503837049007415771 0.0301675722002983093 0.247207999229431152
-0.497065186500549316 0.0366105996072292328 -0.0117149623110890388
0.232883751392364502 0.0228362474590539932 0.314114898443222046
-0.371352672576904297 -0.0456709079444408417 0.143399849534034729
-0.348931223154067993 0.106626503169536591 0.0659930333495140076
0.307869940996170044 -0.198769286274909973 0.242977336049079895
0.308617174625396729 -0.00550731364637613297 0.219619438052177429
-0.442866265773773193 0.266653865575790405 -0.0372978001832962036
0.517375171184539795 -0.326505541801452637 -0.0812823474407196045
-0.538828015327453613 0.138554289937019348 -0.0972454845905303955
0.465979307889938354 -0.124399177730083466 0.00200731935910880566
-0.385418623685836792 0.255395114421844482 0.0327687226235866547
0.494153141975402832 -0.30187690258026123 0.12116985023021698
0.465502411127090454 -0.10614950954914093 0.0596142113208770752
0.204006955027580261 0.0152080273255705833 -0.0422237776219844818
-0.224623441696166992 0.295771270990371704 0.158753290772438049
-0.124912261962890625 -0.0489134639501571655 0.0109046837314963341
-0.231711551547050476 0.228435918688774109 0.348266154527664185
-0.380744785070419312 -0.0542272180318832397 0.145513460040092468
0.34146350622177124 -0.0737352892756462097 0.0477194041013717651
-0.435921043157577515 -0.0121325114741921425 0.0340539403259754181
0.20563642680644989 0.0166307594627141953 0.0704370960593223572
0.0565115772187709808 -0.0859273597598075867 0.239369124174118042
-0.383829891681671143 -0.0594141706824302673 0.116612993180751801
-0.136475875973701477 -0.264697372913360596 -0.00116099778097122908
-0.243668004870414734 0.0636273697018623352 0.244914397597312927
-0.542196810245513916 0.210938811302185059 0.162781670689582825
-0.590820550918579102 0.287247508764266968 -0.00731710204854607582
0.307190448045730591 0.0176403522491455078 0.0429111458361148834
0.478816241025924683 -0.314671576023101807 -0.305337667465209961
0.504036843776702881 -0.345462113618850708 -0.0636900588870048523
0.471908360719680786 -0.30509185791015625 0.115184411406517029
0.527380466461181641 -0.302826374769210815 -0.109279230237007141
-0.402951419353485107 0.311532199382781982 0.134761795401573181
0.518207192420959473 -0.251183360815048218 -0.307324677705764771
0.507914900779724121 -0.328952640295028687 -0.314697533845901489
0.519068717956542969 -0.331298410892486572 0.0917239859700202942
0.477699339389801025 -0.304143786430358887 -0.302974700927734375
0.527832329273223877 -0.285569518804550171 -0.107894018292427063
-0.559994339942932129 0.267285466194152832 0.365708500146865845
-0.640233933925628662 0.289655923843383789 0.0851861461997032166
0.371823728084564209 -0.401047348976135254 -0.217448174953460693
-0.449734032154083252 -0.000931403599679470062 0.17515978217124939
0.176681816577911377 0.0729562118649482727 0.00668058916926383972
-0.453505903482437134 0.134781390428543091 -0.213694468140602112
0.403438150882720947 -0.335804879665374756 0.129110261797904968
-0.598951816558837891 0.207471653819084167 0.000789084937423467636
0.247907623648643494 -0.114478074014186859 -0.0707527026534080505
-0.483132511377334595 0.182819828391075134 -0.21011073887348175
-0.375994175672531128 -0.0629618018865585327 0.0917392969131469727
0.523178517818450928 -0.320893228054046631 0.0360038727521896362
0.542603433132171631 -0.217348143458366394 0.108400009572505951
0.525969088077545166 -0.273469746112823486 0.0554462708532810211
0.111424975097179413 0.0840642154216766357 0.317391753196716309
-0.350744545459747314 -0.0477756895124912262 0.0450326800346374512
0.105349637567996979 0.072209969162940979 0.295626193284988403
-0.16516837477684021 0.133064389228820801 0.151426434516906738
0.503061771392822266 -0.256413280963897705 -0.102366335690021515
0.429241538047790527 -0.303801536560058594 0.136086761951446533
-0.35555073618888855 -0.101281307637691498 0.159118369221687317
0.498907953500747681 -0.201559871435165405 -0.107829868793487549
-0.578512012958526611 0.348127245903015137 0.152189195156097412
0.105360887944698334 -0.0114955613389611244 0.0212203674018383026
-0.341021716594696045 -0.123216770589351654 0.104651100933551788
-0.120349578559398651 -0.275490850210189819 0.174165457487106323
-0.161015927791595459 0.16732276976108551 0.325303852558135986
0.515306293964385986 -0.358519703149795532 0.0269317645579576492
0.521329581737518311 -0.287510961294174194 -0.0115514416247606277
0.479108214378356934 -0.139931291341781616 0.107779152691364288
-0.180641219019889832 0.0293679498136043549 0.0259531345218420029
-0.341738641262054443 -0.121438413858413696 0.10379374772310257
-0.600221216678619385 0.376832932233810425 0.188458308577537537
-0.119346141815185547 -0.266602545976638794 0.218432575464248657
0.523756682872772217 -0.308746665716171265 -0.0746683329343795776
0.516654849052429199 -0.251996695995330811 -0.309448361396789551
0.455370068550109863 -0.308093875646591187 -0.294386774301528931
0.240933939814567566 -0.0959414169192314148 0.158780500292778015
-0.620188772678375244 0.272329896688461304 0.0371829867362976074
-0.429800927639007568 -0.00367509131319820881 0.177401706576347351
-0.25009956955909729 -0.136670485138893127 -0.0710574239492416382
0.317703813314437866 -0.318902373313903809 0.122696511447429657
0.53954780101776123 -0.249661311507225037 0.106783486902713776
0.452990204095840454 -0.139729768037796021 0.015560653991997242
0.429684162139892578 -0.320946782827377319 0.123871959745883942
0.413711726665496826 -0.33068498969078064 -0.209705054759979248
0.47404557466506958 -0.128509998321533203 0.109664008021354675
-0.548975050449371338 0.378621369600296021 0.172673001885414124
0.190994158387184143 -0.339686393737792969 -0.0132139446213841438
-0.201362475752830505 -0.135206818580627441 -0.0683969780802726746
-0.185508683323860168 0.312097132205963135 0.118001051247119904
0.103567399084568024 0.107747659087181091 0.174588665366172791
-0.44413796067237854 -0.0541248098015785217 0.0919018536806106567
-0.489217758178710938 0.0302416421473026276 0.0168778169900178909
0.231663450598716736 0.0110419765114784241 0.315192461013793945
-0.0244750063866376877 0.113219380378723145 0.312612146139144897
0.24355199933052063 -0.0385882221162319183 0.20481516420841217
-0.384762942790985107 0.245413929224014282 0.0343602187931537628
-0.653985083103179932 0.216862738132476807 -0.0392463579773902893
0.48323589563369751 -0.116180703043937683 0.0235833171755075455
0.122439250349998474 0.079545930027961731 0.138696968555450439
-0.381698071956634521 -0.0723904967308044434 0.0956870913505554199
0.320003896951675415 -0.0722985938191413879 0.0625493749976158142
-0.440460741519927979 -0.0114563107490539551 0.00689167343080043793
-0.502086400985717773 0.233803689479827881 -0.0710923224687576294
-0.547148942947387695 0.203574925661087036 -0.068508051335811615
0.0888411030173301697 0.0917321890592575073 0.0801564455032348633
-0.5197792649269104 0.204674422740936279 -0.0471474677324295044
-0.168004453182220459 0.0724931135773658752 0.232633888721466064
-0.0569243207573890686 -0.186657637357711792 0.0269066561013460159
-0.212442129850387573 0.290807485580444336 0.109245814383029938
0.24995046854019165 -0.00536044919863343239 0.0224808324128389359
-0.555730998516082764 0.204472601413726807 0.118420124053955078
-0.457234382629394531 0.216541364789009094 0.0245849750936031342
-0.462540745735168457 0.266570389270782471 -0.00268399575725197792
-0.575352370738983154 0.247712433338165283 -0.0764393284916877747
-0.389239311218261719 0.275218665599822998 -0.0840783566236495972
0.344088047742843628 -0.134619712829589844 0.319006413221359253
-0.498507320880889893 0.206951886415481567 -0.0115794576704502106
-0.345883846282958984 0.29290395975112915 -0.0500756502151489258
0.52629619836807251 -0.360946953296661377 0.0418364480137825012
-0.539898216724395752 0.215229466557502747 0.201162561774253845
-0.56925666332244873 0.294470936059951782 -0.00313196470960974693
0.316855728626251221 0.023763386532664299 0.0488977618515491486
0.482431143522262573 -0.306818515062332153 -0.303644418716430664
0.480016559362411499 -0.326207518577575684 0.125462815165519714
0.52353060245513916 -0.306879699230194092 -0.0986650586128234863
0.490779399871826172 -0.310585916042327881 -0.307406187057495117
0.516511321067810059 -0.324931293725967407 0.119923770427703857
0.444980114698410034 -0.30001455545425415 -0.290623843669891357
0.523546457290649414 -0.304431289434432983 -0.0973273664712905884
0.134481862187385559 0.116365306079387665 0.337243497371673584
-0.642340898513793945 0.242710977792739868 -0.0094268210232257843
-0.29231339693069458 -0.113642975687980652 -0.105643510818481445
0.539488852024078369 -0.255397617816925049 0.0922784507274627686
0.129356741905212402 0.0975837484002113342 0.317514985799789429
-0.234891071915626526 -0.143311634659767151 -0.0712881386280059814
0.25276494026184082 0.0301014203578233719 -0.0858351588249206543
0.531265497207641602 -0.323034435510635376 0.00688554765656590462
-0.599341154098510742 0.307419568300247192 0.104553975164890289
0.532346785068511963 -0.244573041796684265 0.0866309255361557007
-0.373879790306091309 -0.0606599599123001099 0.0923997983336448669
0.526888251304626465 -0.275195479393005371 -0.123207688331604004
-0.501095116138458252 0.148822814226150513 0.353175431489944458
0.385525554418563843 -0.297547191381454468 0.131932958960533142
0.133225694298744202 -0.331817030906677246 -0.100380390882492065
0.523087918758392334 -0.354750275611877441 -0.0148861696943640709
-0.43635520339012146 0.150637537240982056 -0.0849776789546012878
0.516055107116699219 -0.300011008977890015 0.0647780820727348328
0.393566548824310303 -0.367716968059539795 -0.21366022527217865
0.500763833522796631 -0.171401366591453552 0.130141809582710266
0.533532679080963135 -0.333903670310974121 0.0284466929733753204
-0.579909086227416992 0.348915278911590576 0.040335044264793396
0.520329773426055908 -0.240757644176483154 -0.308690667152404785
-0.601028501987457275 0.370682060718536377 0.10472165048122406
-0.500595629215240479 0.147194400429725647 0.355380535125732422
0.234360888600349426 -0.277762115001678467 0.317515969276428223
-0.181000500917434692 -0.136838719248771667 -0.0555541552603244781
-0.228055372834205627 -0.137781292200088501 -0.0534529238939285278
-0.204250171780586243 0.298404842615127563 0.126835107803344727
0.262912213802337646 -0.289573043584823608 0.323806822299957275
-0.362114250659942627 -0.0303813014179468155 0.119629181921482086
-0.499996483325958252 0.0195860806852579117 0.0319176428020000458
0.243149340152740479 0.000121370067063253373 0.322433322668075562
0.141759485006332397 -0.290313035249710083 0.311864286661148071
0.308448940515518188 -0.207481697201728821 0.248315542936325073
-0.386077344417572021 0.254935324192047119 0.0344138108193874359
0.531366944313049316 -0.262186616659164429 0.103007137775421143
0.224355831742286682 0.022760709747672081 0.30559113621711731
0.530902087688446045 -0.147244572639465332 -0.308210849761962891
-0.644839704036712646 0.231503486633300781 -0.0474813543260097504
0.541574418544769287 -0.310827761888504028 -0.0444012992084026337
0.508185386657714844 -0.267572104930877686 -0.311473876237869263
0.514678120613098145 -0.315918892621994019 -0.295072019100189209
0.459262967109680176 -0.290693461894989014 -0.296557098627090454
-0.543039083480834961 0.268292278051376343 -0.18936234712600708
-0.621436715126037598 0.289071977138519287 0.0667127221822738647
0.363956153392791748 -0.384043782949447632 -0.206074923276901245
-0.0924329236149787903 0.267271220684051514 0.189483180642127991
-0.448319435119628906 0.131495684385299683 -0.208797335624694824
-0.575391232967376709 0.203942239284515381 -0.127102896571159363
-0.63003915548324585 0.191865921020507812 -0.039906524121761322
-0.46962621808052063 0.139148801565170288 -0.231111645698547363
0.258015036582946777 -0.0169707424938678741 -0.0720322504639625549
0.230823352932929993 0.0539437010884284973 -0.0450948067009449005
0.113305754959583282 0.109787270426750183 0.301778405904769897
-0.584029555320739746 0.2185792475938797 -0.221485882997512817
-0.598196983337402344 0.235374286770820618 -0.0107700629159808159
-0.366832166910171509 -0.0915194228291511536 0.122878946363925934
-0.32978898286819458 -0.125143155455589294 0.137335404753684998
-0.63457190990447998 0.19978255033493042 -0.0383225530385971069
-0.425542742013931274 -0.0546980574727058411 0.0992691665887832642
-0.477954238653182983 0.0203565936535596848 -0.0365508385002613068
0.208955496549606323 0.00863748509436845779 0.300968855619430542
-0.634172201156616211 0.248236402869224548 -0.00599729130044579506
-0.128000378608703613 0.269942253828048706 0.132340267300605774
0.271476626396179199 -0.330140113830566406 0.180193319916725159
0.533321857452392578 -0.209974542260169983 -0.0988239645957946777
-0.126130595803260803 -0.112430915236473083 -0.0547707192599773407
0.454584836959838867 -0.338654607534408569 -0.298083066940307617
-0.212387621402740479 0.0364186577498912811 -0.059658832848072052
-0.553171217441558838 0.175942018628120422 0.0127986771985888481
-0.198389992117881775 0.139767780900001526 0.0211854800581932068
-0.0121839689090847969 -0.102329060435295105 -0.0429200641810894012
0.265136986970901489 -0.274770796298980713 0.202547281980514526
0.349097400903701782 -0.320922315120697021 1.38353452712181024e-05
-0.155743330717086792 0.0699443072080612183 0.0275757908821105957
-0.249067425727844238 0.130955129861831665 -0.034411795437335968
0.199450790882110596 0.00177656533196568489 0.0191369876265525818
0.0766180306673049927 0.080979272723197937 0.024003889411687851
-0.283413112163543701 0.288399845361709595 -0.00589073961600661278
0.47732815146446228 -0.289580494165420532 -0.301719784736633301
-0.556879639625549316 0.265914857387542725 -0.0172561220824718475
-0.237230479717254639 0.0978089421987533569 -0.0324278064072132111
0.138269573450088501 -0.280676752328872681 0.150146827101707458
0.296787261962890625 -0.297211885452270508 0.0569813400506973267
-0.285995453596115112 0.257390022277832031 0.000589951698202639818
-0.0207585208117961884 -0.0402041636407375336 0.0890501439571380615
0.204781144857406616 0.0428584478795528412 0.0657769814133644104
-0.143446058034896851 -0.0849888920783996582 0.0917599946260452271
0.372809261083602905 -0.0732467621564865112 0.0316153168678283691
0.521629154682159424 -0.198916167020797729 -0.0985139086842536926
0.487464398145675659 -0.297579675912857056 -0.305377870798110962
0.480734586715698242 -0.314670383930206299 0.122359305620193481
0.51391679048538208 -0.306990772485733032 -0.10241372138261795
0.496383070945739746 -0.309208899736404419 -0.30974772572517395
0.506468117237091064 -0.327640235424041748 -0.00411548605188727379
0.512015640735626221 -0.324367493391036987 0.118387483060359955
0.466264665126800537 -0.288481950759887695 -0.296573132276535034
0.438358038663864136 -0.263209074735641479 -0.194294944405555725
0.13528868556022644 0.117012418806552887 0.337159395217895508
0.396849095821380615 -0.244198456406593323 0.318851113319396973
-0.601687848567962646 0.354453712701797485 0.065586484968662262
-0.505291342735290527 0.357317566871643066 0.178400129079818726
0.542868733406066895 -0.28234514594078064 0.0979460552334785461
0.256698071956634521 0.0370580144226551056 -0.0720330178737640381
-0.233093574643135071 0.156137764453887939 -0.0052567613311111927
0.506459653377532959 -0.331807196140289307 -0.00253842677921056747
0.445159792900085449 -0.249788567423820496 -0.228018775582313538
-0.639191806316375732 0.25471147894859314 0.054592914879322052
0.532845497131347656 -0.262520283460617065 0.0932644680142402649
-0.39306977391242981 -0.0590306222438812256 0.100458882749080658
0.524200141429901123 -0.289459675550460815 -0.0921077057719230652
0.0284011159092187881 -0.273924380540847778 -0.035296216607093811
0.385496228933334351 -0.305878311395645142 0.118855766952037811
-0.582384943962097168 0.366983741521835327 0.131794199347496033
0.240451470017433167 0.00306440936401486397 0.181207180023193359
-0.112961731851100922 0.165621906518936157 0.347641229629516602
0.482517629861831665 -0.368167966604232788 -0.0220651701092720032
0.41263464093208313 -0.320928812026977539 -0.21103985607624054
0.507476389408111572 -0.155366167426109314 0.124056339263916016
0.529091298580169678 -0.334535121917724609 0.0128167765215039253
-0.584305703639984131 0.336601942777633667 0.0341547541320323944
-0.590962707996368408 0.382080346345901489 0.131352901458740234
0.526618897914886475 -0.244115561246871948 -0.310666829347610474
0.474800348281860352 -0.290502041578292847 -0.299471408128738403
-0.597424507141113281 0.353865444660186768 0.169761791825294495
-0.587554037570953369 0.371623128652572632 0.10118865966796875
-0.211865141987800598 -0.12929871678352356 -0.0576778873801231384
0.234695419669151306 -0.292851448059082031 0.315084278583526611
0.238220170140266418 0.0672476440668106079 0.320187032222747803
0.542133867740631104 -0.313663721084594727 -0.0581248998641967773
-0.44469878077507019 -0.0481578446924686432 0.127111852169036865
0.359995216131210327 -0.388118773698806763 -0.209020465612411499
-0.556672871112823486 0.211398154497146606 -0.11366899311542511
0.521123290061950684 -0.279348671436309814 -0.177132129669189453
0.242101326584815979 0.0348968170583248138 0.314661622047424316
0.243005961179733276 0.000624283857177942991 0.023711351677775383
0.38085368275642395 0.0390482805669307709 0.0119470134377479553
0.527085661888122559 -0.230415523052215576 -0.310172110795974731
0.327153801918029785 0.0963993296027183533 -0.0358593426644802094
-0.374152660369873047 -0.0599804967641830444 -0.13291594386100769
0.513102531433105469 -0.167366206645965576 0.135950386524200439
-0.574679791927337646 0.322203963994979858 0.0495280921459197998
-0.559183835983276367 0.283595681190490723 0.364248543977737427
0.224679321050643921 0.0321591980755329132 -0.0581530928611755371
-0.574414610862731934 0.214895188808441162 -0.221120640635490417
-0.0442484617233276367 0.156759887933731079 0.0812753066420555115
0.114232257008552551 0.11024678498506546 0.0255109760910272598
0.343114882707595825 -0.246769830584526062 -0.0968648791313171387
-0.285200029611587524 0.300602138042449951 -0.00278109405189752579
0.153552621603012085 -0.00417582225054502487 -0.0035257821436971426
0.0691515654325485229 0.139022022485733032 0.0757352486252784729
-0.270181655883789062 0.28035542368888855 0.00174511957447975874
0.503677070140838623 -0.292400002479553223 -0.159368738532066345
0.137226447463035583 -0.025600779801607132 0.0131613994017243385
-0.338995009660720825 -0.0317494943737983704 0.0228137355297803879
0.373628407716751099 -0.0916409865021705627 0.0443303994834423065
0.200101390480995178 0.101440891623497009 -0.00175613886676728725
-0.297219067811965942 -0.0247922502458095551 0.03595723956823349
0.132035583257675171 -0.0175882056355476379 -0.0260529201477766037
0.101605571806430817 0.0162466578185558319 0.0912880003452301025
0.175806298851966858 0.119556009769439697 0.0381032861769199371
-0.230407595634460449 -0.0634382665157318115 0.104697845876216888
0.486449062824249268 -0.296443134546279907 -0.303605973720550537
-0.60338360071182251 0.28969380259513855 0.185212418437004089
0.467462718486785889 -0.308550059795379639 0.120117716491222382
0.378468602895736694 -0.0142573043704032898 0.00642263749614357948
0.514661133289337158 -0.295125991106033325 -0.103504575788974762
0.519163250923156738 -0.23950609564781189 -0.307672113180160522
0.478292763233184814 -0.309508711099624634 -0.300360560417175293
0.483748197555541992 -0.274297088384628296 -0.299985378980636597
0.117343023419380188 0.118911243975162506 0.297723919153213501
-0.584393084049224854 0.35651552677154541 0.0658075511455535889
0.384055137634277344 -0.337161511182785034 0.125545769929885864
-0.574637949466705322 0.317879199981689453 -0.0265941862016916275
-0.604570388793945312 0.217361971735954285 -0.086964830756187439
0.267971426248550415 0.0394576303660869598 -0.0862304642796516418
-0.356340348720550537 -0.0219063088297843933 -0.13120386004447937
-0.564451992511749268 0.314506798982620239 -0.00794523116201162338
0.191074594855308533 -0.340600758790969849 -0.0747721120715141296
0.404581427574157715 -0.357409745454788208 -0.224098384380340576
-0.500343859195709229 0.14577879011631012 0.354724019765853882
0.50977557897567749 -0.151326224207878113 0.115027040243148804
0.497196078300476074 -0.263706296682357788 -0.304467380046844482
0.458348751068115234 -0.280658215284347534 -0.289819329977035522
0.441312521696090698 -0.264741808176040649 -0.2837696373462677
-0.588208675384521484 0.357620567083358765 0.0617193914949893951
0.505369722843170166 -0.126648843288421631 0.124450579285621643
-0.206358268857002258 0.312565714120864868 0.108815602958202362
0.268498480319976807 -0.283889204263687134 0.319264352321624756
0.232747688889503479 0.00366164278239011765 0.317958414554595947
0.513550460338592529 -0.175464138388633728 -0.281823724508285522
-0.115067169070243835 0.0100892987102270126 0.00591373816132545471
0.404314219951629639 -0.359438210725784302 -0.22472207248210907
0.417909055948257446 -0.313104152679443359 0.143804877996444702
-0.555712044239044189 0.376620769500732422 0.186835542321205139
-0.175771370530128479 0.309233129024505615 0.118501991033554077
-0.38983580470085144 0.276190340518951416 -0.0850798487663269043
0.365408629179000854 0.0519814938306808472 0.0246574748307466507
0.129315584897994995 0.115804590284824371 0.318954765796661377
-0.286349058151245117 -0.100323669612407684 -0.0920903235673904419
0.258297950029373169 0.10106910765171051 -0.0619885958731174469
-0.361156880855560303 -0.059537149965763092 -0.144178256392478943
0.134269788861274719 0.11376432329416275 0.337902665138244629
-0.563174545764923096 0.199555501341819763 -0.229099571704864502
-0.276523500680923462 0.28812524676322937 -0.000886476307641714811
0.455252975225448608 -0.246234595775604248 -0.288357794284820557
0.460608989000320435 -0.275190144777297974 -0.290886253118515015
-0.635038316249847412 0.30832323431968689 0.170414000749588013
0.512777090072631836 -0.317299872636795044 -0.0385910123586654663
0.469305187463760376 -0.265588611364364624 -0.298015564680099487
0.478525549173355103 -0.294803053140640259 -0.300297319889068604
0.458508282899856567 -0.246017962694168091 -0.28992992639541626
0.381561189889907837 -0.36077427864074707 -0.21390746533870697
-0.479455828666687012 -0.0123367840424180031 0.185880526900291443
-0.516666293144226074 0.365891098976135254 0.174099504947662354
-0.6186484694480896 0.202259108424186707 -0.0872278958559036255
-0.237181603908538818 0.0190280396491289139 -0.0725646615028381348
-0.382517099380493164 -0.058797348290681839 0.0236924756318330765
0.475190579891204834 -0.368168085813522339 0.0218143276870250702
-0.649400413036346436 0.236961886286735535 0.0322110690176486969
0.412998050451278687 -0.346510380506515503 -0.221694603562355042
0.526325821876525879 -0.336983919143676758 0.0800800248980522156
0.506367504596710205 -0.238806739449501038 -0.30813133716583252
0.249857038259506226 -0.282069772481918335 0.318322718143463135
0.239374950528144836 0.0666783303022384644 0.31473127007484436
0.539856374263763428 -0.301654905080795288 -0.093687593936920166
-0.447858363389968872 -0.0411622300744056702 0.126544162631034851
-0.0437291301786899567 0.10460122674703598 0.317896753549575806
0.24816448986530304 0.0211422815918922424 0.322289824485778809
-0.284671992063522339 -0.0994550734758377075 -0.099108472466468811
-0.137570664286613464 -0.0148914409801363945 -0.0488140396773815155
-0.277997076511383057 0.337968945503234863 0.0470325499773025513
-0.254799932241439819 0.290026992559432983 -0.0032126337755471468
-0.219019964337348938 0.321988701820373535 0.0698997154831886292
-0.573335766792297363 0.152490749955177307 -0.0745406597852706909
-0.290052175521850586 0.292829722166061401 0.016063988208770752
0.525901854038238525 -0.320492923259735107 0.0271833427250385284
0.346363186836242676 -0.0303383339196443558 -0.034448530524969101
0.522521376609802246 -0.36274382472038269 0.0894144773483276367
-0.0830669254064559937 -0.111634440720081329 0.0785001218318939209
-0.404126226902008057 0.326163828372955322 0.121265009045600891
0.505072653293609619 -0.366895020008087158 -0.00448897713795304298
-0.11877693235874176 0.266195625066757202 0.121026270091533661
0.51900869607925415 -0.342784374952316284 0.0358531586825847626
0.130621045827865601 -0.334467649459838867 0.301329135894775391
0.466920703649520874 -0.310888946056365967 0.0724877342581748962
0.483179420232772827 -0.37382960319519043 0.0523414760828018188
0.421277284622192383 -0.0259077288210391998 0.0649054199457168579
0.494475990533828735 -0.363353818655014038 -0.0155380768701434135
-0.233058169484138489 0.287266284227371216 0.0841874405741691589
0.531506061553955078 -0.331584572792053223 -0.00722715863958001137
-0.272071570158004761 0.315504580736160278 0.11402042955160141
0.308464378118515015 0.00273176282644271851 0.046347491443157196
0.467786729335784912 -0.263197869062423706 -0.296086430549621582
0.474102050065994263 -0.304171621799468994 0.114269986748695374
0.511492729187011719 -0.313453227281570435 -0.104403331875801086
0.509516000747680664 -0.245153740048408508 -0.308451145887374878
0.44833645224571228 -0.292287617921829224 -0.292776346206665039
0.466764628887176514 -0.283052772283554077 -0.297296404838562012
0.138502642512321472 0.112882636487483978 0.336842596530914307
-0.652284085750579834 0.285916775465011597 0.0980351045727729797
-0.638421058654785156 0.245047226548194885 -0.0382347516715526581
0.136515200138092041 0.0693757012486457825 0.337960928678512573
-0.577224969863891602 0.304010212421417236 -0.055600970983505249
0.262751132249832153 0.0306362435221672058 -0.0734387859702110291
0.542158126831054688 -0.216580763459205627 0.111598163843154907
-0.359965085983276367 -0.0355392917990684509 -0.134383335709571838
-0.574880063533782959 0.327682167291641235 -0.0296025276184082031
-0.361669480800628662 -0.070718713104724884 -0.0340272970497608185
-0.130287781357765198 -0.267386525869369507 0.119090311229228973
0.495443731546401978 -0.365650922060012817 -0.000372377486201003194
0.374253809452056885 -0.359172582626342773 -0.210072308778762817
-0.378302246332168579 -0.106700681149959564 0.10129845142364502
-0.066803663969039917 -0.263850003480911255 0.296542525291442871
0.520188093185424805 -0.243107795715332031 -0.309471935033798218
0.509746909141540527 -0.330393731594085693 0.0152759887278079987
-0.593531191349029541 0.369158655405044556 0.120607674121856689
-0.655446052551269531 0.175916805863380432 -0.103075161576271057
-0.222808122634887695 -0.143929272890090942 -0.0537585057318210602
-0.191354051232337952 0.31674504280090332 0.100771531462669373
0.256959348917007446 -0.283361136913299561 0.319756150245666504
0.23936837911605835 0.0323274284601211548 0.319198340177536011
-0.119913406670093536 -0.0459202155470848083 0.00730239599943161011
-0.641715943813323975 0.308844596147537231 0.101889550685882568
0.365149140357971191 -0.373715430498123169 -0.206988081336021423
0.537944495677947998 -0.217607676982879639 0.161890700459480286
-0.552923858165740967 0.382623821496963501 0.15801277756690979
-0.122554786503314972 0.259415656328201294 0.115156345069408417
0.119598962366580963 0.102587237954139709 0.0894928500056266785
-0.375496536493301392 0.266036123037338257 -0.0896163284778594971
0.517151474952697754 -0.348896712064743042 0.0987845510244369507
-0.293350011110305786 -0.106922551989555359 -0.109356388449668884
0.275206297636032104 0.103121481835842133 -0.0576277934014797211
-0.5751534104347229 0.219800516963005066 -0.212713629007339478
-0.115598417818546295 0.268688708543777466 0.179855763912200928
0.236318260431289673 -0.287837862968444824 0.314443916082382202
0.310432493686676025 -0.187217533588409424 0.241077139973640442
0.542031466960906982 -0.325668185949325562 -0.0209268014878034592
0.0793048292398452759 -0.337555289268493652 0.282275378704071045
-0.0061036958359181881 -0.171674847602844238 0.00424531102180480957
-0.2823219895362854 0.261891722679138184 0.00703093502670526505
0.513443827629089355 -0.236878812313079834 -0.309466540813446045
-0.647069990634918213 0.278477072715759277 0.0795540288090705872
-0.64638364315032959 0.183425351977348328 -0.0909216403961181641
0.514374136924743652 -0.322355568408966064 0.0242889430373907089
-0.406888574361801147 -0.063425891101360321 0.113505087792873383
0.517118752002716064 -0.355532974004745483 -0.0206329841166734695
-0.566735923290252686 0.374502480030059814 0.152517154812812805
0.236117124557495117 0.0431390218436717987 0.31374669075012207
-0.66491621732711792 0.227363944053649902 0.0230914037674665451
-0.448068171739578247 -0.0382648780941963196 0.127053305506706238
0.503326237201690674 -0.302076041698455811 -0.178900644183158875
-0.589274942874908447 0.36122480034828186 0.0860968455672264099
-0.194195210933685303 0.315019488334655762 0.104889504611492157
0.247146710753440857 0.0240454729646444321 0.323884189128875732
0.531197667121887207 -0.323626339435577393 -0.0580947920680046082
-0.182937920093536377 0.307118922472000122 0.128509178757667542
0.247403651475906372 0.00712262419983744621 0.324014365673065186
0.0587806738913059235 0.139767482876777649 0.345796108245849609
-0.505770504474639893 0.149579450488090515 0.35692635178565979
0.27102208137512207 -0.311102449893951416 0.326299428939819336
-0.253624260425567627 0.0237665027379989624 -0.0707797855138778687
0.241368129849433899 -0.295149236917495728 0.322546988725662231
0.249166488647460938 0.0439243167638778687 0.314474701881408691
0.468579918146133423 -0.101811125874519348 0.0346281453967094421
-0.124759487807750702 0.195239797234535217 0.115417987108230591
0.240269601345062256 -0.326461881399154663 0.317997634410858154
0.500526607036590576 -0.366435080766677856 0.07465401291847229
0.523698329925537109 -0.324559599161148071 0.0262064170092344284
0.444852292537689209 -0.253142952919006348 0.33240160346031189
0.321834832429885864 -0.131270021200180054 -0.106677472591400146
0.0635822787880897522 -0.010625903494656086 0.321738839149475098
0.511576950550079346 -0.360733091831207275 0.0475096516311168671
0.135980769991874695 -0.100537560880184174 0.0405258946120738983
0.0497685149312019348 0.011700265109539032 0.0297061055898666382
0.0209905020892620087 0.0483840145170688629 0.0425731614232063293
0.0883781835436820984 -0.0659391731023788452 0.289673000574111938
-0.161846786737442017 -0.265473157167434692 0.147985786199569702
0.265201985836029053 -0.0200300794094800949 0.0615549683570861816
-0.0287064779549837112 -0.0288875773549079895 0.295589238405227661
0.5025215744972229 -0.240124180912971497 -0.302049458026885986
0.476332962512969971 -0.314740777015686035 -0.301995664834976196
-0.631018161773681641 0.306473284959793091 0.167397141456604004
0.475748777389526367 -0.320685207843780518 0.121033191680908203
0.509400725364685059 -0.300680607557296753 -0.105564042925834656
0.528562664985656738 -0.274696916341781616 -0.317234933376312256
0.493939995765686035 -0.332207649946212769 -0.310751676559448242
0.503778576850891113 -0.320002108812332153 0.0980225726962089539
0.474578827619552612 -0.305575370788574219 -0.298147380352020264
-0.559412658214569092 0.268250077962875366 0.364572644233703613
0.125178784132003784 0.116936378180980682 0.314255446195602417
-0.633652687072753906 0.282446146011352539 0.0542763732373714447
-0.587466537952423096 0.362976282835006714 0.102441132068634033
0.371986061334609985 -0.37386709451675415 -0.212765917181968689
0.438771605491638184 -0.347860127687454224 0.154363974928855896
0.0582798980176448822 0.121398255228996277 0.321168303489685059
-0.574682950973510742 0.368973761796951294 0.215590611100196838
0.265006780624389648 0.0247427187860012054 -0.058640897274017334
0.369144648313522339 -0.336679428815841675 0.16064859926700592
0.510844528675079346 -0.30139884352684021 -0.112013682723045349
0.134112119674682617 -0.320441335439682007 -0.0977994129061698914
0.516894638538360596 -0.348658770322799683 -0.0202888045459985733
0.389757752418518066 -0.346598118543624878 -0.214121878147125244
-0.577101409435272217 0.31926843523979187 0.0407809577882289886
0.536375045776367188 -0.277667462825775146 -0.320640087127685547
0.468295007944107056 -0.310710728168487549 -0.299283623695373535
0.507509768009185791 -0.347003698348999023 0.0179381202906370163
-0.556002974510192871 0.309901446104049683 0.102267034351825714
0.194378077983856201 -0.339223384857177734 -0.059179157018661499
0.0705817043781280518 -0.282076925039291382 -0.0779219195246696472
0.252821207046508789 -0.250222861766815186 0.320220828056335449
0.240163445472717285 0.0309701059013605118 0.316975951194763184
-0.120774127542972565 -0.0477185584604740143 0.00815668050199747086
0.179140329360961914 -0.100092709064483643 -0.0147902145981788635
0.532768905162811279 -0.332190096378326416 -0.0131670767441391945
0.370840132236480713 -0.349322885274887085 -0.20890064537525177
0.535212695598602295 -0.245767772197723389 0.177304729819297791
0.561501204967498779 -0.315621107816696167 -0.330978244543075562
0.554762423038482666 -0.211649268865585327 0.133953377604484558
-0.543386161327362061 0.3809223473072052 0.164553910493850708
0.123079501092433929 0.117238782346248627 0.133175104856491089
-0.582342922687530518 0.352099001407623291 0.0978299975395202637
-0.48157799243927002 0.186141908168792725 -0.091578163206577301
0.515949547290802002 -0.33908236026763916 0.0388473011553287506
0.253839105367660522 -0.279137015342712402 0.322041213512420654
0.279027581214904785 -0.355832546949386597 -0.126067295670509338
0.508306801319122314 -0.286476552486419678 -0.313706576824188232
-0.432038038969039917 -0.0571019835770130157 0.116729937493801117
0.202195286750793457 0.0905194208025932312 0.223432734608650208
0.244550749659538269 0.104620315134525299 -0.0571963749825954437
-0.19563804566860199 0.201598957180976868 0.349373608827590942
0.250727385282516479 0.0249326098710298538 0.323408454656600952
0.240091502666473389 0.0190258529037237167 0.321099787950515747
-0.0312750190496444702 0.162745386362075806 0.382734954357147217
-0.482445687055587769 -0.0155477989464998245 0.180232793092727661
0.484177619218826294 -0.368997633457183838 0.0460949502885341644
-0.643596351146697998 0.287287741899490356 0.0862729325890541077
0.276390910148620605 -0.16574665904045105 -0.0704746842384338379
-0.411689341068267822 -0.0567715764045715332 0.0789351984858512878
-0.643037199974060059 0.17589019238948822 -0.0820025280117988586
-0.22565402090549469 -0.133826553821563721 -0.0522176288068294525
0.255337297916412354 -0.265552401542663574 0.321202844381332397
-0.345174908638000488 0.0174314826726913452 -0.116930499672889709
-0.286872059106826782 -0.0914391130208969116 -0.106522075831890106
-0.585048973560333252 0.210016146302223206 -0.218020901083946228
0.268002927303314209 -0.297004848718643188 0.315278410911560059
-0.0251925159245729446 -0.187200620770454407 -0.0434622280299663544
-0.6181296706199646 0.27708783745765686 0.0314430259168148041
-0.608923137187957764 0.298393011093139648 0.0925406292080879211
-0.397428750991821289 -0.0627808123826980591 0.118927083909511566
-0.451605319976806641 -0.0380926243960857391 0.119534976780414581
0.43144536018371582 -0.271769195795059204 0.329276561737060547
-0.0522799789905548096 0.140830889344215393 0.0917693153023719788
-0.503037035465240479 0.151203140616416931 0.355541616678237915
0.241228058934211731 -0.319288074970245361 0.322896331548690796
0.497545421123504639 -0.37082064151763916 0.0574134327471256256
0.399652183055877686 -0.256894499063491821 0.322553634643554688
-0.158000439405441284 -0.263463109731674194 0.181629836559295654
-0.499124914407730103 0.0141034107655286789 0.158153444528579712
0.41794249415397644 -0.297391831874847412 0.328825086355209351
0.535695970058441162 -0.34017866849899292 -0.0183989442884922028
0.34478875994682312 -0.267364352941513062 -0.127823710441589355
-0.496459156274795532 0.0720497071743011475 0.20406477153301239
0.443980813026428223 -0.272212982177734375 0.333504050970077515
0.522424876689910889 -0.335396230220794678 0.0328486859798431396
0.453869134187698364 -0.319845110177993774 -0.293024390935897827
0.474626213312149048 -0.311698675155639648 0.116772480309009552
0.517676055431365967 -0.278367072343826294 -0.312818229198455811
0.503141701221466064 -0.325893044471740723 -0.314318090677261353
0.51849442720413208 -0.327127009630203247 0.101983934640884399
0.479807049036026001 -0.311376869678497314 -0.30216604471206665
0.114775046706199646 0.118542343378067017 0.289112240076065063
-0.121911011636257172 0.268634170293807983 0.15886707603931427
-0.614879906177520752 0.26556020975112915 0.0521520674228668213
-0.479346305131912231 0.0031156507320702076 0.181409135460853577
0.427116274833679199 -0.355051398277282715 0.158645525574684143
-0.292045116424560547 -0.110506333410739899 -0.105780221521854401
0.130765706300735474 0.0654557347297668457 0.321323752403259277
0.254072576761245728 0.0386671572923660278 -0.0777541324496269226
0.235783949494361877 0.0938463807106018066 -0.053021799772977829
0.418176770210266113 -0.261529237031936646 -0.202323153614997864
0.522104382514953613 -0.354657292366027832 -0.0194157753139734268
-0.608985364437103271 0.381154805421829224 0.181348428130149841
0.518027603626251221 -0.279267281293869019 -0.314740985631942749
0.499537676572799683 -0.350014537572860718 0.0241319257766008377
-0.587952256202697754 0.369346767663955688 0.11312953382730484
0.50624847412109375 -0.104776054620742798 0.147356867790222168
-0.198053628206253052 0.31155434250831604 0.113008499145507812
0.264448553323745728 -0.286593705415725708 0.319868236780166626
0.237176015973091125 0.0620760992169380188 0.310640990734100342
-0.144227445125579834 -0.0434557832777500153 0.00421988079324364662
-0.657805562019348145 0.214783519506454468 -0.0461504347622394562
-0.28835943341255188 -0.0759052559733390808 -0.0686150118708610535
0.227580457925796509 0.0421374998986721039 -0.0481043122708797455
0.551809430122375488 -0.144535645842552185 0.13210277259349823
0.520131289958953857 -0.29539451003074646 0.074954107403755188
0.51801764965057373 -0.284052789211273193 -0.181164026260375977
-0.35791546106338501 -0.0170467328280210495 -0.0279404167085886002
0.0917270928621292114 0.088168121874332428 0.0858450233936309814
0.467098236083984375 -0.361905992031097412 -0.0106212245300412178
-0.432890504598617554 0.157798111438751221 -0.0664741620421409607
0.524178028106689453 -0.335670709609985352 0.0689546018838882446
0.263308554887771606 -0.285962760448455811 0.318591415882110596
0.00972232222557067871 -0.0909706205129623413 -0.0260906759649515152
0.0329192392528057098 -0.130380958318710327 0.0219009406864643097
-0.630787014961242676 0.26507839560508728 0.0291057173162698746
0.242370650172233582 0.0742437243461608887 0.318910688161849976
0.240472063422203064 0.0294949710369110107 0.31898912787437439
-0.174839168787002563 0.300831913948059082 0.116387717425823212
0.304973632097244263 -0.151363685727119446 0.307885110378265381
0.262344211339950562 -0.290762335062026978 0.321077197790145874
-0.476153403520584106 -0.00814718753099441528 0.166283667087554932
0.243000298738479614 0.0816809684038162231 0.312269657850265503
0.520605266094207764 -0.351323962211608887 0.0819905921816825867
-0.0345415286719799042 -0.237587317824363708 0.124133758246898651
-0.638412535190582275 0.290065675973892212 0.0989028885960578918
-0.23397238552570343 -0.132797405123710632 -0.0580044649541378021
-0.379147529602050781 -0.108782351016998291 0.105567470192909241
-0.236176848411560059 -0.147816315293312073 -0.0578517280519008636
-0.658021211624145508 0.214476093649864197 -0.0338522568345069885
0.529239952564239502 -0.352656304836273193 0.0779312774538993835
-0.621238529682159424 0.270336151123046875 0.0525495298206806183
-0.404049903154373169 -0.0643223822116851807 0.112099118530750275
-0.44626164436340332 -0.0414805524051189423 0.122040160000324249
0.268409669399261475 -0.285655766725540161 0.323552161455154419
0.12803688645362854 -0.326625615358352661 0.312663793563842773
0.152699247002601624 -0.343114852905273438 0.317937672138214111
0.448207199573516846 -0.335603266954421997 -0.292998582124710083
0.516143441200256348 -0.302977859973907471 -0.107934184372425079
0.515650629997253418 -0.280238479375839233 -0.312836557626724243
0.485320866107940674 -0.327658176422119141 -0.309798568487167358
0.46481737494468689 -0.345865547657012939 -0.302673310041427612
0.549962997436523438 -0.210212871432304382 -0.315986335277557373
0.524518311023712158 -0.300023734569549561 -0.322490513324737549
0.518387913703918457 -0.300834625959396362 -0.318385869264602661
0.247101739048957825 0.0569651685655117035 0.316502392292022705
0.241565048694610596 0.0874339044094085693 0.312837600708007812
-0.291496127843856812 -0.100515477359294891 -0.101911015808582306
-0.453516393899917603 -0.0519587136805057526 0.117133200168609619
0.405125230550765991 -0.272312015295028687 0.322597503662109375
-0.502385318279266357 0.00379883195273578167 0.189203321933746338
0.401423901319503784 -0.287287116050720215 0.324913322925567627
0.399568647146224976 -0.273607373237609863 0.323393166065216064
0.34263882040977478 -0.258995264768600464 0.0901635438203811646
-0.0184358041733503342 -0.244382798671722412 0.128707647323608398
-0.464491069316864014 0.0360013246536254883 0.189622640609741211
-0.194392979145050049 0.221577629446983337 0.172131195664405823
0.367295235395431519 -0.329278230667114258 -0.0234749931842088699
0.323929041624069214 -0.390074193477630615 -0.158865660429000854
0.535788059234619141 -0.32363426685333252 -0.0581966154277324677
-0.441720783710479736 -0.00471129454672336578 0.152759760618209839
-0.0188589245080947876 -0.0595312081277370453 0.141787618398666382
0.000125764068798162043 -0.236118480563163757 0.106424987316131592
0.526531100273132324 -0.201811358332633972 -0.0800004750490188599
0.450254768133163452 -0.308289259672164917 -0.292880803346633911
0.527235627174377441 -0.275399476289749146 -0.315689563751220703
0.500338494777679443 -0.324842840433120728 -0.312687397003173828
0.475657671689987183 -0.305005133152008057 -0.297399938106536865
