ply
format ascii 1.0
element vertex 738
property float x
property float y
property float z
end_header
0.0680453777313232422 -0.286309003829956055 -0.081512942910194397
-0.362104028463363647 0.03515595942735672 -0.161330997943878174
0.307396531105041504 -0.293884605169296265 0.0295241624116897583
-0.339512735605239868 0.213295325636863708 0.159160196781158447
-0.188335850834846497 0.199921578168869019 0.367852896451950073
-0.540309607982635498 0.254782229661941528 -0.0843782797455787659
0.522478818893432617 -0.199942171573638916 -0.0927431955933570862
-0.519308924674987793 0.185257032513618469 0.136331230401992798
-0.543942153453826904 0.269900381565093994 -0.00267549650743603706
0.471026450395584106 -0.326545000076293945 0.044574439525604248
0.288766860961914062 0.0306613203138113022 0.0536704808473587036
0.433265596628189087 -0.306332200765609741 -0.285199612379074097
-0.518805146217346191 0.089953400194644928 -0.135321393609046936
-0.600911259651184082 0.285263746976852417 0.183779358863830566
0.467551916837692261 -0.321475595235824585 0.127389058470726013
0.46757352352142334 -0.260873287916183472 -0.293779194355010986
-0.404335558414459229 0.300419121980667114 0.142753094434738159
-0.454412221908569336 0.119355209171772003 -0.224120870232582092
0.481496453285217285 -0.312148690223693848 -0.302595257759094238
0.468118846416473389 -0.331021100282669067 -0.00304429046809673309
0.457244545221328735 -0.305584847927093506 -0.292531698942184448
0.524134457111358643 -0.262279540300369263 -0.102114558219909668
-0.409102499485015869 0.318527907133102417 0.162621989846229553
-0.561100006103515625 0.267519891262054443 0.365163028240203857
-0.57638704776763916 0.210488587617874146 -0.201084613800048828
0.447380751371383667 -0.296897202730178833 -0.223143532872200012
0.310338348150253296 -0.0765864476561546326 0.148799464106559753
0.534493565559387207 -0.248621717095375061 0.101157926023006439
-0.562785804271697998 0.119717158377170563 -0.23352348804473877
-0.408383339643478394 0.0765668004751205444 -0.116703443229198456
-0.580060720443725586 0.356304168701171875 0.082388751208782196
0.0412464961409568787 0.114241540431976318 0.31233176589012146
-0.456886798143386841 0.00881848018616437912 0.181566163897514343
0.409387022256851196 -0.344247728586196899 0.159927546977996826
-0.555038094520568848 0.288415670394897461 -0.0494917631149291992
0.542993307113647461 -0.256277263164520264 0.113600149750709534
0.0240250043570995331 -0.249979853630065918 0.205070465803146362
0.195329412817955017 0.129682555794715881 0.0347489379346370697
0.31555408239364624 -0.370764851570129395 -0.15709957480430603
0.110498160123825073 0.0592574700713157654 0.319045126438140869
-0.315219372510910034 0.306315034627914429 0.284167468547821045
-0.254561185836791992 -0.132797032594680786 -0.0732525959610939026
-0.386704504489898682 -0.0602736733853816986 0.106347173452377319
0.453041255474090576 -0.0730953961610794067 -0.116580218076705933
0.315848678350448608 -0.333370745182037354 0.195823192596435547
0.297606885433197021 0.0378028377890586853 0.0499707609415054321
0.475798875093460083 -0.331290572881698608 0.136365652084350586
0.439788460731506348 -0.267780393362045288 -0.282389432191848755
0.461342304944992065 -0.273398488759994507 0.137924611568450928
0.503969371318817139 -0.346702307462692261 0.0173727106302976608
0.51886904239654541 -0.26987043023109436 -0.0872419625520706177
0.498506754636764526 -0.0884548202157020569 0.161750763654708862
0.542130470275878906 -0.215598270297050476 0.11078324168920517
-0.57747197151184082 0.32681843638420105 0.0802049562335014343
0.246489375829696655 0.110958404839038849 -0.0545626617968082428
0.0334624014794826508 0.0681065022945404053 0.272505670785903931
-0.562414586544036865 0.275184094905853271 0.0237028971314430237
-0.614336550235748291 0.271979033946990967 0.0382881090044975281
0.535505414009094238 -0.239570081233978271 0.102813832461833954
-0.576362252235412598 0.212649345397949219 -0.116997823119163513
-0.425248891115188599 0.0305792186409235001 -0.188715741038322449
0.304476350545883179 -0.126727700233459473 -0.10845647007226944
-0.385320752859115601 -0.0557911023497581482 0.100585326552391052
-0.603630661964416504 0.259511202573776245 0.017183251678943634
-0.461081832647323608 0.306215614080429077 0.0810724124312400818
0.504832983016967773 -0.264237403869628906 -0.109361529350280762
0.534488797187805176 -0.19269031286239624 0.0285971742123365402
-0.616532087326049805 0.210433468222618103 -0.0564114190638065338
0.452454894781112671 -0.123953148722648621 0.0892805904150009155
0.0336729437112808228 -0.279648065567016602 -0.0358831845223903656
0.401955693960189819 -0.319096177816390991 0.130883276462554932
-0.0940129831433296204 0.0738191232085227966 0.293211668729782104
0.24320085346698761 -0.137059614062309265 0.0110232830047607422
0.161409646272659302 -0.271729946136474609 0.0438388213515281677
-0.591009795665740967 0.369097769260406494 0.0899837017059326172
0.0269670207053422928 -0.0119639616459608078 0.0278315674513578415
0.195650294423103333 0.0336946360766887665 0.178108513355255127
-0.306281894445419312 -0.0914621949195861816 0.305516630411148071
0.493661463260650635 -0.367120712995529175 0.0197537466883659363
0.521521449089050293 -0.311693638563156128 0.0459777526557445526
0.502499103546142578 -0.153832152485847473 0.118912078440189362
0.0809153914451599121 -0.272198081016540527 -0.0596003271639347076
-0.325579673051834106 -0.103308543562889099 0.0883677229285240173
-0.586589694023132324 0.33475533127784729 0.0183271057903766632
-0.0738481953740119934 -0.23584669828414917 0.301708638668060303
0.194426447153091431 -0.340062588453292847 -0.0624062493443489075
-0.399198174476623535 0.271933078765869141 -0.0547586977481842041
-0.521996557712554932 0.0440609529614448547 -0.0579409822821617126
-0.258071333169937134 0.142065554857254028 0.0912528485059738159
-0.21360836923122406 -0.135841667652130127 -0.0633290261030197144
0.508346974849700928 -0.105018213391304016 0.144235000014305115
0.214189082384109497 -0.279857397079467773 -0.00934762042015790939
0.238065972924232483 -0.0763547122478485107 0.126823365688323975
-0.14079563319683075 0.296348929405212402 0.147803947329521179
-0.656292378902435303 0.17142564058303833 -0.112784214317798615
0.253221511840820312 -0.00974596012383699417 0.2499285489320755
0.25022357702255249 -0.17906951904296875 0.302714794874191284
-0.263141483068466187 -0.137083187699317932 -0.0677328705787658691
-0.201180249452590942 0.314183026552200317 0.0989200323820114136
0.257773339748382568 -0.27823716402053833 0.323060721158981323
0.178800269961357117 -0.0543257035315036774 -0.0510976575314998627
-0.443503707647323608 -0.0667170435190200806 0.128998920321464539
-0.504052579402923584 0.0300136525183916092 0.247081294655799866
-0.497283369302749634 0.0364317074418067932 -0.0118593806400895119
0.232532590627670288 0.0225546639412641525 0.314044058322906494
-0.371583282947540283 -0.0458423830568790436 0.143323957920074463
-0.34918096661567688 0.106431752443313599 0.0659075900912284851
0.307545661926269531 -0.199055716395378113 0.242902487516403198
0.308252632617950439 -0.00582357170060276985 0.219529673457145691
-0.443108081817626953 0.266469001770019531 -0.0374245308339595795
0.51704484224319458 -0.326796829700469971 -0.0813902020454406738
-0.539041340351104736 0.138374820351600647 -0.097409270703792572
0.465636938810348511 -0.12473122775554657 0.00189326901454478502
-0.385675132274627686 0.255205899477005005 0.0326648987829685211
0.493826329708099365 -0.302179336547851562 0.121082276105880737
0.465156823396682739 -0.106487259268760681 0.0595047846436500549
0.203640162944793701 0.0149059649556875229 -0.0423285365104675293
-0.224921718239784241 0.295578032732009888 0.158681362867355347
-0.125202551484107971 -0.0491352267563343048 0.0108337728306651115
-0.231977418065071106 0.228246688842773438 0.348218411207199097
-0.380972445011138916 -0.0543958507478237152 0.145435377955436707
0.341105282306671143 -0.0740581750869750977 0.0476100966334342957
-0.436145037412643433 -0.0123123293742537498 0.0339423418045043945
0.20526064932346344 0.0163262598216533661 0.0703433454036712646
0.0561986751854419708 -0.0861718952655792236 0.239321187138557434
-0.384056746959686279 -0.0595848932862281799 0.116531729698181152
-0.136739790439605713 -0.264873802661895752 -0.00120131950825452805
-0.24393126368522644 0.0634353682398796082 0.244866266846656799
-0.542433023452758789 0.210774138569831848 0.162618651986122131
-0.59105449914932251 0.2870807945728302 -0.00751851173117756844
0.306813865900039673 0.0173117499798536301 0.0427954494953155518
0.47849544882774353 -0.314968585968017578 -0.305473387241363525
0.503706097602844238 -0.345752120018005371 -0.0637975186109542847
0.471581310033798218 -0.305394560098648071 0.115095697343349457
0.527051091194152832 -0.303119570016860962 -0.109388768672943115
-0.403217345476150513 0.311359614133834839 0.134652912616729736
0.517889261245727539 -0.251483947038650513 -0.307461261749267578
0.507594645023345947 -0.329245328903198242 -0.314833253622055054
0.518739700317382812 -0.331592738628387451 0.0916336774826049805
0.477378815412521362 -0.304442882537841797 -0.303110629320144653
0.527503132820129395 -0.285865068435668945 -0.108003363013267517
-0.560215651988983154 0.267135500907897949 0.365550011396408081
-0.640475928783416748 0.289499968290328979 0.0849629342555999756
0.37149384617805481 -0.401327282190322876 -0.217570975422859192
-0.449957132339477539 -0.00109764689113944769 0.17505471408367157
0.176300600171089172 0.0726538375020027161 0.00658011436462402344
-0.453715592622756958 0.134578824043273926 -0.213822647929191589
0.403110712766647339 -0.33609500527381897 0.129024028778076172
-0.599177300930023193 0.207302525639533997 0.000593743636272847652
0.24756351113319397 -0.114767037332057953 -0.0708513408899307251
-0.483338683843612671 0.18262125551700592 -0.210248872637748718
-0.376221895217895508 -0.0631354302167892456 0.0916590094566345215
0.52284771203994751 -0.321188211441040039 0.035907261073589325
0.542273640632629395 -0.217663511633872986 0.108309388160705566
0.525638580322265625 -0.273773431777954102 0.055351555347442627
0.111080221831798553 0.0838105380535125732 0.317339658737182617
-0.350978434085845947 -0.0479590967297554016 0.0449549518525600433
0.105003096163272858 0.0719532445073127747 0.295575648546218872
-0.165468797087669373 0.132846713066101074 0.151365995407104492
0.502732634544372559 -0.256714731454849243 -0.102477207779884338
0.428914397954940796 -0.304100692272186279 0.136000484228134155
-0.35577625036239624 -0.101441852748394012 0.159053176641464233
0.498578876256942749 -0.201870962977409363 -0.107944346964359283
-0.57876276969909668 0.347978711128234863 0.151995599269866943
0.105005696415901184 -0.0117738451808691025 0.0211342610418796539
-0.341248571872711182 -0.123380914330482483 0.104586698114871979
-0.120608203113079071 -0.27566230297088623 0.174133777618408203
-0.16130027174949646 0.16712149977684021 0.325261622667312622
0.514975190162658691 -0.358809292316436768 0.0268328320235013962
0.520998477935791016 -0.287810444831848145 -0.0116527359932661057
0.478769510984420776 -0.140264272689819336 0.107679165899753571
-0.180924415588378906 0.0291483663022518158 0.0258792806416749954
-0.34196549654006958 -0.121602952480316162 0.103728964924812317
-0.600473105907440186 0.376692473888397217 0.188254565000534058
-0.119602210819721222 -0.266773968935012817 0.218402236700057983
0.523426353931427002 -0.309040069580078125 -0.0747749358415603638
0.516337037086486816 -0.252297312021255493 -0.309585213661193848
0.45504799485206604 -0.308392196893692017 -0.2945212721824646
0.24058707058429718 -0.0962336510419845581 0.158700227737426758
-0.620424985885620117 0.272168248891830444 0.0369754619896411896
-0.430026322603225708 -0.00384260900318622589 0.177305325865745544
-0.250342369079589844 -0.136859893798828125 -0.0711135566234588623
0.317375838756561279 -0.319175511598587036 0.122616283595561981
0.53921884298324585 -0.249970078468322754 0.106694161891937256
0.45264822244644165 -0.140057280659675598 0.0154505493119359016
0.429356545209884644 -0.321242749691009521 0.123784348368644714
0.413382977247238159 -0.330974876880645752 -0.209827020764350891
0.473705261945724487 -0.128845572471618652 0.109563000500202179
-0.549231112003326416 0.378477632999420166 0.17248988151550293
0.190674483776092529 -0.339919209480285645 -0.0132816294208168983
-0.201617106795310974 -0.13540300726890564 -0.068452298641204834
-0.185820683836936951 0.311898171901702881 0.117921978235244751
0.103193819522857666 0.107469953596591949 0.174522653222084045
-0.444356024265289307 -0.0542936213314533234 0.0917945876717567444
-0.489437967538833618 0.0300635304301977158 0.0167375262826681137
0.231314867734909058 0.0107611594721674919 0.315122485160827637
-0.024796564131975174 0.11299220472574234 0.312568038702011108
0.243196457624435425 -0.0388860329985618591 0.20473615825176239
-0.385018438100814819 0.2452239990234375 0.0342570953071117401
-0.654208540916442871 0.216698065400123596 -0.039457269012928009
0.4828929603099823 -0.116515986621379852 0.0234708115458488464
0.122066564857959747 0.0792614147067070007 0.138621240854263306
-0.381922990083694458 -0.0725614726543426514 0.0956064388155937195
0.319644719362258911 -0.072616972029209137 0.0624439828097820282
-0.440683126449584961 -0.0116380080580711365 0.00677595054730772972
-0.502313673496246338 0.23362162709236145 -0.0712419897317886353
-0.54736936092376709 0.203398168087005615 -0.0686787888407707214
0.0884654596447944641 0.0914453715085983276 0.0800739675760269165
-0.520004808902740479 0.204494893550872803 -0.0473050586879253387
-0.168291538953781128 0.072285383939743042 0.232587933540344238
-0.0572119168937206268 -0.186864495277404785 0.0268555451184511185
-0.212743580341339111 0.290606707334518433 0.109167903661727905
0.249578937888145447 -0.0056728036142885685 0.0223753135651350021
-0.555965185165405273 0.204304248094558716 0.118246056139469147
-0.457475155591964722 0.216358095407485962 0.0244551822543144226
-0.462784260511398315 0.266389608383178711 -0.00281927525065839291
-0.575575709342956543 0.247539713978767395 -0.076624847948551178
-0.389481991529464722 0.275022327899932861 -0.0841813236474990845
0.343762814998626709 -0.134914860129356384 0.318929493427276611
-0.498738557100296021 0.206770956516265869 -0.0117275528609752655
-0.346140682697296143 0.292709231376647949 -0.050171922892332077
0.525965213775634766 -0.361235231161117554 0.0417397506535053253
-0.540133535861968994 0.21506790816783905 0.201003551483154297
-0.569490790367126465 0.294299274682998657 -0.00333549757488071918
0.316478520631790161 0.0234323833137750626 0.0487808361649513245
0.48211061954498291 -0.307116717100143433 -0.303780168294906616
0.479690015316009521 -0.326504915952682495 0.125375688076019287
0.52320098876953125 -0.307172775268554688 -0.0987737923860549927
0.490459144115447998 -0.310882568359375 -0.307541966438293457
0.516184091567993164 -0.325227290391921997 0.119836896657943726
0.44465753436088562 -0.300313264131546021 -0.290757656097412109
0.523216784000396729 -0.304724723100662231 -0.0974359363317489624
0.134132176637649536 0.116111263632774353 0.337186634540557861
-0.642569541931152344 0.242547214031219482 -0.00963810738176107407
-0.292545288801193237 -0.113834522664546967 -0.105702236294746399
0.539159297943115234 -0.2557048499584198 0.0921879038214683533
0.129006728529930115 0.0973268449306488037 0.317459315061569214
-0.235137030482292175 -0.143501833081245422 -0.0713429674506187439
0.25239899754524231 0.0297862738370895386 -0.0859548225998878479
0.53093421459197998 -0.323327898979187012 0.00678639160469174385
-0.599586188793182373 0.307262897491455078 0.104351475834846497
0.532016754150390625 -0.244882866740226746 0.0865387395024299622
-0.374108284711837769 -0.0608341433107852936 0.0923199951648712158
0.526559770107269287 -0.27549251914024353 -0.123319163918495178
-0.501309990882873535 0.148668736219406128 0.353055894374847412
0.385196655988693237 -0.297843486070632935 0.131846681237220764
0.132915139198303223 -0.332038849592208862 -0.100443281233310699
0.522756278514862061 -0.355039268732070923 -0.0149888042360544205
-0.436581462621688843 0.150443956255912781 -0.0850959271192550659
0.515725195407867432 -0.30031093955039978 0.0646844580769538879
0.39323657751083374 -0.368003219366073608 -0.213782966136932373
0.50043100118637085 -0.171728268265724182 0.130048021674156189
0.533201515674591064 -0.334195613861083984 0.0283495616167783737
-0.580156147480010986 0.348760992288589478 0.0401359759271144867
0.520012259483337402 -0.241059437394142151 -0.308827996253967285
-0.601280748844146729 0.370535343885421753 0.104510858654975891
-0.500810146331787109 0.147040486335754395 0.355261564254760742
0.23405793309211731 -0.278009116649627686 0.317459136247634888
-0.181260779500007629 -0.13703685998916626 -0.0556097216904163361
-0.2283039391040802 -0.137972086668014526 -0.0535079911351203918
-0.204555049538612366 0.298206418752670288 0.126758784055709839
0.262607485055923462 -0.289824753999710083 0.323747366666793823
-0.362349390983581543 -0.0305592138320207596 0.119553111493587494
-0.500214993953704834 0.0194107331335544586 0.0317739658057689667
0.242803186178207397 -0.000160716212121769786 0.322361767292022705
0.141468986868858337 -0.290534764528274536 0.311819195747375488
0.308126330375671387 -0.207766294479370117 0.248241692781448364
-0.386333853006362915 0.254746288061141968 0.0343097895383834839
0.531038045883178711 -0.26249346137046814 0.102917678654193878
0.224003791809082031 0.022479737177491188 0.305521756410598755
0.53058391809463501 -0.147561162710189819 -0.308356791734695435
-0.645063877105712891 0.231338292360305786 -0.047690168023109436
0.541243433952331543 -0.311120778322219849 -0.0445045419037342072
0.507867097854614258 -0.267871677875518799 -0.311610579490661621
0.514356911182403564 -0.31621241569519043 -0.295205175876617432
0.458941906690597534 -0.290995210409164429 -0.296692788600921631
-0.54325258731842041 0.268106400966644287 -0.189532488584518433
-0.621677041053771973 0.288913428783416748 0.0665024816989898682
0.363625198602676392 -0.384324550628662109 -0.206194743514060974
-0.0927765518426895142 0.267058819532394409 0.189415797591209412
-0.4485301673412323 0.131292909383773804 -0.208923235535621643
-0.575604379177093506 0.203765392303466797 -0.127284392714500427
-0.630260050296783447 0.191698744893074036 -0.0401098914444446564
-0.469832390546798706 0.138946697115898132 -0.231247171759605408
0.257654279470443726 -0.0172814000397920609 -0.0721462517976760864
0.2304496169090271 0.0536315590143203735 -0.045208469033241272
0.112952642142772675 0.109531007707118988 0.301725298166275024
-0.584234654903411865 0.218394219875335693 -0.22167050838470459
-0.598425090312957764 0.235205888748168945 -0.0109658092260360718
-0.367057353258132935 -0.0916851982474327087 0.122806437313556671
-0.330017417669296265 -0.125304475426673889 0.137276589870452881
-0.634793698787689209 0.199615880846977234 -0.038527805358171463
-0.42576366662979126 -0.054867476224899292 0.0991703793406486511
-0.478172034025192261 0.0201748181134462357 -0.0366860590875148773
0.208605989813804626 0.00835962872952222824 0.300904244184494019
-0.634401798248291016 0.248072370886802673 -0.00620685191825032234
-0.128328189253807068 0.269729316234588623 0.132263302803039551
0.271156907081604004 -0.330395549535751343 0.180123999714851379
0.53299248218536377 -0.210282817482948303 -0.0989352315664291382
-0.126408621668815613 -0.11264260858297348 -0.0548349879682064056
0.454261898994445801 -0.338949412107467651 -0.298217862844467163
-0.212654381990432739 0.0362008139491081238 -0.0597351938486099243
-0.55339580774307251 0.175767600536346436 0.0126225585117936134
-0.198674812912940979 0.139547586441040039 0.0211089253425598145
-0.0124924806877970695 -0.102563522756099701 -0.0429935380816459656
0.264816433191299438 -0.275036513805389404 0.202478334307670593
0.348763197660446167 -0.321202695369720459 -8.15906605566851795e-05
-0.156038448214530945 0.0697173774242401123 0.0274977460503578186
-0.249330982565879822 0.130740359425544739 -0.0344885699450969696
0.199076786637306213 0.00147427956108003855 0.019040379673242569
0.0762531831860542297 0.0806987583637237549 0.0239133629947900772
-0.283684432506561279 0.2881946861743927 -0.00596617721021175385
0.477008193731307983 -0.289883017539978027 -0.301856547594070435
-0.557111978530883789 0.265743076801300049 -0.0174393262714147568
-0.237495973706245422 0.097593255341053009 -0.0325046740472316742
0.137961417436599731 -0.280905663967132568 0.150094836950302124
0.296454876661300659 -0.297482520341873169 0.0568980835378170013
-0.286265015602111816 0.257186681032180786 0.000507600256241858006
-0.0210797563195228577 -0.0404505059123039246 0.0889831706881523132
0.204401835799217224 0.042552553117275238 0.0656806677579879761
-0.14372524619102478 -0.0851988345384597778 0.0917076319456100464
0.372452110052108765 -0.0735766738653182983 0.0315007157623767853
0.521299242973327637 -0.199227139353752136 -0.0986266881227493286
0.487144529819488525 -0.297878891229629517 -0.305514007806777954
0.480407834053039551 -0.314970314502716064 0.122271746397018433
0.513587415218353271 -0.307284414768218994 -0.102523364126682281
0.496063113212585449 -0.309505105018615723 -0.309883564710617065
0.506136953830718994 -0.327934592962265015 -0.0042171841487288475
0.511688411235809326 -0.324663907289505005 0.118300266563892365
0.465944141149520874 -0.288785696029663086 -0.296709597110748291
0.438030421733856201 -0.263508021831512451 -0.19441629946231842
0.134938731789588928 0.116758204996585846 0.337102323770523071
0.396537184715270996 -0.244490295648574829 0.318782925605773926
-0.601936280727386475 0.354302555322647095 0.0653786137700080872
-0.505549073219299316 0.357167690992355347 0.178246006369590759
0.542539656162261963 -0.282646805047988892 0.0978580787777900696
0.256329238414764404 0.0367412380874156952 -0.0721527040004730225
-0.233365908265113831 0.15592193603515625 -0.00533268321305513382
0.506128430366516113 -0.332100927829742432 -0.00264006550423800945
0.444834023714065552 -0.250090450048446655 -0.228145301342010498
-0.639426946640014648 0.254551172256469727 0.0543805882334709167
0.532516181468963623 -0.262826681137084961 0.0931740477681159973
-0.393295258283615112 -0.0592022687196731567 0.100373126566410065
0.523870527744293213 -0.28975522518157959 -0.0922156423330307007
0.0281038954854011536 -0.274131566286087036 -0.0353459492325782776
0.385166466236114502 -0.306174516677856445 0.118767701089382172
-0.582637965679168701 0.366837143898010254 0.13159431517124176
0.240082830190658569 0.00275960261933505535 0.181124061346054077
-0.113256879150867462 0.165414005517959595 0.34759974479675293
0.482186168432235718 -0.368458658456802368 -0.0221714954823255539
0.412305921316146851 -0.321219503879547119 -0.21116173267364502
0.507141351699829102 -0.155695438385009766 0.123960830271244049
0.528759956359863281 -0.334827125072479248 0.0127178067341446877
-0.584550440311431885 0.336445420980453491 0.0339553356170654297
-0.591217041015625 0.381936550140380859 0.131149202585220337
0.526301562786102295 -0.244416162371635437 -0.31080394983291626
0.474480211734771729 -0.29080536961555481 -0.299608141183853149
-0.59767448902130127 0.353720039129257202 0.169560939073562622
-0.587807595729827881 0.37147599458694458 0.100975781679153442
-0.21211811900138855 -0.129493817687034607 -0.0577339157462120056
0.234393090009689331 -0.29309546947479248 0.315027981996536255
0.237860962748527527 0.0669655352830886841 0.320113003253936768
0.54180300235748291 -0.313955724239349365 -0.0582292564213275909
-0.444917440414428711 -0.0483234450221061707 0.127007022500038147
0.359664767980575562 -0.388397723436355591 -0.20914006233215332
-0.556888461112976074 0.211220219731330872 -0.113843515515327454
0.520797073841094971 -0.279645293951034546 -0.17724984884262085
0.241747036576271057 0.0346127972006797791 0.314588338136672974
0.242633670568466187 0.000313041498884558678 0.0236068777740001678
0.380479514598846436 0.0387044176459312439 0.0118134506046772003
0.526768624782562256 -0.230718135833740234 -0.310310155153274536
0.326772958040237427 0.0960619673132896423 -0.0359937176108360291
-0.374374330043792725 -0.0601743534207344055 -0.133003532886505127
0.512769758701324463 -0.167692974209785461 0.135857641696929932
-0.5749245285987854 0.322044998407363892 0.049334108829498291
-0.559406101703643799 0.283446013927459717 0.364086836576461792
0.224310919642448425 0.0318507663905620575 -0.0582647249102592468
-0.57461923360824585 0.214708805084228516 -0.221301078796386719
-0.0445914939045906067 0.156509682536125183 0.0811934247612953186
0.113856032490730286 0.109957292675971985 0.0254168286919593811
0.342778980731964111 -0.247055768966674805 -0.0969678908586502075
-0.285474300384521484 0.30040314793586731 -0.00286457897163927555
0.15319080650806427 -0.00446452945470809937 -0.00361835910007357597
0.0687798932194709778 0.13874480128288269 0.0756487026810646057
-0.270457059144973755 0.280151486396789551 0.00166511617135256529
0.503349959850311279 -0.292695909738540649 -0.15948505699634552
0.136871516704559326 -0.0258823037147521973 0.0130744539201259613
-0.339232206344604492 -0.0319386906921863556 0.0227367207407951355
0.373274147510528564 -0.0919685959815979004 0.0442196615040302277
0.199705019593238831 0.101128518581390381 -0.00186132988892495632
-0.297465384006500244 -0.0249866247177124023 0.0358882099390029907
0.131682708859443665 -0.0178690571337938309 -0.0261441320180892944
0.101241618394851685 0.0159605927765369415 0.0912118703126907349
0.175418645143508911 0.119253441691398621 0.0380021370947360992
-0.230666041374206543 -0.0636323690414428711 0.104645252227783203
0.486129045486450195 -0.296742916107177734 -0.303742080926895142
-0.60362541675567627 0.289541333913803101 0.185015290975570679
0.467135757207870483 -0.308851361274719238 0.12002960592508316
0.378099739551544189 -0.0145982773974537849 0.00628290046006441116
0.514331936836242676 -0.295421212911605835 -0.10361422598361969
0.518845617771148682 -0.239808201789855957 -0.307809442281723022
0.477971851825714111 -0.309806913137435913 -0.300495952367782593
0.483428597450256348 -0.274600178003311157 -0.300121933221817017
0.116987228393554688 0.118654012680053711 0.297668695449829102
-0.584642708301544189 0.356363832950592041 0.0656047984957695007
0.383727103471755981 -0.337448567152023315 0.125459924340248108
-0.574874937534332275 0.317715555429458618 -0.0267869438976049423
-0.604789018630981445 0.217191249132156372 -0.0871594548225402832
0.267603635787963867 0.0391377992928028107 -0.086354084312915802
-0.356567174196243286 -0.022106509655714035 -0.131288811564445496
-0.564690768718719482 0.314342200756072998 -0.0081356782466173172
0.190755218267440796 -0.340834259986877441 -0.074843183159828186
0.404252558946609497 -0.357697516679763794 -0.224222466349601746
-0.500558435916900635 0.145624935626983643 0.354605138301849365
0.509439647197723389 -0.151656225323677063 0.114930205047130585
0.496877193450927734 -0.264007806777954102 -0.304603874683380127
0.458027392625808716 -0.280961543321609497 -0.289954572916030884
0.440989971160888672 -0.265043795108795166 -0.283903211355209351
-0.588458001613616943 0.357469052076339722 0.0615156330168247223
0.505031049251556396 -0.126983493566513062 0.124352462589740753
-0.206663757562637329 0.312368601560592651 0.108735829591751099
0.268192470073699951 -0.284144014120101929 0.319203615188598633
0.232400998473167419 0.00338128232397139072 0.317888647317886353
0.51323091983795166 -0.175778090953826904 -0.281963258981704712
-0.115371532738208771 0.00985632557421922684 0.00582977524027228355
0.403985291719436646 -0.359725832939147949 -0.224846318364143372
0.417582511901855469 -0.313400149345397949 0.143719941377639771
-0.555966794490814209 0.376478433609008789 0.186641737818717957
-0.176086187362670898 0.30903249979019165 0.118422754108905792
-0.390078276395797729 0.275993973016738892 -0.0851827561855316162
0.365030914545059204 0.0516392439603805542 0.0245272442698478699
0.128962963819503784 0.115548521280288696 0.318898111581802368
-0.286571383476257324 -0.100515902042388916 -0.0921217799186706543
0.257918357849121094 0.10074731707572937 -0.0621136948466300964
-0.361380100250244141 -0.0597335062921047211 -0.144262492656707764
0.13392069935798645 0.113510355353355408 0.337845951318740845
-0.563377261161804199 0.199366584420204163 -0.229275017976760864
-0.276797115802764893 0.287920206785202026 -0.000962438527494668961
0.454931765794754028 -0.246539175510406494 -0.288493067026138306
0.460287928581237793 -0.275493890047073364 -0.291021764278411865
-0.63528209924697876 0.308174371719360352 0.170202016830444336
0.512446105480194092 -0.317593991756439209 -0.0386952981352806091
0.468985110521316528 -0.265892326831817627 -0.298151940107345581
0.478205323219299316 -0.295104771852493286 -0.300433695316314697
0.458187311887741089 -0.246322646737098694 -0.29006543755531311
0.381231039762496948 -0.361059248447418213 -0.214028730988502502
-0.479673892259597778 -0.0124992989003658295 0.185765787959098816
-0.516923844814300537 0.365743160247802734 0.173938199877738953
-0.618865966796875 0.202089816331863403 -0.0874272584915161133
-0.237438932061195374 0.01881437748670578 -0.0726380199193954468
-0.382743299007415771 -0.058977905660867691 0.0236053410917520523
0.474859356880187988 -0.368459880352020264 0.0217121187597513199
-0.649631619453430176 0.236800253391265869 0.0319982469081878662
0.412669539451599121 -0.346799492835998535 -0.221818447113037109
0.525996088981628418 -0.337276458740234375 0.079988524317741394
0.506049692630767822 -0.239110171794891357 -0.30826917290687561
0.2495526522397995 -0.282319903373718262 0.318264126777648926
0.239014625549316406 0.0663949176669120789 0.314656823873519897
0.53952634334564209 -0.301947295665740967 -0.0937942638993263245
-0.448077619075775146 -0.0413286611437797546 0.126437336206436157
-0.0440432541072368622 0.104378581047058105 0.317853212356567383
0.247813761234283447 0.02085830457508564 0.32221636176109314
-0.284895449876785278 -0.0996483266353607178 -0.0991422981023788452
-0.137857705354690552 -0.0151167409494519234 -0.0488930456340312958
-0.278283536434173584 0.337781369686126709 0.0469445548951625824
-0.25508040189743042 0.289824515581130981 -0.00329682836309075356
-0.219321057200431824 0.321792930364608765 0.0698149725794792175
-0.573550224304199219 0.152316823601722717 -0.0747207552194595337
-0.290326714515686035 0.292631566524505615 0.0159803945571184158
0.525570869445800781 -0.320787638425827026 0.0270859450101852417
0.346001714468002319 -0.0306666549295186996 -0.0345733687281608582
0.522191762924194336 -0.363032251596450806 0.0893235728144645691
-0.0833593159914016724 -0.111853212118148804 0.0784461349248886108
-0.404393494129180908 0.32599303126335144 0.121153764426708221
0.504741191864013672 -0.367184698581695557 -0.00459247268736362457
-0.119107961654663086 0.265979230403900146 0.120946586132049561
0.518677830696105957 -0.343076109886169434 0.0357559286057949066
0.130333036184310913 -0.334675461053848267 0.301286518573760986
0.466591089963912964 -0.311189085245132446 0.072393760085105896
0.482849299907684326 -0.374118626117706299 0.0522437728941440582
0.420914888381958008 -0.0262519568204879761 0.0647864788770675659
0.494144588708877563 -0.363644599914550781 -0.0156430322676897049
-0.233352109789848328 0.287066400051116943 0.084107130765914917
0.531174659729003906 -0.331876397132873535 -0.00732788955792784691
-0.272359967231750488 0.315315783023834229 0.113939389586448669
0.308090329170227051 0.00240434892475605011 0.0462333634495735168
0.467466443777084351 -0.263501644134521484 -0.296222567558288574
0.473775029182434082 -0.304474711418151855 0.114181183278560638
0.511163294315338135 -0.313746094703674316 -0.104513384401798248
0.509198129177093506 -0.245456010103225708 -0.308588534593582153
0.448014408349990845 -0.29258766770362854 -0.292910784482955933
0.466444313526153564 -0.283356964588165283 -0.297433018684387207
0.138152718544006348 0.112627565860748291 0.336785256862640381
-0.652528882026672363 0.285761862993240356 0.0977890267968177795
-0.638647496700286865 0.244882300496101379 -0.0384431928396224976
0.136173129081726074 0.0691204294562339783 0.337905585765838623
-0.577456891536712646 0.303843498229980469 -0.055791955441236496
0.262383103370666504 0.0303184688091278076 -0.0735591650009155273
0.541828393936157227 -0.216896370053291321 0.111507810652256012
-0.360190391540527344 -0.0357378125190734863 -0.13446865975856781
-0.575118005275726318 0.327520132064819336 -0.0297955647110939026
-0.361896246671676636 -0.0709041580557823181 -0.0341088883578777313
-0.130548492074012756 -0.26755860447883606 0.119056344032287598
0.495112180709838867 -0.365942448377609253 -0.000476305023767054081
0.373923361301422119 -0.359456419944763184 -0.210192263126373291
-0.378521978855133057 -0.106865108013153076 0.101223737001419067
-0.0670633837580680847 -0.264032572507858276 0.296512097120285034
0.519870579242706299 -0.243409246206283569 -0.309609204530715942
0.509415864944458008 -0.330687820911407471 0.0151763483881950378
-0.593783855438232422 0.369012296199798584 0.120401531457901001
-0.655661106109619141 0.175752311944961548 -0.103290870785713196
-0.223057493567466736 -0.144119620323181152 -0.0538126304745674133
-0.191664338111877441 0.316546231508255005 0.100689932703971863
0.256654471158981323 -0.283612817525863647 0.319696813821792603
0.239015728235244751 0.0320449918508529663 0.319125860929489136
-0.120205678045749664 -0.0461435616016387939 0.00722996797412633896
-0.641960024833679199 0.308691561222076416 0.101668410003185272
0.36481824517250061 -0.37399718165397644 -0.2071075439453125
0.537618160247802734 -0.217924028635025024 0.16180594265460968
-0.553180456161499023 0.382479935884475708 0.157828286290168762
-0.12288348376750946 0.259198158979415894 0.115076698362827301
0.119218632578849792 0.102296747267246246 0.0894078761339187622
-0.375739544630050659 0.265837013721466064 -0.0897154957056045532
0.516822695732116699 -0.349188119173049927 0.0986948460340499878
-0.293581545352935791 -0.107115432620048523 -0.109415173530578613
0.274825245141983032 0.102795273065567017 -0.0577558241784572601
-0.575359165668487549 0.219615176320075989 -0.212894350290298462
-0.115931332111358643 0.268478989601135254 0.17978726327419281
0.236015394330024719 -0.288083493709564209 0.314387112855911255
0.310106515884399414 -0.18750666081905365 0.241001099348068237
0.541700005531311035 -0.325959712266921997 -0.0210281256586313248
0.0790229365229606628 -0.337751865386962891 0.28223690390586853
-0.00640440406277775764 -0.171893998980522156 0.00418926123529672623
-0.28259354829788208 0.26168861985206604 0.00694915000349283218
0.513126373291015625 -0.237181827425956726 -0.309604465961456299
-0.647310554981231689 0.278320342302322388 0.0793281272053718567
-0.646600008010864258 0.183260321617126465 -0.0911349654197692871
0.514043211936950684 -0.322650790214538574 0.0241906270384788513
-0.407111138105392456 -0.0635939761996269226 0.11341559886932373
0.516787290573120117 -0.355822145938873291 -0.0207365341484546661
-0.566990673542022705 0.374357670545578003 0.152325794100761414
0.235761642456054688 0.0428563207387924194 0.313674092292785645
-0.665145397186279297 0.227202564477920532 0.0228758174926042557
-0.448287844657897949 -0.0384316407144069672 0.126946195960044861
0.503000020980834961 -0.30237114429473877 -0.179019182920455933
-0.589526236057281494 0.361075162887573242 0.0858886763453483582
-0.194504573941230774 0.314820915460586548 0.104808710515499115
0.246795818209648132 0.023762023076415062 0.323810786008834839
0.530866742134094238 -0.323917776346206665 -0.0581999309360980988
-0.183250308036804199 0.306919783353805542 0.128431960940361023
0.247056007385253906 0.00683949701488018036 0.323941737413406372
0.0584435202181339264 0.139530539512634277 0.345747143030166626
-0.505984723567962646 0.149426087737083435 0.356805026531219482
0.27071794867515564 -0.311351478099822998 0.326240330934524536
-0.253877490758895874 0.0235548261553049088 -0.0708525627851486206
0.241065844893455505 -0.295393943786621094 0.322490394115447998
0.248809754848480225 0.0436383485794067383 0.314399570226669312
0.468234032392501831 -0.102148726582527161 0.0345149226486682892
-0.125080585479736328 0.195012867450714111 0.115345284342765808
0.239968359470367432 -0.326699197292327881 0.317942231893539429
0.500196933746337891 -0.366725146770477295 0.0745599567890167236
0.523367345333099365 -0.324853777885437012 0.0261087380349636078
0.44454425573348999 -0.253438979387283325 0.332336395978927612
0.32149195671081543 -0.131572902202606201 -0.106789857149124146
0.0632647201418876648 -0.0108680510893464088 0.321692913770675659
0.511246442794799805 -0.36102256178855896 0.047412920743227005
0.135642081499099731 -0.100803747773170471 0.0404519215226173401
0.0494218096137046814 0.0114318663254380226 0.029620785266160965
0.020643819123506546 0.0481184795498847961 0.0424871034920215607
0.0880631431937217712 -0.0661868825554847717 0.289626061916351318
-0.162099108099937439 -0.26563611626625061 0.147954598069190979
0.264832019805908203 -0.0203446969389915466 0.0614524334669113159
-0.0290062185376882553 -0.029113156720995903 0.2955455482006073
0.502203166484832764 -0.240427911281585693 -0.302186578512191772
0.476011872291564941 -0.315038025379180908 -0.302131086587905884
-0.631261885166168213 0.306323766708374023 0.167186826467514038
0.475421935319900513 -0.320983856916427612 0.120945408940315247
0.509071588516235352 -0.300975322723388672 -0.10567416250705719
0.528244853019714355 -0.274993032217025757 -0.317371010780334473
0.493619143962860107 -0.332501471042633057 -0.310887515544891357
0.503450274467468262 -0.32029995322227478 0.0979325175285339355
0.474257826805114746 -0.305874735116958618 -0.298282861709594727
-0.55963432788848877 0.268100112676620483 0.364414215087890625
0.124825648963451385 0.11668039858341217 0.314199298620223999
-0.63389122486114502 0.282287448644638062 0.0540627092123031616
-0.587718844413757324 0.362827718257904053 0.102232493460178375
0.371655434370040894 -0.37415015697479248 -0.21288686990737915
0.438447326421737671 -0.348151087760925293 0.154280543327331543
0.0579404868185520172 0.121156945824623108 0.3211192786693573
-0.574933946132659912 0.368832796812057495 0.215399175882339478
0.264637798070907593 0.0244248956441879272 -0.0587596781551837921
0.368819773197174072 -0.336962372064590454 0.160568088293075562
0.510515511035919189 -0.30169329047203064 -0.112124435603618622
0.133801043033599854 -0.320664674043655396 -0.0978619903326034546
0.516563236713409424 -0.348948925733566284 -0.0203920807689428329
0.389428108930587769 -0.346884548664093018 -0.21424315869808197
-0.577344954013824463 0.319108694791793823 0.0405860505998134613
0.536057472229003906 -0.27796211838722229 -0.320776045322418213
0.467973649501800537 -0.311008930206298828 -0.299418896436691284
0.507178604602813721 -0.347295582294464111 0.0178381744772195816
-0.55625075101852417 0.309740960597991943 0.102082520723342896
0.194058135151863098 -0.339457869529724121 -0.05925026535987854
0.0702787488698959351 -0.282291144132614136 -0.0779748037457466125
0.252514451742172241 -0.250479668378829956 0.320160448551177979
0.239810541272163391 0.0306870639324188232 0.316903293132781982
-0.12106584757566452 -0.0479414127767086029 0.00808477029204368591
0.178795978426933289 -0.100368611514568329 -0.0148743530735373497
0.532437503337860107 -0.332481592893600464 -0.0132683273404836655
0.370509922504425049 -0.349606156349182129 -0.209019452333450317
0.534888625144958496 -0.246079012751579285 0.177223116159439087
0.561182916164398193 -0.315908491611480713 -0.331113368272781372
0.554433882236480713 -0.211965218186378479 0.133865594863891602
-0.543643176555633545 0.380778074264526367 0.164375096559524536
0.12270025908946991 0.116953760385513306 0.133095607161521912
-0.582593917846679688 0.351948022842407227 0.0976264327764511108
-0.481791853904724121 0.185953646898269653 -0.0917009487748146057
0.515618741512298584 -0.33937487006187439 0.0387503542006015778
0.253534466028213501 -0.279388517141342163 0.321982234716415405
0.278697878122329712 -0.356089502573013306 -0.1261616051197052
0.507988154888153076 -0.286773920059204102 -0.313842862844467163
-0.432257413864135742 -0.0572685226798057556 0.116630196571350098
0.201816841959953308 0.0902282297611236572 0.22335699200630188
0.244170844554901123 0.10430193692445755 -0.0573186390101909637
-0.195909515023231506 0.201404154300689697 0.349331945180892944
0.250375926494598389 0.0246481243520975113 0.323334306478500366
0.239741697907447815 0.018743785098195076 0.321027934551239014
-0.0315876863896846771 0.162528276443481445 0.382692039012908936
-0.482662796974182129 -0.0157092418521642685 0.180115118622779846
0.483847290277481079 -0.369287371635437012 0.0459966622292995453
-0.643838465213775635 0.287131845951080322 0.0860460773110389709
0.276050180196762085 -0.166031390428543091 -0.0705713406205177307
-0.411912232637405396 -0.0569440200924873352 0.0788404643535614014
-0.643253564834594727 0.175724193453788757 -0.0822109505534172058
-0.225903511047363281 -0.134018406271934509 -0.0522731207311153412
0.2550315260887146 -0.265807002782821655 0.321143001317977905
-0.345406174659729004 0.0172277968376874924 -0.117014624178409576
-0.287103235721588135 -0.091634698212146759 -0.10657549649477005
-0.585253357887268066 0.209831550717353821 -0.218205377459526062
0.267697304487228394 -0.297257095575332642 0.3152180016040802
-0.0254863593727350235 -0.187414646148681641 -0.0435188561677932739
-0.618365943431854248 0.276926100254058838 0.031235693022608757
-0.609166383743286133 0.298235446214675903 0.0923343673348426819
-0.39765283465385437 -0.0629492849111557007 0.118841521441936493
-0.451824605464935303 -0.0382600352168083191 0.119425579905509949
0.431137353181838989 -0.272060990333557129 0.32921174168586731
-0.0526192821562290192 0.140582531690597534 0.091690942645072937
-0.50325167179107666 0.151049226522445679 0.355421334505081177
0.240926921367645264 -0.31952705979347229 0.32284080982208252
0.497215360403060913 -0.371109575033187866 0.0573169626295566559
0.39934152364730835 -0.257184594869613647 0.322486609220504761
-0.158251374959945679 -0.263625413179397583 0.181600838899612427
-0.499344289302825928 0.01393931545317173 0.158021330833435059
0.417634904384613037 -0.297677367925643921 0.328761190176010132
0.535364329814910889 -0.340468615293502808 -0.0185007471591234207
0.344454675912857056 -0.267647624015808105 -0.127929195761680603
-0.496683001518249512 0.0718872174620628357 0.20393487811088562
0.443673908710479736 -0.272506028413772583 0.333440124988555908
0.52209395170211792 -0.33568882942199707 0.0327514521777629852
0.453546494245529175 -0.32014167308807373 -0.293158471584320068
0.474299162626266479 -0.31199955940246582 0.116684079170227051
0.51735764741897583 -0.278664231300354004 -0.312954217195510864
0.502821505069732666 -0.326186507940292358 -0.314453959465026855
0.518166005611419678 -0.32742232084274292 0.101894907653331757
0.479486197233200073 -0.311674505472183228 -0.302301526069641113
0.114417865872383118 0.118284076452255249 0.289057224988937378
-0.122240923345088959 0.268422961235046387 0.158794954419136047
-0.615116596221923828 0.265398293733596802 0.0519471094012260437
-0.479566752910614014 0.00295027950778603554 0.18129342794418335
0.426792383193969727 -0.35533982515335083 0.158562749624252319
-0.292276769876480103 -0.110698424279689789 -0.105838127434253693
0.130421996116638184 0.0651987046003341675 0.32126888632774353
0.253704369068145752 0.0383509285748004913 -0.0778740644454956055
0.235405132174491882 0.0935305878520011902 -0.0531408451497554779
0.417848080396652222 -0.261826783418655396 -0.202444881200790405
0.521772801876068115 -0.354946285486221313 -0.0195188876241445541
-0.609237551689147949 0.381014853715896606 0.181142240762710571
0.517709314823150635 -0.279564231634140015 -0.314877122640609741
0.499206632375717163 -0.350306540727615356 0.0240321885794401169
-0.588205456733703613 0.369199812412261963 0.112921975553035736
0.50590813159942627 -0.105113863945007324 0.147259533405303955
-0.198361620306968689 0.311356246471405029 0.112929180264472961
0.264143139123916626 -0.286846786737442017 0.319808125495910645
0.236815974116325378 0.0617925077676773071 0.31056705117225647
-0.144512221217155457 -0.0436747148633003235 0.00414940575137734413
-0.658028304576873779 0.214619040489196777 -0.0463617593050003052
-0.288597077131271362 -0.0761002674698829651 -0.0686787888407707214
0.227209120988845825 0.0418272390961647034 -0.048216555267572403
0.551474452018737793 -0.144864216446876526 0.132009387016296387
0.519801735877990723 -0.295695304870605469 0.0748618394136428833
0.517691671848297119 -0.284349054098129272 -0.181282296776771545
-0.358148813247680664 -0.0172398611903190613 -0.0280242543667554855
0.0913476273417472839 0.087877810001373291 0.085764370858669281
0.466766476631164551 -0.362198352813720703 -0.0107266791164875031
-0.433119803667068481 0.157605215907096863 -0.0665913820266723633
0.52384793758392334 -0.335963577032089233 0.0688616484403610229
0.263003081083297729 -0.286215752363204956 0.318531334400177002
0.00940560083836317062 -0.0912122055888175964 -0.0261668507009744644
0.0326041802763938904 -0.13061852753162384 0.0218366160988807678
-0.631021499633789062 0.264916747808456421 0.0288950502872467041
0.242009386420249939 0.0739602893590927124 0.318835407495498657
0.240119814872741699 0.0292122438549995422 0.318916589021682739
-0.17515350878238678 0.300628989934921265 0.116308808326721191
0.30465051531791687 -0.151649340987205505 0.307811558246612549
0.262039363384246826 -0.291013866662979126 0.321017652750015259
-0.476372629404067993 -0.00831120461225509644 0.166166335344314575
0.242636054754257202 0.081396147608757019 0.312193602323532104
0.520275533199310303 -0.351614534854888916 0.0818988457322120667
-0.0348246358335018158 -0.237787649035453796 0.124093413352966309
-0.63865506649017334 0.289910405874252319 0.0986804291605949402
-0.234219744801521301 -0.132988691329956055 -0.0580603703856468201
-0.379367679357528687 -0.108945675194263458 0.105492144823074341
-0.236422628164291382 -0.148004338145256042 -0.0579058900475502014
-0.658244788646697998 0.214311718940734863 -0.0340644754469394684
0.528909802436828613 -0.352945804595947266 0.0778394266963005066
-0.621475636959075928 0.270175248384475708 0.052341703325510025
-0.404272735118865967 -0.0644907429814338684 0.112010672688484192
-0.446481138467788696 -0.0416476130485534668 0.121933616697788239
0.268104195594787598 -0.285909801721572876 0.323491871356964111
0.127750009298324585 -0.32683447003364563 0.31262168288230896
0.152409806847572327 -0.343324452638626099 0.317893773317337036
0.447883784770965576 -0.335898071527481079 -0.293132573366165161
0.515814244747161865 -0.303271830081939697 -0.108044259250164032
0.515332162380218506 -0.280535668134689331 -0.312972575426101685
0.485000014305114746 -0.327953070402145386 -0.309934496879577637
0.464494794607162476 -0.346160084009170532 -0.302808940410614014
0.549647510051727295 -0.210516035556793213 -0.316125959157943726
0.524200022220611572 -0.300317317247390747 -0.322626620531082153
0.518069148063659668 -0.301128983497619629 -0.318521827459335327
0.246742993593215942 0.0566800609230995178 0.316427052021026611
0.241200000047683716 0.0871496275067329407 0.312761574983596802
-0.291725248098373413 -0.100708626210689545 -0.101962126791477203
-0.453733265399932861 -0.0521242953836917877 0.117023959755897522
0.404815584421157837 -0.272600680589675903 0.32253149151802063
-0.502602100372314453 0.00363899208605289459 0.189074069261550903
0.401115089654922485 -0.287572562694549561 0.324848264455795288
0.399259001016616821 -0.273894935846328735 0.323327213525772095
0.342304795980453491 -0.259287536144256592 0.0900752246379852295
-0.0187212731689214706 -0.244584858417510986 0.128667145967483521
