ply
format ascii 1.0
element vertex 738
property float x
property float y
property float z
end_header
-0.559719979763031006 0.283844649791717529 0.364025592803955078
0.22353285551071167 0.0322584398090839386 -0.0585212931036949158
-0.575186610221862793 0.214925393462181091 -0.221276909112930298
-0.0451496057212352753 0.15701352059841156 0.080955207347869873
0.113216951489448547 0.110440723598003387 0.0251451507210731506
0.341774165630340576 -0.246763214468955994 -0.097131974995136261
-0.285932034254074097 0.300831645727157593 -0.00302472780458629131
0.152374103665351868 -0.00401159096509218216 -0.00385930296033620834
0.0682025626301765442 0.139253273606300354 0.0753745958209037781
-0.270927459001541138 0.280585885047912598 0.00149885984137654305
0.502459168434143066 -0.292455524206161499 -0.159593507647514343
0.136033162474632263 -0.0254237223416566849 0.0128417406231164932
-0.339961141347885132 -0.0315733887255191803 0.0226750243455171585
0.37248268723487854 -0.0915736481547355652 0.0439663492143154144
0.19905446469783783 0.101596280932426453 -0.00216406490653753281
-0.298204213380813599 -0.0246018208563327789 0.0357981473207473755
0.130831941962242126 -0.017428932711482048 -0.0263669993728399277
0.100483909249305725 0.016481621190905571 0.0909530892968177795
0.174816027283668518 0.119726777076721191 0.0377039127051830292
-0.231443434953689575 -0.0632258802652359009 0.104512371122837067
0.485186159610748291 -0.296574532985687256 -0.303797245025634766
-0.603922784328460693 0.289882391691207886 0.185019105672836304
0.46628868579864502 -0.308486998081207275 0.119819782674312592
0.377367228269577026 -0.0142169520258903503 0.00602333014830946922
0.51347041130065918 -0.295157402753829956 -0.103739671409130096
0.517974734306335449 -0.239635869860649109 -0.307877242565155029
0.477013379335403442 -0.309637486934661865 -0.300550103187561035
0.482493996620178223 -0.274428963661193848 -0.300185173749923706
0.116395749151706696 0.119226083159446716 0.297355592250823975
-0.584946751594543457 0.356679439544677734 0.0656177997589111328
0.382777214050292969 -0.337079703807830811 0.12524789571762085
-0.575259029865264893 0.318005412817001343 -0.026772303506731987
-0.605266809463500977 0.217446789145469666 -0.0871290788054466248
0.266832023859024048 0.0395151376724243164 -0.0866121351718902588
-0.35735812783241272 -0.021803833544254303 -0.131320998072624207
-0.565062165260314941 0.31464347243309021 -0.00812178943306207657
0.189610689878463745 -0.340523123741149902 -0.0749757140874862671
0.403194189071655273 -0.357492417097091675 -0.224303692579269409
-0.50098341703414917 0.146045580506324768 0.354514807462692261
0.508748948574066162 -0.15125727653503418 0.114684686064720154
0.495966851711273193 -0.263836652040481567 -0.3046683669090271
0.457060426473617554 -0.280786097049713135 -0.290023326873779297
0.440017789602279663 -0.264862060546875 -0.283984512090682983
-0.588765144348144531 0.357781708240509033 0.0615289919078350067
0.504359006881713867 -0.126574486494064331 0.124096110463142395
-0.207039684057235718 0.312847793102264404 0.108533807098865509
0.26727786660194397 -0.283711999654769897 0.31892356276512146
0.23169255256652832 0.00391639396548271179 0.317566275596618652
0.512393772602081299 -0.175586074590682983 -0.282061457633972168
-0.116169340908527374 0.0102949598804116249 0.00566933397203683853
0.402925372123718262 -0.359521269798278809 -0.224926799535751343
0.416685014963150024 -0.313018679618835449 0.143499016761779785
-0.556188344955444336 0.376840591430664062 0.186642050743103027
-0.176456868648529053 0.309518992900848389 0.118206165730953217
-0.390590846538543701 0.276358664035797119 -0.0852590426802635193
0.364399641752243042 0.052040979266166687 0.0242349337786436081
0.128369912505149841 0.116118334233760834 0.318582326173782349
-0.287498056888580322 -0.100206620991230011 -0.0922172218561172485
0.257250070571899414 0.101140886545181274 -0.0624012984335422516
-0.362205207347869873 -0.05945543572306633 -0.144281893968582153
0.133324667811393738 0.114080704748630524 0.337529301643371582
-0.56396108865737915 0.199584349989891052 -0.22925114631652832
-0.277258694171905518 0.288358092308044434 -0.00112966145388782024
0.453986018896102905 -0.246358156204223633 -0.288576662540435791
0.459326863288879395 -0.275318443775177002 -0.291091650724411011
-0.635583102703094482 0.308495491743087769 0.170214131474494934
0.51159060001373291 -0.317303746938705444 -0.0388361886143684387
0.468040496110916138 -0.265718966722488403 -0.298221975564956665
0.477252215147018433 -0.294935643672943115 -0.300490677356719971
0.457245051860809326 -0.24614250659942627 -0.290147989988327026
0.380144655704498291 -0.360848367214202881 -0.214115962386131287
-0.480223089456558228 -0.0121270334348082542 0.185737535357475281
-0.517188847064971924 0.366134047508239746 0.173901662230491638
-0.619352102279663086 0.202338948845863342 -0.0873922333121299744
-0.238227486610412598 0.0191869549453258514 -0.0727566108107566833
-0.383474588394165039 -0.0586368180811405182 0.0235752575099468231
0.473948150873184204 -0.368150323629379272 0.0215588789433240891
-0.650031864643096924 0.237077489495277405 0.0320300683379173279
0.41162756085395813 -0.346592217683792114 -0.221902444958686829
0.525184690952301025 -0.33694535493850708 0.0798125341534614563
0.50516432523727417 -0.238938271999359131 -0.308339506387710571
0.248633027076721191 -0.281886279582977295 0.317985773086547852
0.238385424017906189 0.0669338777661323547 0.314320832490921021
0.538697123527526855 -0.301683366298675537 -0.0939161181449890137
-0.448706507682800293 -0.0409761294722557068 0.12640950083732605
-0.0446433238685131073 0.104930579662322998 0.317585647106170654
0.247130557894706726 0.0213911887258291245 0.321887671947479248
-0.285821855068206787 -0.09934224933385849 -0.0992357730865478516
-0.138705670833587646 -0.0147217512130737305 -0.0490369647741317749
-0.278682678937911987 0.338226288557052612 0.0467779375612735748
-0.255551278591156006 0.29025423526763916 -0.00347102410160005093
-0.219714537262916565 0.322254478931427002 0.0696197822690010071
-0.574066817760467529 0.152591332793235779 -0.0746910795569419861
-0.290775775909423828 0.293066710233688354 0.0158258154988288879
0.524751603603363037 -0.320472002029418945 0.0269254110753536224
0.345218569040298462 -0.0302954614162445068 -0.0348211340606212616
0.521365225315093994 -0.362703919410705566 0.0891505405306816101
-0.0842600613832473755 -0.111416809260845184 0.0782785788178443909
-0.404730468988418579 0.326429754495620728 0.121067382395267487
0.503858327865600586 -0.366887867450714111 -0.00473077967762947083
-0.119509153068065643 0.266477406024932861 0.120711810886859894
0.517840325832366943 -0.34276089072227478 0.0355975143611431122
0.12934914231300354 -0.334272712469100952 0.301030874252319336
0.465728521347045898 -0.310845375061035156 0.0722017586231231689
0.481959283351898193 -0.373800337314605713 0.0520803891122341156
0.420248478651046753 -0.0258453954011201859 0.0645096898078918457
0.493246346712112427 -0.363350540399551392 -0.0157805196940898895
-0.233764439821243286 0.287534087896347046 0.0839241594076156616
0.530343592166900635 -0.331577032804489136 -0.00747091509401798248
-0.272734314203262329 0.315788060426712036 0.113772116601467133
0.307365387678146362 0.00283236149698495865 0.0459519736468791962
0.466521978378295898 -0.26332700252532959 -0.296294510364532471
0.472937643527984619 -0.304112792015075684 0.11397271603345871
0.510286271572113037 -0.313484787940979004 -0.104633145034313202
0.508312880992889404 -0.245284751057624817 -0.308656066656112671
0.447032004594802856 -0.292413473129272461 -0.292978227138519287
0.465483158826828003 -0.283186167478561401 -0.297495990991592407
0.137556493282318115 0.113196991384029388 0.336467474699020386
-0.652834236621856689 0.286038696765899658 0.0978386774659156799
-0.639080941677093506 0.245140060782432556 -0.0384101457893848419
0.135519653558731079 0.0696861445903778076 0.337594598531723022
-0.577868044376373291 0.304121017456054688 -0.0557761900126934052
0.261605262756347656 0.030704062432050705 -0.0738165229558944702
0.541119217872619629 -0.216523215174674988 0.111287564039230347
-0.360992163419723511 -0.0354437828063964844 -0.13449530303478241
-0.575500071048736572 0.327808946371078491 -0.0297823697328567505
-0.362679839134216309 -0.0705836787819862366 -0.034139484167098999
-0.131533637642860413 -0.267205953598022461 0.118919454514980316
0.494217842817306519 -0.365642696619033813 -0.000618001562543213367
0.372831434011459351 -0.359242945909500122 -0.210282117128372192
-0.379261583089828491 -0.106520429253578186 0.101186327636241913
-0.0679843723773956299 -0.263643860816955566 0.296290963888168335
0.51899874210357666 -0.243238076567649841 -0.309675037860870361
0.508567690849304199 -0.330376923084259033 0.0150199234485626221
-0.594056010246276855 0.369339555501937866 0.120410457253456116
-0.656164824962615967 0.175976306200027466 -0.103242702782154083
-0.223984271287918091 -0.143812358379364014 -0.0539061017334461212
-0.192037761211395264 0.317023992538452148 0.100481018424034119
0.255736649036407471 -0.283180356025695801 0.319417744874954224
0.238343313336372375 0.0325812175869941711 0.318796694278717041
-0.121061868965625763 -0.0457280464470386505 0.00707878684625029564
-0.642278552055358887 0.308988720178604126 0.101694375276565552
0.363707065582275391 -0.373783409595489502 -0.207195788621902466
0.536911070346832275 -0.21752697229385376 0.16156846284866333
-0.553434014320373535 0.382842659950256348 0.15781286358833313
-0.123295873403549194 0.259694457054138184 0.114845044910907745
0.118595883250236511 0.102813027799129486 0.089122287929058075
-0.376267343759536743 0.266203492879867554 -0.0898015275597572327
0.515999376773834229 -0.34885251522064209 0.0985127836465835571
-0.294475972652435303 -0.106828697025775909 -0.109478317201137543
0.274168848991394043 0.103184714913368225 -0.0580474846065044403
-0.575918078422546387 0.21983492374420166 -0.21287122368812561
-0.116311438381671906 0.268997132778167725 0.179542645812034607
0.235087335109710693 -0.287652403116226196 0.314110517501831055
0.309245020151138306 -0.187029227614402771 0.240727677941322327
0.54087984561920166 -0.32566601037979126 -0.0211659539490938187
0.0780236348509788513 -0.337353736162185669 0.28199729323387146
-0.00741670327261090279 -0.171491876244544983 0.00403190124779939651
-0.283075302839279175 0.262120872735977173 0.00679473765194416046
0.512250065803527832 -0.23701024055480957 -0.30967363715171814
-0.647649824619293213 0.278605937957763672 0.0793632045388221741
-0.647092759609222412 0.183491989970207214 -0.0910894423723220825
0.513208508491516113 -0.322335273027420044 0.0240292530506849289
-0.407788246870040894 -0.0632398799061775208 0.113373853266239166
0.515920817852020264 -0.355530977249145508 -0.0208703745156526566
-0.567248880863189697 0.374710112810134888 0.152318656444549561
0.23510153591632843 0.0433940142393112183 0.31334349513053894
-0.665558755397796631 0.227471292018890381 0.0229103118181228638
-0.448913455009460449 -0.03807787224650383 0.126918092370033264
0.502097070217132568 -0.302140891551971436 -0.179117411375045776
-0.589811384677886963 0.361392617225646973 0.0859057009220123291
-0.194877773523330688 0.315300077199935913 0.104601018130779266
0.246115818619728088 0.0242956299334764481 0.323481768369674683
0.530022621154785156 -0.323638916015625 -0.0583283603191375732
-0.183620929718017578 0.307409077882766724 0.1282176673412323
0.246356159448623657 0.00737127801403403282 0.323616087436676025
0.0578740723431110382 0.140106260776519775 0.345449298620223999
-0.506406605243682861 0.149845272302627563 0.356716334819793701
0.269790679216384888 -0.310937851667404175 0.325961440801620483
-0.254652351140975952 0.023926611989736557 -0.0709653571248054504
0.240137413144111633 -0.29496881365776062 0.322212785482406616
0.24815484881401062 0.0441722795367240906 0.314066320657730103
0.467523038387298584 -0.101774066686630249 0.0342732071876525879
-0.125572726130485535 0.195517122745513916 0.115122094750404358
0.239020645618438721 -0.326293915510177612 0.317667752504348755
0.499337762594223022 -0.366399437189102173 0.0743888244032859802
0.522542655467987061 -0.324539065361022949 0.0259493645280599594
0.443752497434616089 -0.253001511096954346 0.332053273916244507
0.320554167032241821 -0.131253600120544434 -0.106984466314315796
0.062513306736946106 -0.0103185800835490227 0.321414411067962646
0.510394632816314697 -0.360706180334091187 0.0472536683082580566
0.134730815887451172 -0.10034971684217453 0.0402315929532051086
0.0486284755170345306 0.0119081912562251091 0.0294032767415046692
0.019907606765627861 0.0486044175922870636 0.042265571653842926
0.0872502177953720093 -0.0656459406018257141 0.289352118968963623
-0.163051113486289978 -0.265297859907150269 0.147813469171524048
0.264063566923141479 -0.0198965221643447876 0.061177525669336319
-0.0297633223235607147 -0.028593115508556366 0.295295476913452148
0.501313149929046631 -0.24025319516658783 -0.302259206771850586
0.475048869848251343 -0.314869403839111328 -0.302183836698532104
-0.631563842296600342 0.306646287441253662 0.167198434472084045
0.474575608968734741 -0.320624649524688721 0.120739631354808807
0.50819927453994751 -0.300712734460830688 -0.105798058211803436
0.52736586332321167 -0.274828016757965088 -0.317422360181808472
0.492668241262435913 -0.332336992025375366 -0.310929775238037109
0.502629280090332031 -0.319954454898834229 0.09773978590965271
0.47329634428024292 -0.305704474449157715 -0.29833906888961792
-0.559962451457977295 0.268499135971069336 0.364350467920303345
0.124233372509479523 0.117250874638557434 0.313884496688842773
-0.63424837589263916 0.282576203346252441 0.0540901944041252136
-0.587992548942565918 0.363150209188461304 0.10224933922290802
0.370550215244293213 -0.373939752578735352 -0.212972238659858704
0.437552154064178467 -0.347783297300338745 0.154064565896987915
0.0573485158383846283 0.121730096638202667 0.320823520421981812
-0.575180113315582275 0.369195938110351562 0.215385377407073975
0.263862639665603638 0.024816976860165596 -0.0590186864137649536
0.367868334054946899 -0.336576908826828003 0.160343915224075317
0.509642601013183594 -0.301433682441711426 -0.1122455894947052
0.132646337151527405 -0.320357829332351685 -0.0979822501540184021
0.515700459480285645 -0.348656415939331055 -0.0205282848328351974
0.388361424207687378 -0.346672505140304565 -0.214333102107048035
-0.577685415744781494 0.319421261548995972 0.0405990555882453918
0.535186052322387695 -0.277798712253570557 -0.320823848247528076
0.467003226280212402 -0.310839086771011353 -0.299474924802780151
0.506318807601928711 -0.346986681222915649 0.0176855828613042831
-0.556555986404418945 0.310084372758865356 0.10208621621131897
0.192922487854957581 -0.33913809061050415 -0.0593882761895656586
0.0691451653838157654 -0.281965672969818115 -0.0780992358922958374
0.251615017652511597 -0.25002703070640564 0.319880485534667969
0.2391367107629776 0.0312227103859186172 0.316574245691299438
-0.12192322313785553 -0.0475264899432659149 0.00793389603495597839
0.17786012589931488 -0.0999437049031257629 -0.0150918383151292801
0.531605422496795654 -0.332184880971908569 -0.013408794067800045
0.369424164295196533 -0.349390685558319092 -0.209112539887428284
0.534162819385528564 -0.245685994625091553 0.176987096667289734
0.560320019721984863 -0.315748721361160278 -0.331142812967300415
0.553742766380310059 -0.211583599448204041 0.133638739585876465
-0.543896973133087158 0.381148576736450195 0.164353922009468079
0.122110448777675629 0.117480970919132233 0.132798895239830017
-0.582878649234771729 0.352273166179656982 0.0976401194930076599
-0.482317656278610229 0.186285391449928284 -0.0917119532823562622
0.514780938625335693 -0.339057505130767822 0.0385889634490013123
0.25261881947517395 -0.278953611850738525 0.321702957153320312
0.277566999197006226 -0.355823248624801636 -0.126283660531044006
0.507078468799591064 -0.286608487367630005 -0.313895255327224731
-0.432914137840270996 -0.0569192990660667419 0.116599157452583313
0.201208189129829407 0.09076651930809021 0.223031163215637207
0.243507400155067444 0.104702949523925781 -0.0576063394546508789
-0.196373984217643738 0.201937779784202576 0.349093586206436157
0.249698072671890259 0.0251807700842618942 0.323004424571990967
0.239053472876548767 0.0192786529660224915 0.320701181888580322
-0.0321304053068161011 0.16309763491153717 0.382415890693664551
-0.483223468065261841 -0.0153447585180401802 0.180086970329284668
0.482958525419235229 -0.368970274925231934 0.0458347722887992859
-0.644167184829711914 0.28741985559463501 0.086080797016620636
0.275072187185287476 -0.165689855813980103 -0.0707654505968093872
-0.412596344947814941 -0.0565959587693214417 0.078811056911945343
-0.643750607967376709 0.175963401794433594 -0.0821679830551147461
-0.226821377873420715 -0.133705347776412964 -0.0523674450814723969
0.254124045372009277 -0.265363723039627075 0.320863217115402222
-0.346162468194961548 0.01755540631711483 -0.117065556347370148
-0.287998050451278687 -0.091334909200668335 -0.10665140300989151
-0.58581852912902832 0.210045099258422852 -0.218177527189254761
0.266773790121078491 -0.296832919120788574 0.314939290285110474
-0.0265201721340417862 -0.187055841088294983 -0.0436564050614833832
-0.618736982345581055 0.277214944362640381 0.0312617719173431396
-0.609488785266876221 0.298547536134719849 0.0923540443181991577
-0.398331880569458008 -0.0625908970832824707 0.118792973458766937
-0.452451199293136597 -0.0379086919128894806 0.119402080774307251
0.430323034524917603 -0.271631091833114624 0.328930675983428955
-0.0531972609460353851 0.141089186072349548 0.0914567634463310242
-0.503672599792480469 0.15147005021572113 0.355331838130950928
0.239984884858131409 -0.31911778450012207 0.322564929723739624
0.496345311403274536 -0.370790392160415649 0.0571535155177116394
0.39850914478302002 -0.256740272045135498 0.322205275297164917
-0.159186586737632751 -0.263283520936965942 0.181442618370056152
-0.499885678291320801 0.014298328198492527 0.158003687858581543
0.416794300079345703 -0.297260254621505737 0.328482240438461304
0.534529268741607666 -0.340175539255142212 -0.0186361204832792282
0.343425601720809937 -0.267375826835632324 -0.128076598048210144
-0.497156411409378052 0.0722730010747909546 0.203898817300796509
0.44287070631980896 -0.272078841924667358 0.333158373832702637
0.521263539791107178 -0.335373640060424805 0.0325926542282104492
0.452555984258651733 -0.319968998432159424 -0.293217003345489502
0.473457098007202148 -0.311639010906219482 0.116477139294147491
0.516463875770568848 -0.278497636318206787 -0.313007831573486328
0.501885175704956055 -0.32602304220199585 -0.314495474100112915
0.517357587814331055 -0.327079921960830688 0.101705648005008698
0.478528767824172974 -0.311505883932113647 -0.302354484796524048
0.113824985921382904 0.118856661021709442 0.288744926452636719
-0.122631102800369263 0.268933147192001343 0.158555760979652405
-0.615482926368713379 0.265696495771408081 0.0519711934030056
-0.480097562074661255 0.00333055527880787849 0.181268289685249329
0.42588198184967041 -0.354971706867218018 0.158345639705657959
-0.293173342943191528 -0.110411606729030609 -0.105902083218097687
0.129762813448905945 0.0657637268304824829 0.320960134267807007
0.252932727336883545 0.0387376435101032257 -0.0781322866678237915
0.234725117683410645 0.0939381420612335205 -0.0534241534769535065
0.416867047548294067 -0.261599451303482056 -0.202561542391777039
0.520913362503051758 -0.354654848575592041 -0.0196523107588291168
-0.60949331521987915 0.381352245807647705 0.181139945983886719
0.516815423965454102 -0.279398560523986816 -0.314929813146591187
0.498337805271148682 -0.349995076656341553 0.0238765496760606766
-0.588473975658416748 0.369525998830795288 0.112935073673725128
0.505259275436401367 -0.104690268635749817 0.146990343928337097
-0.198734968900680542 0.311838120222091675 0.112723022699356079
0.263225823640823364 -0.286416471004486084 0.319528549909591675
0.236180171370506287 0.0623313188552856445 0.31023252010345459
-0.145359158515930176 -0.0432673133909702301 0.00400440441444516182
-0.658485770225524902 0.214868143200874329 -0.0463240519165992737
-0.28944772481918335 -0.0757787972688674927 -0.0687531232833862305
0.226452887058258057 0.0422396361827850342 -0.048479769378900528
0.55083167552947998 -0.144465640187263489 0.131764069199562073
0.519007861614227295 -0.295354694128036499 0.0746739804744720459
0.516817927360534668 -0.284118801355361938 -0.181382894515991211
-0.358880162239074707 -0.0168906375765800476 -0.0280684493482112885
0.0906969234347343445 0.088410504162311554 0.0854896306991577148
0.465836882591247559 -0.361899495124816895 -0.0108710695058107376
-0.433681786060333252 0.157954126596450806 -0.0666266605257987976
0.523031413555145264 -0.335635632276535034 0.0686891749501228333
0.262085407972335815 -0.285784900188446045 0.318251907825469971
0.00845571886748075485 -0.090794779360294342 -0.026332782581448555
0.0316430330276489258 -0.130187869071960449 0.0216574445366859436
-0.631402313709259033 0.265199005603790283 0.0289241410791873932
0.241390898823738098 0.0744993686676025391 0.318497240543365479
0.23944428563117981 0.0297478511929512024 0.318587750196456909
-0.175530210137367249 0.301115691661834717 0.116093531250953674
0.303827762603759766 -0.151153877377510071 0.307520508766174316
0.261119335889816284 -0.290586292743682861 0.320738404989242554
-0.476936221122741699 -0.00794582627713680267 0.166138425469398499
0.24202767014503479 0.0819347426295280457 0.311853677034378052
0.519450366497039795 -0.351285487413406372 0.0817250609397888184
-0.0358206182718276978 -0.237374007701873779 0.123924925923347473
-0.638979315757751465 0.290206104516983032 0.0987105146050453186
-0.235134884715080261 -0.132680177688598633 -0.0581505447626113892
-0.380106061697006226 -0.108603455126285553 0.105450339615345001
-0.237346366047859192 -0.147705033421516418 -0.0579920560121536255
-0.658694624900817871 0.214564502239227295 -0.034026704728603363
0.528092801570892334 -0.352619528770446777 0.0776697099208831787
-0.621839582920074463 0.270470112562179565 0.0523670166730880737
-0.404952853918075562 -0.0641363486647605896 0.111968204379081726
-0.447112917900085449 -0.0412954613566398621 0.121906623244285583
0.267189830541610718 -0.285479366779327393 0.323211550712585449
0.126774117350578308 -0.326429098844528198 0.312363088130950928
0.151431560516357422 -0.342929571866989136 0.31763070821762085
0.446878314018249512 -0.335726290941238403 -0.293187558650970459
0.514948427677154541 -0.303011119365692139 -0.108165338635444641
0.514434933662414551 -0.28036925196647644 -0.313025981187820435
0.484041124582290649 -0.327788263559341431 -0.309979796409606934
0.463501155376434326 -0.345993489027023315 -0.302854299545288086
0.54882580041885376 -0.210344746708869934 -0.316193431615829468
0.523302853107452393 -0.300155937671661377 -0.322669446468353271
0.517164230346679688 -0.300965964794158936 -0.318566769361495972
0.24610389769077301 0.057216007262468338 0.31609150767326355
0.240598797798156738 0.0876890197396278381 0.312420845031738281
-0.292624950408935547 -0.100411757826805115 -0.102035962045192719
-0.454374223947525024 -0.0517797283828258514 0.117003202438354492
0.403978079557418823 -0.272165656089782715 0.32225114107131958
-0.503140091896057129 0.00400071358308196068 0.189049318432807922
0.400266319513320923 -0.287145614624023438 0.324568629264831543
0.39841654896736145 -0.273459583520889282 0.323046743869781494
0.341364413499832153 -0.2588997483253479 0.0898560136556625366
-0.0197246167808771133 -0.244166955351829529 0.128494754433631897
-0.465237885713577271 0.0362221747636795044 0.189463585615158081
-0.195134967565536499 0.221877694129943848 0.171862348914146423
0.365945160388946533 -0.329251319169998169 -0.0237375758588314056
0.322471529245376587 -0.390101402997970581 -0.159075841307640076
0.534618258476257324 -0.323646962642669678 -0.0584289729595184326
-0.442529886960983276 -0.00450542569160461426 0.152612879872322083
-0.0200055036693811417 -0.0592764690518379211 0.141518831253051758
-0.00117737520486116409 -0.235904663801193237 0.106210529804229736
0.525421738624572754 -0.201831713318824768 -0.0802730768918991089
0.448943823575973511 -0.308413863182067871 -0.293077439069747925
0.526036858558654785 -0.275530040264129639 -0.315877377986907959
0.499078959226608276 -0.324972599744796753 -0.312866002321243286
0.474376589059829712 -0.30513414740562439 -0.297591686248779297
-0.128207996487617493 0.246894344687461853 0.138740107417106628
-0.649681687355041504 0.282221019268035889 0.0940968692302703857
-0.199652731418609619 0.286974430084228516 0.335714638233184814
0.49724230170249939 -0.0867075473070144653 0.136351868510246277
0.199767887592315674 -0.359070450067520142 -0.0910023525357246399
0.504575610160827637 -0.367677509784698486 -0.0229106750339269638
0.526477932929992676 -0.242631152272224426 0.172689750790596008
-0.586608767509460449 0.37957388162612915 0.1705322265625
0.444155961275100708 -0.315003782510757446 -0.287952154874801636
0.497811377048492432 -0.11107877641916275 0.111873708665370941
-0.6565437912940979 0.17566034197807312 -0.103939548134803772
-0.202717125415802002 0.309028118848800659 0.0889347121119499207
0.200504317879676819 -0.0133875999599695206 0.294973194599151611
0.159139186143875122 -0.0620254911482334137 -0.0443260557949542999
-0.580186188220977783 0.302534669637680054 0.368558287620544434
0.274266868829727173 0.0984300002455711365 -0.0294751599431037903
-0.436057060956954956 0.155650943517684937 -0.0861519351601600647
0.533634305000305176 -0.333035439252853394 0.0125311724841594696
-0.569540083408355713 0.19749903678894043 -0.229261353611946106
-0.49844244122505188 0.0452251359820365906 -0.086962580680847168
0.0305139385163784027 -0.103788219392299652 0.0328026227653026581
0.533295154571533203 -0.26457059383392334 -0.316524922847747803
0.00901148002594709396 0.197876259684562683 0.0272984150797128677
0.301341831684112549 0.0389151275157928467 -0.0848170891404151917
-0.333011806011199951 -0.0157600194215774536 -0.107823334634304047
0.235712915658950806 0.0146380076184868813 0.321508347988128662
0.124275550246238708 0.0132466256618499756 0.29869505763053894
0.526708900928497314 -0.355139493942260742 0.0661184713244438171
0.466246634721755981 -0.30988582968711853 -0.233327239751815796
-0.652658402919769287 0.285562247037887573 0.104205206036567688
0.545827269554138184 -0.219913706183433533 0.16324712336063385
0.527230620384216309 -0.323367267847061157 -0.0162560231983661652
-0.383782953023910522 -0.0561315938830375671 0.0761413499712944031
0.4560680091381073 -0.310896247625350952 -0.292773634195327759
0.504156231880187988 -0.339894950389862061 -0.318098276853561401
0.477995961904525757 -0.314380526542663574 -0.299713343381881714
0.519572675228118896 -0.301370501518249512 -0.317530959844589233
-0.00318092294037342072 -0.139773979783058167 -0.0249886829406023026
0.396750181913375854 -0.273017048835754395 0.323221802711486816
0.400422364473342896 -0.271444857120513916 0.323526650667190552
0.505295157432556152 -0.331935018301010132 0.105631805956363678
-0.46823534369468689 0.0427559167146682739 0.170576572418212891
0.409207612276077271 -0.345786750316619873 0.156365096569061279
-0.361605703830718994 -0.0350568965077400208 -0.148197934031486511
-0.12907131016254425 -0.267445027828216553 0.112282566726207733
0.511797964572906494 -0.369014084339141846 -0.0148544851690530777
-0.214335441589355469 0.3128337562084198 0.0974722057580947876
0.249788641929626465 -0.286922216415405273 0.322679519653320312
0.2081432044506073 0.00954791996628046036 -0.0463965684175491333
0.0690961554646492004 -0.15131320059299469 -0.01741831935942173
-0.170369908213615417 0.305068254470825195 0.118655174970626831
0.470291644334793091 -0.364314734935760498 0.00685085216537117958
-0.291745245456695557 -0.0992023870348930359 -0.103293955326080322
0.0355853289365768433 -0.149466633796691895 -0.0218766052275896072
0.231473356485366821 0.0564512200653553009 0.308919399976730347
0.252594202756881714 -0.288485288619995117 0.320460617542266846
-0.472349166870117188 0.00145053199958056211 0.168602094054222107
0.240296736359596252 0.0629025548696517944 0.312814533710479736
0.508179008960723877 -0.351980507373809814 0.063765108585357666
0.22661203145980835 -0.314625382423400879 0.314373165369033813
-0.376106023788452148 -0.092859707772731781 0.0861339867115020752
-0.0634664148092269897 -0.24136100709438324 0.302404612302780151
-0.223487481474876404 -0.127418041229248047 -0.0532163940370082855
-0.410571396350860596 -0.0651530548930168152 0.0984629318118095398
-0.445655763149261475 -0.044416382908821106 0.132680147886276245
0.238176897168159485 -0.293863058090209961 0.314240097999572754
0.153107926249504089 -0.324133157730102539 0.319940358400344849
0.424572408199310303 -0.255933552980422974 0.328370630741119385
0.437424778938293457 -0.342950791120529175 -0.292840272188186646
0.505577027797698975 -0.334597319364547729 -0.318244099617004395
0.444274872541427612 -0.352297037839889526 -0.286896198987960815
0.237563818693161011 0.0659673511981964111 0.312094271183013916
0.402494668960571289 -0.28737485408782959 0.325692951679229736
-0.495360493659973145 0.00703673437237739563 0.188334614038467407
0.485093116760253906 -0.0631416141986846924 0.131472095847129822
0.0117001710459589958 -0.170487672090530396 0.00969919469207525253
0.530818819999694824 -0.307582199573516846 -0.0623977109789848328
0.313969433307647705 -0.302191823720932007 -0.126995742321014404
0.445129215717315674 -0.291345715522766113 -0.28581845760345459
-0.337432622909545898 0.225029066205024719 0.12561817467212677
-0.401503473520278931 -0.0278767775744199753 -0.00196520122699439526
0.402408808469772339 -0.271588236093521118 0.323909997940063477
-0.133855342864990234 0.19611656665802002 0.167583569884300232
0.398457199335098267 -0.271523863077163696 0.323723375797271729
-0.447140753269195557 -0.0246489942073822021 0.0213653799146413803
-0.138508155941963196 0.245177283883094788 0.191538289189338684
-0.613198816776275635 0.294327914714813232 0.1836729496717453
0.123947352170944214 0.116383574903011322 0.316473931074142456
-0.121454358100891113 0.250902533531188965 0.161663487553596497
-0.583723545074462891 0.34843096137046814 0.0580467060208320618
0.426124393939971924 -0.347965031862258911 0.152850031852722168
-0.567201793193817139 0.295331388711929321 -0.0690995156764984131
0.251185446977615356 0.0268686916679143906 -0.0798539072275161743
0.24702829122543335 0.100550957024097443 -0.0486486628651618958
-0.358087331056594849 -0.0554077513515949249 -0.14193001389503479
0.198098942637443542 0.120432890951633453 0.0354801751673221588
0.544959962368011475 -0.131411954760551453 0.11175999790430069
-0.582070291042327881 0.322031468152999878 -0.022950928658246994
0.205507487058639526 0.0249376185238361359 0.176603034138679504
-0.595700979232788086 0.37544819712638855 0.171943932771682739
0.444110989570617676 -0.319063425064086914 0.127182289958000183
0.254397869110107422 -0.278449922800064087 0.316303402185440063
0.234932363033294678 0.0240746680647134781 0.316351950168609619
-0.363503992557525635 -0.0493997670710086823 -0.0238324403762817383
-0.183209970593452454 0.118503063917160034 0.0421601720154285431
0.254110962152481079 -0.287890225648880005 0.319120675325393677
0.241373643279075623 0.03344731405377388 0.321613073348999023
0.399246454238891602 0.0235218703746795654 0.114885538816452026
-0.341132998466491699 -0.065763227641582489 -0.147378355264663696
0.0750886350870132446 -0.332602500915527344 0.298833161592483521
-0.387303352355957031 -0.0603796802461147308 0.0937759131193161011
-0.448687642812728882 -0.0408915504813194275 0.127689868211746216
0.438719958066940308 -0.279065042734146118 0.333445966243743896
0.0337443090975284576 -0.122520558536052704 -0.0257924254983663559
0.413675278425216675 -0.280511945486068726 0.326790481805801392
0.432388335466384888 -0.295814782381057739 0.332951217889785767
0.367195338010787964 -0.278514355421066284 -0.130472570657730103
-0.477807581424713135 0.001921837218105793 0.188310489058494568
-0.292157113552093506 -0.0959117785096168518 -0.104625925421714783
0.240724191069602966 -0.312655329704284668 0.309488236904144287
0.472523719072341919 -0.35403674840927124 0.00685835722833871841
-0.296985357999801636 -0.0961619019508361816 -0.10707460343837738
0.244087815284729004 -0.288235187530517578 0.319876402616500854
0.0616251528263092041 -0.329302430152893066 0.296920895576477051
0.157261177897453308 -0.267442584037780762 -0.105686500668525696
0.249594420194625854 0.063707791268825531 0.315236687660217285
-0.482948184013366699 -0.00745906215161085129 0.177907600998878479
0.235735833644866943 0.0668849796056747437 0.314596652984619141
0.238062098622322083 -0.331463158130645752 0.321219593286514282
-0.382795959711074829 -0.0915538445115089417 0.0366874970495700836
-0.216757163405418396 -0.139654979109764099 -0.0544495508074760437
-0.383212447166442871 -0.063189387321472168 0.0834914296865463257
0.149319961667060852 -0.331244349479675293 0.331731736660003662
0.445243000984191895 -0.27959856390953064 0.333369404077529907
0.406784683465957642 -0.28022158145904541 0.324903219938278198
-0.502449572086334229 0.0070153246633708477 0.188647806644439697
-0.322429895401000977 0.0976309999823570251 -0.0703796446323394775
0.531928002834320068 -0.207358196377754211 -0.0528513304889202118
0.45032462477684021 -0.293786555528640747 -0.290705293416976929
0.486803740262985229 -0.325141191482543945 -0.311110049486160278
0.445763558149337769 -0.309626996517181396 -0.291066884994506836
-0.578046083450317383 0.269546598196029663 0.365751385688781738
-0.461934566497802734 0.106125123798847198 -0.231096655130386353
0.374171793460845947 -0.31842339038848877 0.19886954128742218
-0.590083837509155273 0.367197781801223755 0.131158426403999329
0.391863882541656494 -0.353294938802719116 -0.217703148722648621
0.440456867218017578 -0.310167849063873291 -0.28927689790725708
-0.201099038124084473 0.305757254362106323 0.0947969108819961548
-0.155947625637054443 0.268269598484039307 0.151487588882446289
0.529195606708526611 -0.338266372680664062 0.0716063976287841797
0.463185966014862061 -0.266018271446228027 -0.217906281352043152
-0.633844494819641113 0.275981932878494263 0.106962338089942932
0.437777072191238403 -0.30845940113067627 -0.287448644638061523
0.514878332614898682 -0.277114212512969971 -0.317077428102493286
0.515985965728759766 -0.340250939130783081 -0.320977300405502319
0.453730791807174683 -0.306944966316223145 -0.293501615524291992
0.490273445844650269 -0.321740716695785522 0.0941581279039382935
0.019872935488820076 -0.275440424680709839 -0.0187047757208347321
-0.654478371143341064 0.172199517488479614 -0.108217254281044006
-0.225118264555931091 0.318863719701766968 0.121203936636447906
0.464686006307601929 -0.363919585943222046 0.00568860583007335663
0.48043358325958252 -0.336631208658218384 0.0500528700649738312
0.510885477066040039 -0.339310228824615479 -0.319637477397918701
0.439532637596130371 -0.356450557708740234 -0.297848224639892578
-0.270447224378585815 0.322315484285354614 0.0417291074991226196
0.423489212989807129 -0.313176214694976807 -0.282143712043762207
0.414873093366622925 -0.294970303773880005 0.328238546848297119
-0.326626390218734741 -0.0749987959861755371 0.123411573469638824
-0.367385834455490112 -0.0663145855069160461 0.154627889394760132
-0.338685780763626099 0.21519903838634491 0.132756710052490234
0.0095170261338353157 0.119731321930885315 0.104928143322467804
0.541427791118621826 -0.309049606323242188 -0.0464300327003002167
0.0129160080105066299 -0.261415481567382812 0.0393743626773357391
-0.00424764398485422134 -0.23618142306804657 0.0941226407885551453
-0.000488021876662969589 -0.219221815466880798 0.081378251314163208
0.464271754026412964 -0.360769182443618774 0.0300867985934019089
-0.269943654537200928 -0.137627065181732178 0.17741827666759491
-0.345599979162216187 -0.0654893666505813599 0.141211479902267456
0.122755438089370728 -0.276334136724472046 0.128808364272117615
-0.134415552020072937 0.0791643708944320679 0.0901224538683891296
0.462912946939468384 -0.0542743466794490814 0.0172692686319351196
-0.0148228071630001068 -0.216533169150352478 0.0802222490310668945
-0.555052816867828369 0.391914904117584229 0.147674322128295898
0.4959716796875 -0.366651833057403564 0.00502230925485491753
-0.611026227474212646 0.294326961040496826 0.186477199196815491
0.529419898986816406 -0.275180041790008545 -0.31791272759437561
0.369684100151062012 -0.264386743307113647 0.181280359625816345
0.419676095247268677 -0.34427979588508606 0.150616288185119629
0.251334309577941895 0.0393690653145313263 -0.0669895634055137634
0.548858582973480225 -0.149800211191177368 0.123953424394130707
-0.570893228054046631 0.284308493137359619 -0.00644578598439693451
0.500245034694671631 -0.362505853176116943 -0.00150820065755397081
0.20761832594871521 0.115871354937553406 -0.0107721872627735138
-0.28979724645614624 -0.085285671055316925 -0.0664762929081916809
0.158514171838760376 -0.0829846039414405823 -0.0364022031426429749
-0.340484529733657837 -0.105062954127788544 0.141256257891654968
0.510415256023406982 -0.281340360641479492 -0.31343039870262146
-0.339833736419677734 -0.0792630165815353394 0.0385742969810962677
-0.369813472032546997 0.281038761138916016 -0.0626831501722335815
0.509205937385559082 -0.340835064649581909 0.064887508749961853
0.301602154970169067 -0.205664053559303284 0.247652605175971985
0.542168021202087402 -0.31193891167640686 -0.0609767846763134003
0.140935897827148438 0.0698272287845611572 0.336128592491149902
-0.595244765281677246 0.267795473337173462 0.0121260862797498703
0.221340358257293701 -0.0068064248189330101 0.295301228761672974
0.230215921998023987 0.0346087552607059479 0.312485218048095703
0.532871127128601074 -0.319532722234725952 -0.0130244297906756401
-0.389833241701126099 -0.0635894909501075745 0.105741992592811584
-0.448030620813369751 -0.039743717759847641 0.12654133141040802
0.495345205068588257 -0.0912086442112922668 0.15414641797542572
0.250261783599853516 0.0633847340941429138 0.316354513168334961
-0.291822642087936401 -0.0923574343323707581 0.307639449834823608
-0.367087513208389282 -0.114366739988327026 0.104041501879692078
-0.563856780529022217 0.127593576908111572 -0.0784884020686149597
-0.501908421516418457 0.0238599199801683426 0.186691701412200928
0.517473757266998291 -0.297359883785247803 -0.314262062311172485
0.471897244453430176 -0.328248441219329834 -0.30011594295501709
-0.574580073356628418 0.269213706254959106 0.362677812576293945
-0.571483194828033447 0.355202555656433105 0.167022302746772766
-0.192180514335632324 0.305009067058563232 0.101155765354633331
-0.662443399429321289 0.240053087472915649 0.0416240878403186798
-0.505249738693237305 0.144812881946563721 0.353318870067596436
0.506464600563049316 -0.347176820039749146 -0.318533629179000854
-0.201006710529327393 0.305343151092529297 0.101818904280662537
0.47442200779914856 -0.357565194368362427 0.00444566365331411362
0.509094774723052979 -0.330652892589569092 0.0661610886454582214
-0.611043930053710938 0.36786237359046936 0.0877537950873374939
-0.562899887561798096 0.288560092449188232 -0.0559959933161735535
0.219283401966094971 0.0105562023818492889 0.308827579021453857
0.23984876275062561 0.00537892477586865425 0.321283966302871704
-0.360137492418289185 -0.0565513782203197479 -0.137925013899803162
0.398593246936798096 -0.252592265605926514 0.321649909019470215
0.398894011974334717 -0.262965559959411621 0.324403256177902222
0.223333165049552917 -0.323913544416427612 0.320452034473419189
0.410380929708480835 -0.267710387706756592 0.324823230504989624
-0.509532451629638672 0.0498256608843803406 0.195281282067298889
-0.631637454032897949 0.156786605715751648 -0.0526768267154693604
-0.502221405506134033 0.14737875759601593 0.345292657613754272
0.52027660608291626 -0.350738853216171265 -0.323273956775665283
0.4946175217628479 -0.348294466733932495 -3.41232989740092307e-05
-0.198498472571372986 0.0164709277451038361 -0.0500911585986614227
-0.558118164539337158 0.342055767774581909 -0.00576869165524840355
0.487826675176620483 -0.360413819551467896 0.0407856926321983337
0.448500096797943115 -0.0741974934935569763 0.00159525731578469276
-0.556577801704406738 0.385524362325668335 0.157799452543258667
0.373886257410049438 -0.0811707302927970886 -0.120271623134613037
-0.39005202054977417 0.319950848817825317 0.168759137392044067
-0.385004788637161255 0.328518927097320557 0.197454020380973816
-0.364628463983535767 0.23830828070640564 -0.0835873782634735107
-0.407718926668167114 0.199861153960227966 0.0408488884568214417
-0.644791662693023682 0.28709787130355835 0.0936027988791465759
0.407832354307174683 -0.347154021263122559 0.136139124631881714
0.221676081418991089 0.0830133780837059021 -0.0339015349745750427
0.497908174991607666 -0.161230668425559998 0.123482801020145416
0.499681949615478516 -0.0928260162472724915 0.134380742907524109
0.214688196778297424 0.00211439025588333607 0.299161821603775024
-0.353705167770385742 -0.0678115561604499817 -0.00912663619965314865
-0.385851800441741943 0.266295671463012695 -0.0717628002166748047
0.505768120288848877 -0.347057521343231201 0.0546421147882938385
-0.357560008764266968 -0.056016877293586731 -0.145517423748970032
0.131563246250152588 0.0728898420929908752 0.321857035160064697
-0.100323930382728577 -0.265279322862625122 0.00599283957853913307
0.241767749190330505 0.0235170740634202957 0.321586132049560547
-0.48080858588218689 -0.0113795660436153412 0.185291200876235962
0.241812750697135925 0.0485016815364360809 0.316762566566467285
-0.278608649969100952 0.332985937595367432 0.0405141636729240417
0.369120806455612183 -0.0308527890592813492 -0.0403370559215545654
0.519461989402770996 -0.347994953393936157 -0.0365962274372577667
0.292586833238601685 -0.0118906283751130104 0.0366370826959609985
-0.644479572772979736 0.285016804933547974 0.0924501344561576843
0.0351148359477519989 0.136933773756027222 0.0848238766193389893
-0.397947221994400024 -0.0572946891188621521 0.125839903950691223
-0.44188767671585083 -0.0378954336047172546 0.131282210350036621
0.52314150333404541 -0.317594766616821289 -0.0657437816262245178
0.421739280223846436 -0.279904037714004517 0.33088994026184082
0.508935332298278809 -0.344952851533889771 0.056809697300195694
0.403151392936706543 -0.258771270513534546 0.323297321796417236
-0.480714231729507446 0.0183692853897809982 0.17667292058467865
0.234863653779029846 0.0686877965927124023 0.31415855884552002
-0.479884684085845947 -0.00804256275296211243 0.16732044517993927
0.238487869501113892 0.0676947906613349915 0.314559310674667358
0.387486040592193604 0.0259861275553703308 0.105569377541542053
0.218855217099189758 -0.315910428762435913 0.310109317302703857
0.382314980030059814 0.0428861528635025024 0.0686073228716850281
0.462045967578887939 0.0107280835509300232 0.174624904990196228
0.398775249719619751 -0.258561223745346069 0.326871693134307861
-0.500022172927856445 0.0214389003813266754 0.180894315242767334
-0.573775827884674072 0.26648983359336853 0.359900593757629395
-0.664915919303894043 0.23011268675327301 0.0217671729624271393
-0.149739161133766174 0.275586724281311035 0.0788323283195495605
0.521320641040802002 -0.3351631760597229 -0.322892546653747559
-0.220817476511001587 0.315904170274734497 0.0965482816100120544
0.499153941869735718 -0.346542268991470337 0.0666980147361755371
-0.190172180533409119 0.302992463111877441 0.114556729793548584
0.312920659780502319 -0.130062639713287354 0.300365805625915527
0.224404335021972656 -0.0350942611694335938 0.304809451103210449
0.0566728487610816956 -0.330574184656143188 0.291169106960296631
0.434538573026657104 -0.279942929744720459 0.332401841878890991
0.408251821994781494 -0.285733342170715332 0.3305702805519104
0.384954154491424561 -0.265757620334625244 0.318447858095169067
0.396606087684631348 -0.384740531444549561 -0.225990504026412964
-0.162698566913604736 0.278626382350921631 0.128394916653633118
0.379955589771270752 0.0439114607870578766 0.0765492916107177734
0.390083909034729004 -0.25571635365486145 0.318454205989837646
-0.500739037990570068 0.0247212108224630356 0.185730800032615662
0.498860985040664673 -0.326041638851165771 -0.313527435064315796
0.379771500825881958 -0.376025348901748657 -0.216605693101882935
0.520383775234222412 -0.349385768175125122 -0.325290262699127197
0.519942700862884521 -0.348524183034896851 -0.322229981422424316
0.512564122676849365 -0.319772869348526001 -0.318865388631820679
0.25417366623878479 -0.222299203276634216 0.0571382902562618256
0.185172930359840393 -0.142237171530723572 -0.105961844325065613
0.507057785987854004 -0.320251941680908203 0.0288541074842214584
-0.469909816980361938 -0.0116339223459362984 0.180982843041419983
0.495443254709243774 -0.349076718091964722 -0.310191720724105835
0.520728051662445068 -0.327647745609283447 -0.322367697954177856
0.47524261474609375 -0.320358514785766602 -0.303482472896575928
-0.341652214527130127 0.230098500847816467 -0.0444942042231559753
0.201037704944610596 0.132899314165115356 0.111777931451797485
-0.173208817839622498 0.0224481113255023956 0.0253689233213663101
0.264797776937484741 -0.165774106979370117 0.00565108843147754669
0.543974161148071289 -0.328359812498092651 -0.0482272431254386902
-0.456792086362838745 -0.0528396293520927429 0.162093624472618103
0.468925029039382935 -0.356169670820236206 -0.30752938985824585
0.477694094181060791 -0.269922584295272827 -0.301979392766952515
0.466535091400146484 -0.361977666616439819 -0.308617711067199707
-0.320632845163345337 0.266896367073059082 0.0113141359761357307
0.0324816219508647919 0.098771117627620697 0.12817046046257019
-0.285226613283157349 -0.0998484492301940918 -0.0875131189823150635
-0.617179334163665771 0.217174157500267029 -0.104908935725688934
0.243680655956268311 0.104517817497253418 -0.0302257444709539413
0.46550413966178894 -0.235207468271255493 -0.228963702917098999
-0.294468045234680176 -0.0883068367838859558 -0.0960599258542060852
0.248355627059936523 -0.275793105363845825 0.322210133075714111
0.22129000723361969 0.0669123232364654541 -0.0283627677708864212
-0.251503676176071167 -0.12998633086681366 -0.0556478574872016907
-0.212034836411476135 0.302252531051635742 0.148479193449020386
0.339068561792373657 -0.140514075756072998 0.317913174629211426
0.528947114944458008 -0.356590241193771362 0.0692861825227737427
-0.600182175636291504 0.356829583644866943 0.0603281669318675995
-0.346878141164779663 -0.0555435754358768463 -0.143759965896606445
-0.433221250772476196 0.157811656594276428 -0.0847591683268547058
0.525840282440185547 -0.33172839879989624 0.0199904460459947586
0.527421832084655762 -0.288005799055099487 -0.0705487877130508423
-0.499325156211853027 0.142854288220405579 -0.253994107246398926
0.145835384726524353 0.15686441957950592 0.0583730153739452362
0.252523899078369141 -0.00754354335367679596 0.327257692813873291
0.349213480949401855 -0.147101730108261108 0.320148885250091553
0.441484600305557251 -0.322561383247375488 -0.229751259088516235
-0.224745675921440125 -0.139799848198890686 -0.0539708137512207031
0.521769821643829346 -0.350221037864685059 0.0965489968657493591
-0.64641338586807251 0.253670930862426758 0.0238005667924880981
0.392446130514144897 -0.280030369758605957 0.321900248527526855
-0.475095689296722412 -0.00958711560815572739 0.16476498544216156
0.22362065315246582 -0.324915826320648193 0.318708807229995728
-0.364175558090209961 -0.120926156640052795 0.130272075533866882
-0.239185959100723267 -0.14042508602142334 -0.0540940761566162109
-0.114647939801216125 -0.00894149020314216614 -0.0169142615050077438
0.388670504093170166 -0.278300315141677856 0.320230841636657715
-0.507383525371551514 0.0115435123443603516 0.201853886246681213
0.461851239204406738 -0.296961873769760132 -0.29469260573387146
0.350557327270507812 -0.148059934377670288 0.321005135774612427
