ply
format ascii 1.0
element vertex 738
property float x
property float y
property float z
end_header
-0.137663945555686951 -0.264533728361129761 -0.00130821822676807642
-0.244395598769187927 0.0639548972249031067 0.244696870446205139
-0.542679429054260254 0.211203336715698242 0.162664636969566345
-0.591325283050537109 0.287431448698043823 -0.00741162104532122612
0.306221991777420044 0.0178176295012235641 0.0424958206713199615
0.477631986141204834 -0.314743548631668091 -0.305562317371368408
0.502922177314758301 -0.345423460006713867 -0.0639592185616493225
0.470854371786117554 -0.304977595806121826 0.114852935075759888
0.526306331157684326 -0.302805423736572266 -0.109544821083545685
-0.403443902730941772 0.311866134405136108 0.134616121649742126
0.517108678817749023 -0.251251876354217529 -0.307562112808227539
0.506759881973266602 -0.329025477170944214 -0.3149089515209198
0.518040657043457031 -0.331202477216720581 0.0914153605699539185
0.476518541574478149 -0.304215937852859497 -0.303203552961349487
0.526770234107971191 -0.285547047853469849 -0.1081656813621521
-0.560432791709899902 0.267584353685379028 0.365541726350784302
-0.640695512294769287 0.289849996566772461 0.0850744247436523438
0.370481640100479126 -0.401071786880493164 -0.217683717608451843
-0.450405329465866089 -0.000675470218993723392 0.175046533346176147
0.17572040855884552 0.0731963589787483215 0.00629451032727956772
-0.454274833202362061 0.134917840361595154 -0.213780909776687622
0.402293592691421509 -0.335677355527877808 0.12878243625164032
-0.599497079849243164 0.207654252648353577 0.000694285554345697165
0.246722415089607239 -0.114337295293807983 -0.0710822194814682007
-0.48385167121887207 0.182957381010055542 -0.210197746753692627
-0.376810401678085327 -0.0627330094575881958 0.0916354060173034668
0.522140383720397949 -0.32081487774848938 0.0357072800397872925
0.541679620742797852 -0.217233359813690186 0.108056195080280304
0.524971723556518555 -0.273379325866699219 0.0551300719380378723
0.110562555491924286 0.0844420120120048523 0.317034274339675903
-0.351591795682907104 -0.0475506484508514404 0.044922705739736557
0.104466252028942108 0.0725864693522453308 0.295273393392562866
-0.165909111499786377 0.133409008383750916 0.151181459426879883
0.501988410949707031 -0.256384104490280151 -0.102656207978725433
0.428146183490753174 -0.303668975830078125 0.135750234127044678
-0.356379598379135132 -0.101050622761249542 0.158994317054748535
0.497864514589309692 -0.201527923345565796 -0.10814211517572403
-0.578925609588623047 0.348384827375411987 0.152066871523857117
0.104293271899223328 -0.0112356971949338913 0.0209046769887208939
-0.341905713081359863 -0.12300284206867218 0.104539588093757629
-0.121464550495147705 -0.275272160768508911 0.173978149890899658
-0.161680594086647034 0.167708396911621094 0.325037062168121338
0.51423346996307373 -0.358447849750518799 0.0266466531902551651
0.520292758941650391 -0.287447333335876465 -0.0118477931246161461
0.478172868490219116 -0.139794394373893738 0.107396408915519714
-0.181553587317466736 0.0296392682939767838 0.0257437843829393387
-0.342621177434921265 -0.121224075555801392 0.103682540357112885
-0.600611865520477295 0.377094179391860962 0.188327237963676453
-0.120428085327148438 -0.266383945941925049 0.218228176236152649
0.522685527801513672 -0.30871117115020752 -0.0749413520097732544
0.515553832054138184 -0.252066314220428467 -0.309685438871383667
0.454161196947097778 -0.308161288499832153 -0.294620424509048462
0.239868611097335815 -0.0956906229257583618 0.158416450023651123
-0.62068641185760498 0.272519052028656006 0.0370794907212257385
-0.430489152669906616 -0.00341540900990366936 0.177282169461250305
-0.251151442527770996 -0.136520355939865112 -0.0711872652173042297
0.31650155782699585 -0.318744182586669922 0.122376434504985809
0.538598001003265381 -0.249551042914390564 0.106450535356998444
0.451990276575088501 -0.139628306031227112 0.0151919452473521233
0.428574264049530029 -0.320823431015014648 0.123541675508022308
0.412452220916748047 -0.33070451021194458 -0.209957629442214966
0.473114609718322754 -0.128370925784111023 0.109275646507740021
-0.549365460872650146 0.378906399011611938 0.1725454181432724
0.189659982919692993 -0.339529573917388916 -0.0134578784927725792
-0.202451109886169434 -0.135047256946563721 -0.0685513988137245178
-0.186073407530784607 0.312453776597976685 0.117742337286472321
0.10270305722951889 0.108096413314342499 0.17422938346862793
-0.444899827241897583 -0.0539093688130378723 0.0918124765157699585
-0.489919096231460571 0.0304468702524900436 0.0168004482984542847
0.230738267302513123 0.0113532477989792824 0.314791947603225708
-0.0252693668007850647 0.113608837127685547 0.312306761741638184
0.242552012205123901 -0.0383169092237949371 0.204428449273109436
-0.385355889797210693 0.245708063244819641 0.0342223607003688812
-0.654552459716796875 0.217009380459785461 -0.039341997355222702
0.482292026281356812 -0.11607920378446579 0.0232058074325323105
0.121537297964096069 0.0798622816801071167 0.13833339512348175
-0.382515937089920044 -0.0721652358770370483 0.0955881625413894653
0.318958312273025513 -0.0721260681748390198 0.0621618814766407013
-0.441232055425643921 -0.0112516293302178383 0.00681444723159074783
-0.502692043781280518 0.234006345272064209 -0.0711898282170295715
-0.547747373580932617 0.203755185008049011 -0.0685974732041358948
0.0879339724779129028 0.0920427367091178894 0.079804539680480957
-0.520377933979034424 0.204876556992530823 -0.0472411885857582092
-0.168778792023658752 0.0728357806801795959 0.232388138771057129
-0.0580981336534023285 -0.1864357590675354 0.026705639436841011
-0.21301896870136261 0.291157126426696777 0.10900532454252243
0.248917952179908752 -0.00516283093020319939 0.0220944806933403015
-0.556222915649414062 0.20471636950969696 0.118311591446399689
-0.457810580730438232 0.216802716255187988 0.0244759395718574524
-0.463098794221878052 0.266825884580612183 -0.00278778094798326492
-0.575926482677459717 0.247877255082130432 -0.0765303000807762146
-0.389891088008880615 0.275465309619903564 -0.0842103064060211182
0.343093544244766235 -0.134373292326927185 0.318618685007095337
-0.49908939003944397 0.207180589437484741 -0.0116765033453702927
-0.346524208784103394 0.293175250291824341 -0.0502423755824565887
0.52524113655090332 -0.360870718955993652 0.0415513552725315094
-0.540369212627410889 0.215506374835968018 0.201037824153900146
-0.569735109806060791 0.294658392667770386 -0.00321760564111173153
0.315904080867767334 0.0239388197660446167 0.0484772063791751862
0.481255143880844116 -0.306890249252319336 -0.303871273994445801
0.478959411382675171 -0.326094359159469604 0.125137090682983398
0.522452473640441895 -0.306854337453842163 -0.098932899534702301
0.489612400531768799 -0.310658037662506104 -0.307629138231277466
0.515493333339691162 -0.324825555086135864 0.119605667889118195
0.443763911724090576 -0.300079405307769775 -0.29086264967918396
0.522470295429229736 -0.304405272006988525 -0.0975963398814201355
0.133663669228553772 0.116742536425590515 0.336870789527893066
-0.642878115177154541 0.242872342467308044 -0.00952555425465106964
-0.29333728551864624 -0.113504461944103241 -0.105754807591438293
0.538531482219696045 -0.255293428897857666 0.0919507816433906555
0.128511562943458557 0.0979571491479873657 0.317146718502044678
-0.235958799719810486 -0.143162742257118225 -0.0714238956570625305
0.251715809106826782 0.0302507765591144562 -0.086224578320980072
0.53022468090057373 -0.322967469692230225 0.00659941462799906731
-0.599785685539245605 0.307644009590148926 0.104443073272705078
0.531386196613311768 -0.244468197226524353 0.0862990319728851318
-0.374695241451263428 -0.0604296252131462097 0.0922943279147148132
0.525825798511505127 -0.275178432464599609 -0.123479694128036499
-0.501616358757019043 0.149134054780006409 0.353009015321731567
0.38438725471496582 -0.297405093908309937 0.131596162915229797
0.131854534149169922 -0.331693261861801147 -0.10058419406414032
0.522010266780853271 -0.35469365119934082 -0.0151594569906592369
-0.437053263187408447 0.150851473212242126 -0.0850805267691612244
0.51503366231918335 -0.299919575452804565 0.0644657090306282043
0.392255783081054688 -0.3677406907081604 -0.213904544711112976
0.499833583831787109 -0.17126108705997467 0.129770159721374512
0.532495677471160889 -0.333829879760742188 0.0281590670347213745
-0.580372035503387451 0.349134832620620728 0.0402274467051029205
0.519239604473114014 -0.240826338529586792 -0.3089313805103302
-0.601447105407714844 0.370914876461029053 0.104604348540306091
-0.501118123531341553 0.147505670785903931 0.35521349310874939
0.23325560986995697 -0.277545362710952759 0.317170411348342896
-0.182099208235740662 -0.13666921854019165 -0.05571732297539711
-0.229117482900619507 -0.137618675827980042 -0.0535945035517215729
-0.204818576574325562 0.298762500286102295 0.126588761806488037
0.261809051036834717 -0.289369881153106689 0.323454916477203369
-0.362897515296936035 -0.0301279965788125992 0.119507886469364166
-0.500694155693054199 0.0197888128459453583 0.0318387746810913086
0.242218106985092163 0.000426076381700113416 0.322030961513519287
0.140633627772331238 -0.290082633495330811 0.311548382043838501
0.307371020317077637 -0.207253053784370422 0.2479533851146698
-0.386663645505905151 0.255230486392974854 0.034276127815246582
0.53040003776550293 -0.262078374624252319 0.102677322924137115
0.223438158631324768 0.0230762530118227005 0.305190801620483398
0.529876828193664551 -0.147308766841888428 -0.308486402034759521
-0.645404219627380371 0.231651186943054199 -0.0475765988230705261
0.540533900260925293 -0.310780435800552368 -0.0446761287748813629
0.5070648193359375 -0.267643928527832031 -0.311706721782684326
0.513539433479309082 -0.3159828782081604 -0.295290142297744751
0.458066701889038086 -0.290763825178146362 -0.296795368194580078
-0.543676972389221191 0.268418282270431519 -0.189453616738319397
-0.621911048889160156 0.289271950721740723 0.0666048005223274231
0.362606316804885864 -0.384060412645339966 -0.206317678093910217
-0.093020610511302948 0.267653554677963257 0.189184606075286865
-0.449090927839279175 0.131636247038841248 -0.20888499915599823
-0.576014041900634766 0.204084739089012146 -0.127188146114349365
-0.630617976188659668 0.192019373178482056 -0.0399988368153572083
-0.470392167568206787 0.139269977807998657 -0.231193169951438904
0.256920129060745239 -0.0168219786137342453 -0.0724053904414176941
0.229823365807533264 0.0541267730295658112 -0.0454899333417415619
0.112468510866165161 0.110169209539890289 0.301415979862213135
-0.58469688892364502 0.218672871589660645 -0.221568763256072998
-0.598737239837646484 0.23555426299571991 -0.0108656315132975578
-0.367662936449050903 -0.0912930220365524292 0.122769452631473541
-0.330665946006774902 -0.124922014772891998 0.137210428714752197
-0.63514554500579834 0.199935168027877808 -0.0384158268570899963
-0.426313847303390503 -0.0544760189950466156 0.0991741567850112915
-0.478699237108230591 0.0205431953072547913 -0.0366223715245723724
0.208016037940979004 0.00895982515066862106 0.300576120615005493
-0.634704232215881348 0.248402327299118042 -0.00609602686017751694
-0.12860715389251709 0.270300209522247314 0.132056921720504761
0.270274907350540161 -0.329952746629714966 0.179874435067176819
0.532316803932189941 -0.20994211733341217 -0.0991245955228805542
-0.127251029014587402 -0.112240850925445557 -0.0549608469009399414
0.45335763692855835 -0.338723421096801758 -0.298306405544281006
-0.213319361209869385 0.0366509146988391876 -0.0598512589931488037
-0.553731262683868408 0.176147982478141785 0.0127061512321233749
-0.199171125888824463 0.140065655112266541 0.0209581702947616577
-0.0133489975705742836 -0.10211508721113205 -0.043151315301656723
0.263973504304885864 -0.274557530879974365 0.202214434742927551
0.347855329513549805 -0.320825070142745972 -0.000287684000795707107
-0.156622722744941711 0.0702302083373069763 0.0273446962237358093
-0.249864578247070312 0.131223559379577637 -0.0346100777387619019
0.198403641581535339 0.00200632470659911633 0.0187662988901138306
0.0756745636463165283 0.0812582522630691528 0.0236690230667591095
-0.284038901329040527 0.288707464933395386 -0.00609359331429004669
0.476152747869491577 -0.289654552936553955 -0.301953911781311035
-0.557409524917602539 0.266111582517623901 -0.0173504594713449478
-0.238066092133522034 0.0980717837810516357 -0.0326245427131652832
0.137055978178977966 -0.280435144901275635 0.14987395703792572
0.295553356409072876 -0.297063827514648438 0.0566731803119182587
-0.286645770072937012 0.257689058780670166 0.000392121903132647276
-0.0217954013496637344 -0.0399140343070030212 0.0887872874736785889
0.203816905617713928 0.0431044436991214752 0.0653870031237602234
-0.144457727670669556 -0.084726378321647644 0.0915582180023193359
0.371785968542098999 -0.0731124132871627808 0.0312221460044384003
0.52061760425567627 -0.198881417512893677 -0.0988224148750305176
0.486299455165863037 -0.297652333974838257 -0.305606305599212646
0.479685068130493164 -0.314556270837783813 0.122030988335609436
0.512824833393096924 -0.306966513395309448 -0.102683186531066895
0.495224058628082275 -0.309281438589096069 -0.309969305992126465
0.505390405654907227 -0.327576220035552979 -0.00440458348020911217
0.510992646217346191 -0.324261456727981567 0.118068598210811615
0.465075671672821045 -0.28855481743812561 -0.296810895204544067
0.437173366546630859 -0.263217896223068237 -0.194570630788803101
0.134471341967582703 0.117389403283596039 0.336786150932312012
0.395830363035202026 -0.243999823927879333 0.318479657173156738
-0.602135241031646729 0.354672014713287354 0.0654743239283561707
-0.505705177783966064 0.357628226280212402 0.178267434239387512
0.541903913021087646 -0.282243847846984863 0.0976271927356719971
0.255667656660079956 0.0372125841677188873 -0.0724282562732696533
-0.233856558799743652 0.156425312161445618 -0.00546948378905653954
0.505379915237426758 -0.331742972135543823 -0.00282657938078045845
0.4439849853515625 -0.249815285205841064 -0.228290244936943054
-0.639692127704620361 0.254897713661193848 0.0544865503907203674
0.531877100467681885 -0.262415796518325806 0.0929373577237129211
-0.393866121768951416 -0.0588017404079437256 0.100357025861740112
0.523136317729949951 -0.289430618286132812 -0.0923828184604644775
0.0271026324480772018 -0.273746490478515625 -0.0354893133044242859
0.38434600830078125 -0.305745214223861694 0.118522010743618011
-0.582795917987823486 0.367235302925109863 0.131673425436019897
0.239483058452606201 0.00333482585847377777 0.180809691548347473
-0.11365237832069397 0.166017726063728333 0.347358047962188721
0.481377333402633667 -0.368114054203033447 -0.0223442669957876205
0.411379367113113403 -0.320948123931884766 -0.211295053362846375
0.506563007831573486 -0.155228555202484131 0.123681485652923584
0.528043031692504883 -0.334466755390167236 0.0125321187078952789
-0.58477705717086792 0.336815088987350464 0.0340487584471702576
-0.591370165348052979 0.382330358028411865 0.131229221820831299
0.525534391403198242 -0.244184687733650208 -0.310904055833816528
0.473620384931564331 -0.29057621955871582 -0.299706190824508667
-0.59783172607421875 0.354119390249252319 0.169635504484176636
-0.587960541248321533 0.371858596801757812 0.101077437400817871
-0.212937057018280029 -0.129131942987442017 -0.0578293465077877045
0.233581140637397766 -0.292641788721084595 0.314740419387817383
0.237356856465339661 0.0675668641924858093 0.319771915674209595
0.541087448596954346 -0.313622385263442993 -0.0583953484892845154
-0.445438772439956665 -0.047931428998708725 0.127012833952903748
0.358645439147949219 -0.388135522603988647 -0.209260433912277222
-0.557288467884063721 0.211555138230323792 -0.113755941390991211
0.520035147666931152 -0.279355704784393311 -0.177390709519386292
0.241202935576438904 0.0352068878710269928 0.314251720905303955
0.241979166865348816 0.000827125681098550558 0.0233252570033073425
0.379947841167449951 0.0391808860003948212 0.0115128709003329277
0.526009261608123779 -0.230484247207641602 -0.310414761304855347
0.326257765293121338 0.096535511314868927 -0.0363041013479232788
-0.375082045793533325 -0.0598433837294578552 -0.13299289345741272
0.512188911437988281 -0.16722559928894043 0.135578960180282593
-0.575148463249206543 0.322425156831741333 0.0494221560657024384
-0.559608817100524902 0.283895641565322876 0.364082306623458862
0.223641708493232727 0.0323378294706344604 -0.0585350506007671356
-0.575085103511810303 0.214992105960845947 -0.221203058958053589
-0.0450339987874031067 0.15708574652671814 0.0809709429740905762
0.113330982625484467 0.110519304871559143 0.0251465868204832077
0.34187808632850647 -0.246704891324043274 -0.0971663966774940491
-0.285822749137878418 0.300906628370285034 -0.00298538245260715485
0.152486428618431091 -0.00394246727228164673 -0.00386744504794478416
0.068318486213684082 0.139329999685287476 0.0753812864422798157
-0.270817875862121582 0.28066098690032959 0.00153509166557341814
0.502563178539276123 -0.292399019002914429 -0.15963156521320343
0.136145710945129395 -0.0253582317382097244 0.0128340693190693855
-0.339849323034286499 -0.0315234512090682983 0.0226989947259426117
0.372595787048339844 -0.0915030911564826965 0.0439417511224746704
0.19916863739490509 0.101680338382720947 -0.00217203632928431034
-0.29809221625328064 -0.0245510581880807877 0.0358192287385463715
0.130942463874816895 -0.0173617508262395859 -0.0263749416917562485
0.100600056350231171 0.0165485590696334839 0.0909514054656028748
0.174931228160858154 0.119808554649353027 0.0377010442316532135
-0.231329619884490967 -0.0631803795695304871 0.104527130722999573
0.485283046960830688 -0.296515554189682007 -0.303835451602935791
-0.603810548782348633 0.289939254522323608 0.185090392827987671
0.466402232646942139 -0.308433294296264648 0.119786389172077179
0.377480775117874146 -0.0141367698088288307 0.00600478611886501312
0.51357722282409668 -0.295101553201675415 -0.103777594864368439
0.518072366714477539 -0.239574402570724487 -0.307913839817047119
0.477110147476196289 -0.309579223394393921 -0.300588101148605347
0.482590854167938232 -0.274368405342102051 -0.300224006175994873
0.11651892215013504 0.119289904832839966 0.297357857227325439
-0.584836602210998535 0.356742322444915771 0.0656969547271728516
0.382889777421951294 -0.337030917406082153 0.125219553709030151
-0.57515186071395874 0.318070888519287109 -0.0266931485384702682
-0.605161368846893311 0.21750977635383606 -0.0870538875460624695
0.266938686370849609 0.0395993217825889587 -0.0866295546293258667
-0.357252568006515503 -0.0217486228793859482 -0.131296604871749878
-0.564954221248626709 0.314709007740020752 -0.00804376415908336639
0.189714536070823669 -0.340478569269180298 -0.0750034153461456299
0.40329250693321228 -0.357438474893569946 -0.224341064691543579
-0.500867247581481934 0.146089732646942139 0.354557156562805176
0.508865416049957275 -0.151192769408226013 0.114652454853057861
0.496063917875289917 -0.263776063919067383 -0.304705947637557983
0.457156926393508911 -0.280725628137588501 -0.290062755346298218
0.440114140510559082 -0.264801025390625 -0.284022808074951172
-0.588655054569244385 0.357844531536102295 0.0616085603833198547
0.504476249217987061 -0.126508250832557678 0.12406507134437561
-0.206923350691795349 0.312918335199356079 0.10856812447309494
0.26739773154258728 -0.28368416428565979 0.318910509347915649
0.231816366314888 0.00397143932059407234 0.317559272050857544
0.512492120265960693 -0.175518840551376343 -0.282098740339279175
-0.11605776846408844 0.0103538902476429939 0.00568191660568118095
0.403023660182952881 -0.359467387199401855 -0.224964112043380737
0.416798591613769531 -0.312968254089355469 0.143469437956809998
-0.556076586246490479 0.376901507377624512 0.186715885996818542
-0.176339596509933472 0.30958971381187439 0.118238441646099091
-0.390487372875213623 0.276436746120452881 -0.085211046040058136
0.364514380693435669 0.0521262027323246002 0.0242189280688762665
0.128493458032608032 0.116180494427680969 0.318583875894546509
-0.287392616271972656 -0.100162424147129059 -0.0922149494290351868
0.257358551025390625 0.101230442523956299 -0.0624139197170734406
-0.362100332975387573 -0.059404224157333374 -0.14426007866859436
0.133448466658592224 0.114141471683979034 0.337530434131622314
-0.563859641551971436 0.199651017785072327 -0.229179695248603821
-0.277149379253387451 0.288434535264968872 -0.00109327083919197321
0.454082340002059937 -0.246295720338821411 -0.288614928722381592
0.459423363208770752 -0.275257647037506104 -0.291130989789962769
-0.635471343994140625 0.308552265167236328 0.170288905501365662
0.511700153350830078 -0.31724897027015686 -0.0388730801641941071
0.468136847019195557 -0.265657782554626465 -0.298260688781738281
0.477348923683166504 -0.294876188039779663 -0.300529748201370239
0.457341432571411133 -0.246080055832862854 -0.290186256170272827
0.380243003368377686 -0.360795289278030396 -0.214153200387954712
-0.480104058980941772 -0.0120852729305624962 0.185776948928833008
-0.517075777053833008 0.36619529128074646 0.173967167735099792
-0.619246304035186768 0.202400177717208862 -0.0873165279626846313
-0.23812025785446167 0.0192458368837833405 -0.0727386251091957092
-0.38336259126663208 -0.0585903637111186981 0.0236015450209379196
0.47405889630317688 -0.36809733510017395 0.0215226598083972931
-0.649922072887420654 0.237135633826255798 0.0321074575185775757
0.411726206541061401 -0.346537590026855469 -0.221939921379089355
0.525298476219177246 -0.336892932653427124 0.0797779634594917297
0.505261361598968506 -0.238876238465309143 -0.308376580476760864
0.248752683401107788 -0.281859159469604492 0.317973703145980835
0.238510176539421082 0.0669956505298614502 0.314315527677536011
0.538805305957794189 -0.301628679037094116 -0.0939535796642303467
-0.448590487241744995 -0.0409341380000114441 0.12644524872303009
-0.0445217080414295197 0.104985140264034271 0.317597895860671997
0.247254893183708191 0.0214483682066202164 0.321880578994750977
-0.285716712474822998 -0.0992976576089859009 -0.0992330163717269897
-0.138597428798675537 -0.0146650662645697594 -0.0490262024104595184
-0.278570294380187988 0.33829796314239502 0.0468203611671924591
-0.255441486835479736 0.290328830480575562 -0.00343419215641915798
-0.219600006937980652 0.322326302528381348 0.0696566030383110046
-0.57396012544631958 0.15265221893787384 -0.0746237114071846008
-0.290665596723556519 0.293140619993209839 0.0158649124205112457
0.524863839149475098 -0.320417910814285278 0.0268896371126174927
0.345328390598297119 -0.0302169956266880035 -0.0348433740437030792
0.52147907018661499 -0.362652957439422607 0.0891163572669029236
-0.0841477662324905396 -0.111371442675590515 0.0782823488116264343
-0.404616773128509521 0.326495766639709473 0.121119283139705658
0.503968894481658936 -0.366835325956344604 -0.00476702349260449409
-0.119391098618507385 0.266548871994018555 0.120738126337528229
0.517952620983123779 -0.342707991600036621 0.0355622097849845886
0.129465937614440918 -0.334253609180450439 0.301025062799453735
0.465840697288513184 -0.31079024076461792 0.0721670389175415039
0.482071012258529663 -0.373748511075973511 0.0520456843078136444
0.4203643798828125 -0.0257682707160711288 0.0644873306155204773
0.493356198072433472 -0.363297551870346069 -0.0158171746879816055
-0.233649849891662598 0.287604868412017822 0.0839587152004241943
0.530454874038696289 -0.331523537635803223 -0.00750701222568750381
-0.272619336843490601 0.315857082605361938 0.113810725510120392
0.307480573654174805 0.00290877721272408962 0.0459369868040084839
0.466618388891220093 -0.263265669345855713 -0.296333163976669312
0.473051100969314575 -0.304058074951171875 0.113938480615615845
0.510392963886260986 -0.313429981470108032 -0.104670777916908264
0.508410096168518066 -0.245223313570022583 -0.308693021535873413
0.447128117084503174 -0.292354017496109009 -0.293016701936721802
0.465579599142074585 -0.283125638961791992 -0.29753577709197998
0.137680351734161377 0.113257855176925659 0.336468309164047241
-0.652722179889678955 0.286097615957260132 0.0979222357273101807
-0.638973534107208252 0.245200842618942261 -0.0383310429751873016
0.135642945766448975 0.0697431266307830811 0.337594091892242432
-0.577762067317962646 0.304187119007110596 -0.0556972622871398926
0.261712849140167236 0.0307864099740982056 -0.0738335177302360535
0.541235029697418213 -0.216464489698410034 0.111253350973129272
-0.360886752605438232 -0.0353900827467441559 -0.13447156548500061
-0.575393021106719971 0.327874481678009033 -0.0297026261687278748
-0.36257055401802063 -0.0705360621213912964 -0.0341173745691776276
-0.131423577666282654 -0.267175406217575073 0.11892092227935791
0.494328349828720093 -0.365589648485183716 -0.000654745555948466063
0.372929841279983521 -0.359190076589584351 -0.210319265723228455
-0.379146307706832886 -0.106484867632389069 0.101211078464984894
-0.0678716748952865601 -0.263625353574752808 0.296295672655105591
0.51909637451171875 -0.243176907300949097 -0.309711575508117676
0.50867915153503418 -0.330322861671447754 0.0149838905781507492
-0.593944847583770752 0.369400709867477417 0.120488323271274567
-0.656059086322784424 0.176033720374107361 -0.10316302627325058
-0.223878219723701477 -0.14376889169216156 -0.0539010539650917053
-0.19192129373550415 0.317095249891281128 0.100515052676200867
0.255856424570083618 -0.28315308690071106 0.319405287504196167
0.238467633724212646 0.0326393768191337585 0.318790286779403687
-0.120951257646083832 -0.0456750057637691498 0.00708778854459524155
-0.642167389392852783 0.309047669172286987 0.101773686707019806
0.363805443048477173 -0.373731642961502075 -0.207232803106307983
0.537028193473815918 -0.217470303177833557 0.161535516381263733
-0.553321897983551025 0.382903814315795898 0.157884940505027771
-0.123178198933601379 0.259765952825546265 0.114871136844158173
0.118713036179542542 0.102889128029346466 0.089123159646987915
-0.376163899898529053 0.266281425952911377 -0.0897560939192771912
0.516113340854644775 -0.348800927400588989 0.0984786376357078552
-0.294371157884597778 -0.106782734394073486 -0.109468445181846619
0.274277687072753906 0.103275366127490997 -0.0580607578158378601
-0.575816512107849121 0.219901785254478455 -0.212797030806541443
-0.116191208362579346 0.269065737724304199 0.179567694664001465
0.235206648707389832 -0.287626147270202637 0.314099133014678955
0.309363514184951782 -0.186984509229660034 0.240711405873298645
0.540991008281707764 -0.325612455606460571 -0.0212021302431821823
0.0781389698386192322 -0.337335497140884399 0.281994044780731201
-0.00730799371376633644 -0.171447485685348511 0.0040257452055811882
-0.282965660095214844 0.262194782495498657 0.00683071417734026909
0.51234734058380127 -0.236948341131210327 -0.309710472822189331
-0.647538721561431885 0.278664678335189819 0.0794431790709495544
-0.646986782550811768 0.183550149202346802 -0.0910103023052215576
0.513320446014404297 -0.322280913591384888 0.0239933393895626068
-0.40767282247543335 -0.0631989836692810059 0.113403782248497009
0.516031086444854736 -0.355478346347808838 -0.020906452089548111
-0.567137062549591064 0.374771028757095337 0.152392268180847168
0.235225871205329895 0.043453514575958252 0.313337564468383789
-0.665449142456054688 0.22752852737903595 0.0229881759732961655
-0.448797374963760376 -0.0380356162786483765 0.126954033970832825
0.502200186252593994 -0.302084833383560181 -0.179155513644218445
-0.589700818061828613 0.361454993486404419 0.0859853550791740417
-0.1947612464427948 0.315371096134185791 0.104634948074817657
0.246240198612213135 0.0243529342114925385 0.32347482442855835
0.530131876468658447 -0.323585033416748047 -0.0583650283515453339
-0.183503523468971252 0.30747908353805542 0.128249913454055786
0.24648033082485199 0.00742685887962579727 0.323608636856079102
0.0579970106482505798 0.140166118741035461 0.345455706119537354
-0.506290555000305176 0.149889454245567322 0.356759458780288696
0.269910484552383423 -0.310912132263183594 0.325948238372802734
-0.254545032978057861 0.0239857658743858337 -0.0709460228681564331
0.240256965160369873 -0.294943362474441528 0.322201192378997803
0.248279392719268799 0.044232342392206192 0.314059853553771973
0.467636376619338989 -0.101701118052005768 0.0342419445514678955
-0.125455856323242188 0.195586755871772766 0.115143850445747375
0.239139720797538757 -0.326270192861557007 0.317656219005584717
0.499450564384460449 -0.366347581148147583 0.0743542090058326721
0.522654891014099121 -0.324485152959823608 0.0259136185050010681
0.44387325644493103 -0.252960830926895142 0.332028031349182129
0.320658564567565918 -0.131185457110404968 -0.107015304267406464
0.0626341328024864197 -0.0102713480591773987 0.321416109800338745
0.510506987571716309 -0.360654145479202271 0.0472187884151935577
0.134843170642852783 -0.100293159484863281 0.040220305323600769
0.0487415716052055359 0.0119730904698371887 0.0294052604585886002
0.0200212914496660233 0.0486715361475944519 0.0422717966139316559
0.0873697102069854736 -0.0656026899814605713 0.289350628852844238
-0.162940040230751038 -0.265269696712493896 0.14781835675239563
0.264179021120071411 -0.0198254082351922989 0.061163727194070816
-0.0296442080289125443 -0.0285498891025781631 0.295302629470825195
0.501410365104675293 -0.240191146731376648 -0.30229651927947998
0.475145518779754639 -0.314811438322067261 -0.302221566438674927
-0.63145214319229126 0.306703269481658936 0.167272955179214478
0.474689275026321411 -0.320571839809417725 0.120706252753734589
0.508305788040161133 -0.300657123327255249 -0.105836033821105957
0.527463793754577637 -0.274769365787506104 -0.317458271980285645
0.492765158414840698 -0.33228030800819397 -0.310966312885284424
0.502743005752563477 -0.31990090012550354 0.0977052822709083557
0.473393112421035767 -0.30564582347869873 -0.298377484083175659
-0.559850692749023438 0.268549263477325439 0.364406049251556396
0.124356828629970551 0.117313392460346222 0.313886284828186035
-0.634138286113739014 0.282636046409606934 0.0541690662503242493
-0.587881684303283691 0.363212317228317261 0.102328486740589142
0.370648384094238281 -0.373887717723846436 -0.213009372353553772
0.437666028738021851 -0.347734570503234863 0.15403418242931366
0.0574710927903652191 0.121790178120136261 0.320829629898071289
-0.575068295001983643 0.369254559278488159 0.215456351637840271
0.263971298933029175 0.0248982012271881104 -0.0590353049337863922
0.367981880903244019 -0.336531132459640503 0.160318136215209961
0.509748935699462891 -0.301378160715103149 -0.112283468246459961
0.132748693227767944 -0.3203144371509552 -0.0980074852705001831
0.515810668468475342 -0.348603487014770508 -0.0205644611269235611
0.388459950685501099 -0.346618473529815674 -0.214370399713516235
-0.577575862407684326 0.319484710693359375 0.040676213800907135
0.535284221172332764 -0.277740567922592163 -0.320859342813491821
0.46709972620010376 -0.310780763626098633 -0.299513012170791626
0.506430208683013916 -0.346933484077453613 0.0176497921347618103
-0.556444644927978516 0.310146719217300415 0.102158926427364349
0.193027138710021973 -0.339093595743179321 -0.0594154298305511475
0.0692482814192771912 -0.281923234462738037 -0.0781197249889373779
0.251735121011734009 -0.249997407197952271 0.319868296384811401
0.239260971546173096 0.0312809422612190247 0.316567748785018921
-0.121812619268894196 -0.0474736690521240234 0.00794283300638198853
0.17797011137008667 -0.0998820215463638306 -0.0151105187833309174
0.531716585159301758 -0.332131415605545044 -0.0134449219331145287
0.369522631168365479 -0.349337339401245117 -0.20914950966835022
0.534279882907867432 -0.245631873607635498 0.176954254508018494
0.560419082641601562 -0.315693467855453491 -0.331176310777664185
0.553859591484069824 -0.211525589227676392 0.133605107665061951
-0.543784618377685547 0.381209760904312134 0.164424389600753784
0.12222936749458313 0.117555432021617889 0.13280092179775238
-0.582767844200134277 0.352335363626480103 0.0977180004119873047
-0.48221394419670105 0.186358839273452759 -0.0916584208607673645
0.514893293380737305 -0.339004307985305786 0.0385536476969718933
0.252738684415817261 -0.278926342725753784 0.321690678596496582
0.27766871452331543 -0.355774760246276855 -0.126316756010055542
0.507175683975219727 -0.286549746990203857 -0.313932031393051147
-0.432798534631729126 -0.0568781383335590363 0.116632230579853058
0.201330900192260742 0.0908359959721565247 0.223028019070625305
0.243616297841072083 0.104791723191738129 -0.057617727667093277
-0.196253970265388489 0.201992452144622803 0.349114060401916504
0.249822512269020081 0.0252383556216955185 0.322997361421585083
0.239177659153938293 0.0193353686481714249 0.320694327354431152
-0.0320081226527690887 0.163153648376464844 0.382427573204040527
-0.483105272054672241 -0.0153034664690494537 0.180127069354057312
0.483070105314254761 -0.368918150663375854 0.0457998588681221008
-0.644056022167205811 0.287478864192962646 0.086161099374294281
0.275178015232086182 -0.165627822279930115 -0.0707944482564926147
-0.41248205304145813 -0.056552492082118988 0.0788417458534240723
-0.643644154071807861 0.176021337509155273 -0.082091107964515686
-0.226715102791786194 -0.133661046624183655 -0.0523614585399627686
0.254244029521942139 -0.265335291624069214 0.320850878953933716
-0.346056550741195679 0.0176145974546670914 -0.117039479315280914
-0.287893027067184448 -0.0912879481911659241 -0.106642641127109528
-0.585716724395751953 0.210110902786254883 -0.218102708458900452
0.266893386840820312 -0.296805739402770996 0.314926236867904663
-0.0264142025262117386 -0.187011897563934326 -0.0436644032597541809
-0.618627548217773438 0.277276039123535156 0.0313401520252227783
-0.609377801418304443 0.298607796430587769 0.0924309641122817993
-0.398216277360916138 -0.0625501349568367004 0.11882193386554718
-0.452335327863693237 -0.0378660596907138824 0.119438529014587402
0.430443465709686279 -0.271592170000076294 0.328906118869781494
-0.0530813559889793396 0.141159415245056152 0.0914722159504890442
-0.503556549549102783 0.15151447057723999 0.355374664068222046
0.240104213356971741 -0.319093942642211914 0.322553396224975586
0.496457517147064209 -0.370738685131072998 0.0571188405156135559
0.398629724979400635 -0.25670236349105835 0.322183430194854736
-0.159074634313583374 -0.263257861137390137 0.181449174880981445
-0.499769091606140137 0.0143427103757858276 0.15804821252822876
0.416914403438568115 -0.297223776578903198 0.328458547592163086
0.534640252590179443 -0.340122640132904053 -0.0186720937490463257
0.343527942895889282 -0.267318695783615112 -0.128111898899078369
-0.497039616107940674 0.0723198875784873962 0.203944161534309387
0.442991197109222412 -0.272039353847503662 0.333132833242416382
0.521375894546508789 -0.335320353507995605 0.032557215541601181
0.45265236496925354 -0.319911271333694458 -0.293254852294921875
0.473570644855499268 -0.311585187911987305 0.116443365812301636
0.516561508178710938 -0.278438746929168701 -0.313044279813766479
0.501982271671295166 -0.325966298580169678 -0.314531713724136353
0.517471730709075928 -0.327027291059494019 0.10167134553194046
0.47862553596496582 -0.311447769403457642 -0.302392274141311646
0.11394800990819931 0.118921101093292236 0.288747310638427734
-0.122511856257915497 0.269002586603164673 0.158581599593162537
-0.615372896194458008 0.265756726264953613 0.0520476363599300385
-0.479978293180465698 0.00337428716011345387 0.181308269500732422
0.425995737314224243 -0.35492396354675293 0.158316090703010559
-0.293068438768386841 -0.110366038978099823 -0.105892591178417206
0.12988579273223877 0.0658213794231414795 0.320959895849227905
0.253040075302124023 0.0388204902410507202 -0.0781484916806221008
0.234834328293800354 0.0940251126885414124 -0.0534354336559772491
0.416966795921325684 -0.261539667844772339 -0.20259954035282135
0.521023869514465332 -0.35460236668586731 -0.0196882970631122589
-0.60938185453414917 0.381411045789718628 0.18121550977230072
0.516912937164306641 -0.279339760541915894 -0.314966171979904175
0.498449206352233887 -0.349941879510879517 0.0238408464938402176
-0.588362932205200195 0.369587749242782593 0.113013669848442078
0.505377888679504395 -0.104623652994632721 0.146961048245429993
-0.198618292808532715 0.31190866231918335 0.112756699323654175
0.263345658779144287 -0.286389082670211792 0.319515705108642578
0.236304774880409241 0.0623928867280483246 0.310227125883102417
-0.145248770713806152 -0.0432144366204738617 0.00401459354907274246
-0.658378243446350098 0.21492670476436615 -0.046245671808719635
-0.289340823888778687 -0.0757301375269889832 -0.0687396526336669922
0.226562470197677612 0.0423200130462646484 -0.0484927333891391754
0.550949692726135254 -0.144401982426643372 0.131731778383255005
0.519121468067169189 -0.295299500226974487 0.074638761579990387
0.516921520233154297 -0.284061908721923828 -0.181420758366584778
-0.358770042657852173 -0.0168376006186008453 -0.028042154386639595
0.0908139348030090332 0.0884860605001449585 0.0854910910129547119
0.4659462571144104 -0.361845940351486206 -0.0109080495312809944
-0.433575212955474854 0.158022463321685791 -0.0665802806615829468
0.523144841194152832 -0.335582882165908813 0.0686544030904769897
0.262205183506011963 -0.28575742244720459 0.318239122629165649
0.00856509339064359665 -0.0907425656914710999 -0.0263343621045351028
0.0317535474896430969 -0.130138888955116272 0.0216521788388490677
-0.631292819976806641 0.26525917649269104 0.0290027186274528503
0.241515889763832092 0.0745616182684898376 0.318492084741592407
0.239568561315536499 0.029805794358253479 0.318581193685531616
-0.175412937998771667 0.301186531782150269 0.116125114262104034
0.303949326276779175 -0.151111885905265808 0.307506591081619263
0.261239141225814819 -0.290559381246566772 0.32072564959526062
-0.476818680763244629 -0.00790309533476829529 0.166178479790687561
0.242152735590934753 0.0819982066750526428 0.311848700046539307
0.519563972949981689 -0.351233690977096558 0.0816906467080116272
-0.0357093177735805511 -0.237340450286865234 0.123923167586326599
-0.638867974281311035 0.290264904499053955 0.0987895801663398743
-0.235028818249702454 -0.132635876536369324 -0.0581441521644592285
-0.379990994930267334 -0.108567520976066589 0.10547512024641037
-0.237240448594093323 -0.14766208827495575 -0.057986527681350708
-0.658586680889129639 0.214622825384140015 -0.0339484438300132751
0.528206586837768555 -0.352567970752716064 0.0776353031396865845
-0.621729552745819092 0.270530194044113159 0.0524442568421363831
-0.404837518930435181 -0.0640954673290252686 0.11199776828289032
-0.446997016668319702 -0.0412532240152359009 0.121942214667797089
0.267309814691543579 -0.285451978445053101 0.323198527097702026
0.126891240477561951 -0.326410442590713501 0.312357395887374878
0.151549175381660461 -0.342911303043365479 0.317623913288116455
0.44697454571723938 -0.335669428110122681 -0.293225079774856567
0.515055060386657715 -0.302955776453018188 -0.10820307582616806
0.51453244686126709 -0.28031042218208313 -0.313062489032745361
0.484137773513793945 -0.327731162309646606 -0.310016721487045288
0.463597476482391357 -0.345936954021453857 -0.302891552448272705
0.548924267292022705 -0.210282459855079651 -0.316228866577148438
0.523400425910949707 -0.300098568201065063 -0.322705090045928955
0.517261803150177002 -0.300908416509628296 -0.31860274076461792
0.246228635311126709 0.0572770647704601288 0.316085577011108398
0.240723952651023865 0.0877528637647628784 0.312416136264801025
-0.292519807815551758 -0.10036594420671463 -0.102027960121631622
-0.454258501529693604 -0.0517383702099323273 0.117039091885089874
0.404098421335220337 -0.27212834358215332 0.322228699922561646
-0.503022432327270508 0.00404256582260131836 0.189092919230461121
0.40038648247718811 -0.287109673023223877 0.324546366930007935
0.398536920547485352 -0.273422896862030029 0.323024749755859375
0.341476142406463623 -0.258846402168273926 0.0898289531469345093
-0.0196131151169538498 -0.244133904576301575 0.128492370247840881
-0.465120375156402588 0.0362677089869976044 0.189503729343414307
-0.195017114281654358 0.221943080425262451 0.171888425946235657
0.366052329540252686 -0.329198569059371948 -0.023771282285451889
0.322571754455566406 -0.390052706003189087 -0.159110546112060547
0.534727692604064941 -0.323593169450759888 -0.0584655553102493286
-0.442413002252578735 -0.00446112919598817825 0.15264931321144104
-0.0198900364339351654 -0.0592265278100967407 0.141523435711860657
-0.0010661084670573473 -0.235869303345680237 0.106206372380256653
0.525530099868774414 -0.201769009232521057 -0.0803107321262359619
0.449040025472640991 -0.308355480432510376 -0.293115556240081787
0.526134788990020752 -0.275471389293670654 -0.315913379192352295
0.499176055192947388 -0.32491573691368103 -0.312902390956878662
0.474473387002944946 -0.305075466632843018 -0.297630190849304199
-0.128089815378189087 0.246964126825332642 0.138765066862106323
-0.649569988250732422 0.282279789447784424 0.0941787213087081909
-0.199534043669700623 0.287033736705780029 0.33573991060256958
0.497360795736312866 -0.0866385102272033691 0.136323139071464539
0.19987092912197113 -0.359026402235031128 -0.0910317152738571167
0.504685342311859131 -0.367625176906585693 -0.0229468792676925659
0.526594758033752441 -0.242576539516448975 0.172656968235969543
-0.586497187614440918 0.379633933305740356 0.170607566833496094
0.444252341985702515 -0.314945876598358154 -0.287990093231201172
0.497928321361541748 -0.11100991815328598 0.111842401325702667
-0.656438052654266357 0.175717726349830627 -0.103859968483448029
-0.202601313591003418 0.309099644422531128 0.0889688953757286072
0.200627371668815613 -0.0133339567109942436 0.294966697692871094
0.159248039126396179 -0.0619608573615550995 -0.0443405583500862122
-0.580075681209564209 0.302585691213607788 0.368617117404937744
0.274378031492233276 0.098519250750541687 -0.0294874943792819977
-0.435951292514801025 0.155719682574272156 -0.0861053615808486938
0.53374636173248291 -0.33298221230506897 0.0124954357743263245
-0.569438517093658447 0.197565272450447083 -0.229189246892929077
-0.498333990573883057 0.0452814064919948578 -0.0869115442037582397
0.0306254830211400986 -0.103737249970436096 0.0327995792031288147
0.533393323421478271 -0.264511525630950928 -0.316560685634613037
0.0091251228004693985 0.197956174612045288 0.0273135341703891754
0.301448613405227661 0.039001166820526123 -0.0848361551761627197
-0.33290565013885498 -0.0157045312225818634 -0.107800908386707306
0.235836997628211975 0.0146940415725111961 0.32150152325630188
0.124397620558738708 0.0133003974333405495 0.298693984746932983
0.526822328567504883 -0.355087786912918091 0.0660839453339576721
0.466346263885498047 -0.309828817844390869 -0.233365312218666077
-0.652546525001525879 0.285620689392089844 0.104287087917327881
0.545944631099700928 -0.21985742449760437 0.163214057683944702
0.527341485023498535 -0.323313206434249878 -0.0162924136966466904
-0.383668839931488037 -0.0560875684022903442 0.0761688277125358582
0.456164449453353882 -0.310837924480438232 -0.292811810970306396
0.504253268241882324 -0.339838862419128418 -0.318134099245071411
0.478092879056930542 -0.314322590827941895 -0.299751102924346924
0.519670367240905762 -0.301313072443008423 -0.317566841840744019
-0.00307284225709736347 -0.139726057648658752 -0.0249937903136014938
0.396870553493499756 -0.272980421781539917 0.323199927806854248
0.400542765855789185 -0.271407872438430786 0.323504477739334106
0.505409061908721924 -0.3318825364112854 0.105597667396068573
-0.468118458986282349 0.0428029410541057587 0.170617938041687012
0.409321248531341553 -0.345739066600799561 0.15633644163608551
-0.361500859260559082 -0.0350029058754444122 -0.14817415177822113
-0.128961473703384399 -0.267414003610610962 0.112283475697040558
0.511908292770385742 -0.368962019681930542 -0.0148904519155621529
-0.214219674468040466 0.312904596328735352 0.0975072085857391357
0.249908432364463806 -0.286895751953125 0.322667419910430908
0.208252981305122375 0.00962321925908327103 -0.0464099198579788208
0.0692045539617538452 -0.151262864470481873 -0.017430109903216362
-0.170252516865730286 0.305139005184173584 0.118686817586421967
0.470401912927627563 -0.36426091194152832 0.00681352056562900543
-0.291640132665634155 -0.0991564393043518066 -0.103286013007164001
0.0356934405863285065 -0.149417772889137268 -0.0218854509294033051
0.231597781181335449 0.0565121546387672424 0.308914005756378174
0.252713918685913086 -0.288458645343780518 0.320448338985443115
-0.472231417894363403 0.00149421126116067171 0.16864188015460968
0.24042142927646637 0.0629641562700271606 0.312808990478515625
0.508291840553283691 -0.351928174495697021 0.0637303739786148071
0.226730972528457642 -0.314601391553878784 0.314362287521362305
-0.375990986824035645 -0.0928224846720695496 0.0861588567495346069
-0.0633534938097000122 -0.241340935230255127 0.302408546209335327
-0.223381191492080688 -0.127373114228248596 -0.0532101914286613464
-0.410456418991088867 -0.0651115924119949341 0.0984930023550987244
-0.445539563894271851 -0.0443750433623790741 0.132715284824371338
0.238296180963516235 -0.293837070465087891 0.314228564500808716
0.153225794434547424 -0.324113726615905762 0.319933325052261353
0.424693107604980469 -0.255894124507904053 0.328346788883209229
0.437520682811737061 -0.342894285917282104 -0.292877733707427979
0.505674123764038086 -0.334541082382202148 -0.318279951810836792
0.444371283054351807 -0.352240949869155884 -0.286933690309524536
0.237688526511192322 0.0660291761159896851 0.312088936567306519
0.402614891529083252 -0.287338823080062866 0.325670510530471802
-0.495242506265640259 0.00707928184419870377 0.188377171754837036
0.485211789608001709 -0.0630702748894691467 0.131444990634918213
0.011809222400188446 -0.170442551374435425 0.00969208031892776489
0.53092801570892334 -0.307527393102645874 -0.0624347217381000519
0.314071416854858398 -0.302138179540634155 -0.127030164003372192
0.445225656032562256 -0.291286289691925049 -0.285857021808624268
-0.337318241596221924 0.225094005465507507 0.125655993819236755
-0.401391863822937012 -0.0278264470398426056 -0.00193438283167779446
0.40252918004989624 -0.271551132202148438 0.323887676000595093
-0.133736714720726013 0.196182951331138611 0.167605012655258179
0.398577570915222168 -0.27148708701133728 0.323701381683349609
-0.447028040885925293 -0.0246004723012447357 0.021403169259428978
-0.138388663530349731 0.245243877172470093 0.19156259298324585
-0.613086819648742676 0.294384568929672241 0.183744937181472778
0.124070815742015839 0.116445831954479218 0.31647568941116333
-0.121335223317146301 0.250971466302871704 0.161687940359115601
-0.58361351490020752 0.34849393367767334 0.0581253841519355774
0.426238089799880981 -0.347916662693023682 0.152820274233818054
-0.5670967698097229 0.295398682355880737 -0.0690214782953262329
0.251292645931243896 0.0269501153379678726 -0.0798707827925682068
0.247137889266014099 0.100639142096042633 -0.04866008460521698
-0.357982397079467773 -0.0553561076521873474 -0.141908317804336548
0.198214247822761536 0.120516061782836914 0.0354757159948348999
0.54507756233215332 -0.131346017122268677 0.111727423965930939
-0.581962883472442627 0.322096526622772217 -0.0228709466755390167
0.205627948045730591 0.0250042099505662918 0.176596552133560181
-0.59558945894241333 0.375507742166519165 0.172019258141517639
0.444224387407302856 -0.319011509418487549 0.1271505206823349
0.254517555236816406 -0.278422147035598755 0.316291004419326782
0.235056474804878235 0.0241320300847291946 0.316345423460006714
-0.363394021987915039 -0.0493503287434577942 -0.0238082427531480789
-0.183097362518310547 0.118569031357765198 0.0421812981367111206
0.254230648279190063 -0.287863343954086304 0.319108337163925171
0.241498038172721863 0.0335054658353328705 0.321606606245040894
0.39936557412147522 0.0236000698059797287 0.114868663251399994
-0.34102863073348999 -0.065712466835975647 -0.147359445691108704
0.075204312801361084 -0.332585275173187256 0.298830151557922363
-0.387188583612442017 -0.0603372640907764435 0.093803703784942627
-0.448571532964706421 -0.0408496223390102386 0.127725616097450256
0.438840329647064209 -0.279026299715042114 0.333420693874359131
