ply
format ascii 1.0
element vertex 737
property float x
property float y
property float z
end_header
0.524187088012695312 -0.335888296365737915 0.0692675486207008362
0.263326168060302734 -0.286295175552368164 0.318798422813415527
0.00946881156414747238 -0.0913306251168251038 -0.0258667804300785065
0.0326928049325942993 -0.130746603012084961 0.0221237987279891968
-0.631249904632568359 0.264752000570297241 0.0290352776646614075
0.242531955242156982 0.0740568563342094421 0.319237381219863892
0.240605711936950684 0.0292922724038362503 0.319303125143051147
-0.17505510151386261 0.300577163696289062 0.116526298224925995
0.305066436529159546 -0.15160369873046875 0.308182507753372192
0.262359142303466797 -0.291097760200500488 0.321280390024185181
-0.476714760065078735 -0.00860514398664236069 0.166209891438484192
0.243168085813522339 0.0814959555864334106 0.312600165605545044
0.520611226558685303 -0.351547867059707642 0.0822964459657669067
-0.0348564572632312775 -0.238031744956970215 0.124251693487167358
-0.638859570026397705 0.289760798215866089 0.0987907275557518005
-0.234501302242279053 -0.133277520537376404 -0.0579517818987369537
-0.379718482494354248 -0.109266027808189392 0.10553615540266037
-0.236711576581001282 -0.148306086659431458 -0.0578083805739879608
-0.658504307270050049 0.214127987623214722 -0.0339129827916622162
0.529242873191833496 -0.352877110242843628 0.0782359391450881958
-0.621699094772338867 0.270011872053146362 0.0524714849889278412
-0.404611647129058838 -0.0647936686873435974 0.112065941095352173
-0.446826905012130737 -0.0419473834335803986 0.121987387537956238
0.268431156873703003 -0.285985022783279419 0.323760956525802612
0.12791500985622406 -0.327055126428604126 0.312760978937149048
0.152597010135650635 -0.343537688255310059 0.318042635917663574
0.448041617870330811 -0.335897475481033325 -0.292735964059829712
0.516086041927337646 -0.303197920322418213 -0.107612386345863342
0.515510737895965576 -0.280493885278701782 -0.312558978796005249
0.485155940055847168 -0.327937960624694824 -0.309538394212722778
0.464644759893417358 -0.346157103776931763 -0.302417874336242676
0.54986041784286499 -0.210433438420295715 -0.315682739019393921
0.5243644118309021 -0.30028197169303894 -0.322227209806442261
0.518235087394714355 -0.301094949245452881 -0.318120390176773071
0.247257515788078308 0.0567744635045528412 0.316827684640884399
0.241734832525253296 0.0872501879930496216 0.313168585300445557
-0.292085766792297363 -0.100993767380714417 -0.101861678063869476
-0.454087316989898682 -0.0524298176169395447 0.117074534296989441
0.405204951763153076 -0.272561073303222656 0.322879284620285034
-0.502942860126495361 0.00334719126112759113 0.189110830426216125
0.401497513055801392 -0.287545263767242432 0.325186491012573242
0.399647355079650879 -0.273858964443206787 0.323672831058502197
0.342670261859893799 -0.259259581565856934 0.0904913395643234253
-0.0187337808310985565 -0.244823217391967773 0.128831416368484497
-0.465030074119567871 0.0355553068220615387 0.189560860395431519
-0.194673731923103333 0.221260011196136475 0.172255456447601318
0.367244631052017212 -0.329556405544281006 -0.0231619980186223984
0.323764234781265259 -0.390403807163238525 -0.158613219857215881
0.535744190216064453 -0.323848336935043335 -0.0578796304762363434
-0.442270427942276001 -0.00516660185530781746 0.152711153030395508
-0.0190779436379671097 -0.0598825849592685699 0.141975775361061096
-0.000155665999045595527 -0.236546352505683899 0.106571823358535767
0.526547074317932129 -0.201997831463813782 -0.0796339213848114014
0.450102895498275757 -0.30857616662979126 -0.292604386806488037
0.527097702026367188 -0.275648891925811768 -0.31541287899017334
0.500174999237060547 -0.325115621089935303 -0.312428444623947144
0.47550886869430542 -0.305280774831771851 -0.297121554613113403
-0.127637296915054321 0.246333673596382141 0.139211848378181458
-0.649560034275054932 0.281794190406799316 0.0941674411296844482
-0.199265941977500916 0.286346703767776489 0.336090654134750366
0.498410433530807495 -0.0869386047124862671 0.137130141258239746
0.201055213809013367 -0.359513610601425171 -0.0905796736478805542
0.505746304988861084 -0.36791113018989563 -0.0223662424832582474
0.527613580226898193 -0.242906689643859863 0.173339486122131348
-0.586564719676971436 0.379100948572158813 0.170600071549415588
0.445322394371032715 -0.315171897411346436 -0.287481218576431274
0.49898490309715271 -0.111302122473716736 0.112637147307395935
-0.656327486038208008 0.175235465168952942 -0.103821225464344025
-0.202273711562156677 0.308497399091720581 0.089349009096622467
0.201672449707984924 -0.0138962510973215103 0.295641332864761353
0.160330444574356079 -0.0624481812119483948 -0.0436917692422866821
-0.580126166343688965 0.301991462707519531 0.368669033050537109
0.275482505559921265 0.0981646478176116943 -0.0286336876451969147
-0.435782581567764282 0.155103296041488647 -0.0859667882323265076
0.534773170948028564 -0.333262830972671509 0.0130964387208223343
-0.569317817687988281 0.197100847959518433 -0.229142874479293823
-0.498175144195556641 0.0446709729731082916 -0.0868651643395423889
0.0315552540123462677 -0.104342125356197357 0.0332877673208713531
0.534347295761108398 -0.264683634042739868 -0.316054701805114746
0.00985999125987291336 0.197410792112350464 0.0279293861240148544
0.302589565515518188 0.0386741235852241516 -0.0840091556310653687
-0.332557260990142822 -0.0163285601884126663 -0.107645176351070404
0.236877799034118652 0.0141741307452321053 0.322211772203445435
0.125336587429046631 0.0126819517463445663 0.299295604228973389
0.52786022424697876 -0.35539400577545166 0.0666819363832473755
0.467409729957580566 -0.310057133436203003 -0.232825875282287598
-0.652540266513824463 0.285136222839355469 0.104271814227104187
0.546940386295318604 -0.220170408487319946 0.163906276226043701
0.528372645378112793 -0.323584973812103271 -0.0156891867518424988
-0.383412629365921021 -0.0567769929766654968 0.0762610957026481628
0.457220524549484253 -0.311055511236190796 -0.292303144931793213
0.505244672298431396 -0.340039312839508057 -0.317676514387130737
0.479122370481491089 -0.314529746770858765 -0.299253642559051514
0.5206412672996521 -0.301498949527740479 -0.31708526611328125
-0.00217680050991475582 -0.140332251787185669 -0.0245711375027894974
0.397981971502304077 -0.273417502641677856 0.323847711086273193
0.401651173830032349 -0.271842688322067261 0.32415422797203064
0.506471812725067139 -0.332208961248397827 0.106224119663238525
-0.468025654554367065 0.0420981310307979584 0.170674771070480347
0.410479098558425903 -0.346141010522842407 0.156960949301719666
-0.361174464225769043 -0.0356114879250526428 -0.148076444864273071
-0.128246396780014038 -0.26812097430229187 0.112500578165054321
0.512960731983184814 -0.369247972965240479 -0.0143111292272806168
-0.213913232088088989 0.312296479940414429 0.0978709310293197632
0.251020312309265137 -0.287444084882736206 0.323213398456573486
0.209356635808944702 0.00919340457767248154 -0.0456643030047416687
0.0702029243111610413 -0.151844263076782227 -0.0169368926435709
-0.169889286160469055 0.30453181266784668 0.119092188775539398
0.471520364284515381 -0.364569097757339478 0.00742253847420215607
-0.29120519757270813 -0.0997835397720336914 -0.103118032217025757
0.0366463176906108856 -0.150012165307998657 -0.0214283745735883713
0.232619211077690125 0.0559956841170787811 0.309643954038619995
0.253828674554824829 -0.289004594087600708 0.320996582508087158
-0.472133874893188477 0.000788204895798116922 0.168678611516952515
0.241444632411003113 0.0624570287764072418 0.313549339771270752
0.509353101253509521 -0.352241158485412598 0.0643377304077148438
0.227835372090339661 -0.315170407295227051 0.314872413873672485
-0.375718891620635986 -0.0935124382376670837 0.086228594183921814
-0.0625960752367973328 -0.242055252194404602 0.302692025899887085
-0.222838073968887329 -0.128014594316482544 -0.0530003383755683899
-0.410231411457061768 -0.0658053457736968994 0.0985565632581710815
-0.445369720458984375 -0.0450727380812168121 0.132760137319564819
0.239405184984207153 -0.294396370649337769 0.314761877059936523
0.154271677136421204 -0.324739694595336914 0.320364087820053101
0.425778895616531372 -0.256314367055892944 0.329011082649230957
0.438598573207855225 -0.343128412961959839 -0.292393028736114502
0.506663382053375244 -0.334739834070205688 -0.317819029092788696
0.44544646143913269 -0.352474302053451538 -0.286452800035476685
0.238708555698394775 0.0655198469758033752 0.312828361988067627
0.40372389554977417 -0.287773102521896362 0.326310843229293823
-0.495167404413223267 0.00637746881693601608 0.188399463891983032
0.486270397901535034 -0.0633710548281669617 0.132268473505973816
0.0127336662262678146 -0.17107042670249939 0.0101179610937833786
0.531947195529937744 -0.307779639959335327 -0.0618368387222290039
0.3152637779712677 -0.302498400211334229 -0.12646213173866272
0.446294605731964111 -0.291506290435791016 -0.285326957702636719
-0.337155342102050781 0.224407315254211426 0.125871419906616211
-0.401148289442062378 -0.0284940768033266068 -0.00183945521712303162
0.403636068105697632 -0.271984785795211792 0.324537783861160278
-0.13327452540397644 0.195511847734451294 0.168037474155426025
0.399687290191650391 -0.271923065185546875 0.324350416660308838
-0.446836084127426147 -0.0252670682966709137 0.0214585866779088974
-0.137973740696907043 0.244584664702415466 0.191985756158828735
-0.613117516040802002 0.293832182884216309 0.183739364147186279
0.124943986535072327 0.115840613842010498 0.317116677761077881
-0.120884649455547333 0.250334233045578003 0.162135660648345947
-0.583612561225891113 0.347977280616760254 0.0581656880676746368
0.427380412817001343 -0.348307311534881592 0.153445422649383545
-0.567035555839538574 0.294894516468048096 -0.0689415037631988525
0.252420395612716675 0.0265752300620079041 -0.0790836364030838013
0.248220056295394897 0.100268200039863586 -0.0478315688669681549
-0.357644349336624146 -0.0559680014848709106 -0.141818076372146606
0.199240297079086304 0.120074532926082611 0.036270488053560257
0.546081483364105225 -0.131618678569793701 0.112488307058811188
-0.581922233104705811 0.321594119071960449 -0.0228039436042308807
0.206694290041923523 0.0244914069771766663 0.1773243248462677
-0.59564739465713501 0.374978035688400269 0.172014668583869934
0.445350944995880127 -0.319376826286315918 0.12779603898525238
0.255633443593978882 -0.27896687388420105 0.316848009824752808
0.236094072461128235 0.0236133243888616562 0.317061066627502441
-0.363088250160217285 -0.050009656697511673 -0.0236905757337808609
-0.18262772262096405 0.117921359837055206 0.0425714626908302307
0.255346804857254028 -0.288408041000366211 0.31965869665145874
0.2425336092710495 0.0329941511154174805 0.32233119010925293
0.400478124618530273 0.0232742708176374435 0.115733273327350616
-0.340664505958557129 -0.0663214623928070068 -0.147260934114456177
0.0761783421039581299 -0.333259910345077515 0.299180924892425537
-0.386940270662307739 -0.0610313825309276581 0.0938890352845191956
-0.448404788970947266 -0.0415450930595397949 0.127769649028778076
0.43991696834564209 -0.279440551996231079 0.334073185920715332
0.03479786217212677 -0.123055346310138702 -0.025326194241642952
0.414894670248031616 -0.280902355909347534 0.327414333820343018
0.433592826128005981 -0.29619559645652771 0.333567291498184204
0.368469178676605225 -0.27876850962638855 -0.129898935556411743
-0.477703094482421875 0.00121828459668904543 0.188348904252052307
-0.29161834716796875 -0.0964915528893470764 -0.104449659585952759
0.241958126425743103 -0.313186734914779663 0.310001999139785767
0.473741143941879272 -0.354290783405303955 0.00743162119761109352
-0.296451777219772339 -0.0967404618859291077 -0.106910824775695801
0.245317071676254272 -0.288762509822845459 0.320405244827270508
0.0626979470252990723 -0.329965353012084961 0.297258943319320679
0.158485531806945801 -0.267901211977005005 -0.105244092643260956
0.250747829675674438 0.0632715374231338501 0.315979719161987305
-0.482747048139572144 -0.00812488794326782227 0.177971258759498596
0.23687782883644104 0.0664353519678115845 0.315328806638717651
0.239292711019515991 -0.331997513771057129 0.321717381477355957
-0.382397353649139404 -0.0921911299228668213 0.0367875881493091583
-0.216093391180038452 -0.140252843499183655 -0.0542374439537525177
-0.382840335369110107 -0.0638379976153373718 0.0836066156625747681
0.150477945804595947 -0.331852853298187256 0.332145035266876221
0.446434527635574341 -0.279970377683639526 0.333997070789337158
0.408009916543960571 -0.280616223812103271 0.325526446104049683
-0.502253472805023193 0.00636191200464963913 0.188710764050483704
-0.322015643119812012 0.0970597937703132629 -0.0701133161783218384
0.533052384853363037 -0.207532823085784912 -0.0522099211812019348
0.451483398675918579 -0.293943315744400024 -0.290218621492385864
0.487914621829986572 -0.325288891792297363 -0.310667991638183594
0.446926712989807129 -0.309791862964630127 -0.290593445301055908
-0.577976226806640625 0.268983155488967896 0.365862786769866943
-0.461642414331436157 0.105650626122951508 -0.230993986129760742
0.37546151876449585 -0.318815082311630249 0.199476465582847595
-0.590007007122039795 0.366732627153396606 0.131247743964195251
0.393111228942871094 -0.353519082069396973 -0.21722140908241272
0.441626012325286865 -0.310336202383041382 -0.288802534341812134
-0.200655370950698853 0.305223166942596436 0.0952110514044761658
-0.155439794063568115 0.267702609300613403 0.151927903294563293
0.530344069004058838 -0.338518083095550537 0.0721809417009353638
0.464353621006011963 -0.266184180974960327 -0.217361032962799072
-0.633724093437194824 0.275521039962768555 0.107042007148265839
0.438949614763259888 -0.308629095554351807 -0.286971718072891235
0.515951454639434814 -0.277237117290496826 -0.316610276699066162
0.517059147357940674 -0.340391069650650024 -0.320561528205871582
0.454885125160217285 -0.307103931903839111 -0.293027967214584351
0.4914683997631073 -0.322013586759567261 0.094762168824672699
0.0209471490234136581 -0.276031255722045898 -0.0183708500117063522
-0.654261171817779541 0.171772181987762451 -0.108103163540363312
-0.224724218249320984 0.318314284086227417 0.121582664549350739
0.465918004512786865 -0.364177078008651733 0.00625986512750387192
0.481638491153717041 -0.336896061897277832 0.0506415367126464844
0.511965274810791016 -0.339451998472213745 -0.319218486547470093
0.440703839063644409 -0.356628686189651489 -0.297413617372512817
-0.270080775022506714 0.321789264678955078 0.0420901402831077576
0.424678772687911987 -0.313355952501296997 -0.281666815280914307
0.416092902421951294 -0.29536139965057373 0.328853368759155273
-0.326189041137695312 -0.0756623446941375732 0.123567543923854828
-0.367015302181243896 -0.0669896528124809265 0.15475192666053772
-0.338409096002578735 0.214569389820098877 0.133006080985069275
0.0104105230420827866 0.119198955595493317 0.10551820695400238
0.542547404766082764 -0.309248864650726318 -0.0458686612546443939
0.0139726577326655388 -0.262028604745864868 0.0397252403199672699
-0.0032282720785588026 -0.236819788813591003 0.0944809466600418091
0.000534207560122013092 -0.219851955771446228 0.0817535072565078735
0.465496450662612915 -0.361038774251937866 0.0306604932993650436
-0.269412636756896973 -0.138315483927726746 0.17758689820766449
-0.345197767019271851 -0.0661592334508895874 0.141355216503143311
0.123946510255336761 -0.276925206184387207 0.129258543252944946
-0.133743166923522949 0.0785697773098945618 0.0905556455254554749
0.464111775159835815 -0.0544662661850452423 0.0180652327835559845
-0.0138231245800852776 -0.217166855931282043 0.0805857181549072266
-0.554987251758575439 0.391426980495452881 0.147775262594223022
0.497162580490112305 -0.366896867752075195 0.00558130722492933273
-0.610946953296661377 0.293828755617141724 0.186543405055999756
0.530475854873657227 -0.275297284126281738 -0.317450493574142456
0.370977997779846191 -0.264765650033950806 0.181924924254417419
0.420938223600387573 -0.344624429941177368 0.1512136310338974
0.252561390399932861 0.0390748754143714905 -0.0662098079919815063
0.549974560737609863 -0.150016888976097107 0.124665141105651855
-0.570777952671051025 0.283863037824630737 -0.00630449270829558372
0.501427292823791504 -0.36274680495262146 -0.000951186579186469316
0.208777233958244324 0.115538626909255981 -0.00996910594403743744
-0.289260923862457275 -0.0858773738145828247 -0.0662915855646133423
0.159711450338363647 -0.0834190398454666138 -0.0357818007469177246
-0.340056359767913818 -0.105737797915935516 0.141381710767745972
0.511495590209960938 -0.281466513872146606 -0.312962800264358521
-0.339388042688369751 -0.0798978805541992188 0.0387200787663459778
-0.369520425796508789 0.280525058507919312 -0.0624116621911525726
0.510378360748291016 -0.341093331575393677 0.065467149019241333
0.302867263555526733 -0.206119194626808167 0.248290956020355225
0.543283820152282715 -0.312133878469467163 -0.0604231022298336029
0.141975477337837219 0.0692854002118110657 0.336762905120849609
-0.595096290111541748 0.267334192991256714 0.0122520932927727699
0.22251485288143158 -0.00728795723989605904 0.295988678932189941
0.231370255351066589 0.0341459363698959351 0.313196480274200439
0.534006655216217041 -0.31974831223487854 -0.012456156313419342
-0.389474868774414062 -0.064245566725730896 0.105850830674171448
-0.447747558355331421 -0.0403968729078769684 0.12662208080291748
0.49651414155960083 -0.0914513766765594482 0.154922589659690857
0.251415431499481201 0.0629488751292228699 0.317097663879394531
-0.291367083787918091 -0.0930694863200187683 0.307822912931442261
-0.366679519414901733 -0.115030430257320404 0.104136772453784943
-0.563641130924224854 0.127089694142341614 -0.0783763453364372253
-0.501715481281280518 0.0232100598514080048 0.186762198805809021
0.518546223640441895 -0.297488361597061157 -0.313810557126998901
0.473030596971511841 -0.328404754400253296 -0.299666345119476318
-0.574509382247924805 0.268647551536560059 0.362789750099182129
-0.571429073810577393 0.354709982872009277 0.167099490761756897
-0.191727101802825928 0.304474860429763794 0.101577207446098328
-0.662280261516571045 0.23960527777671814 0.0417206659913063049
-0.50510704517364502 0.144143342971801758 0.353453606367111206
0.507550597190856934 -0.34732210636138916 -0.318118184804916382
-0.200565800070762634 0.304805457592010498 0.102230630815029144
0.475639909505844116 -0.357817232608795166 0.00501707056537270546
0.510266780853271484 -0.33090934157371521 0.0667478218674659729
-0.61094433069229126 0.367425024509429932 0.0878544226288795471
-0.562732815742492676 0.288111686706542969 -0.0558401420712471008
0.220443382859230042 0.0100755486637353897 0.309518158435821533
0.241020798683166504 0.00491685979068279266 0.32198631763458252
-0.359696954488754272 -0.0571137592196464539 -0.137814164161682129
0.399819731712341309 -0.252988874912261963 0.322288721799850464
0.40012165904045105 -0.263363480567932129 0.325035303831100464
0.224553555250167847 -0.324461579322814941 0.320941537618637085
0.41160130500793457 -0.268101334571838379 0.3254547119140625
-0.509353160858154297 0.0491801723837852478 0.195357471704483032
-0.631432831287384033 0.156321525573730469 -0.0525719746947288513
-0.502079963684082031 0.146708562970161438 0.345427215099334717
0.52134394645690918 -0.350879848003387451 -0.322868674993515015
0.495804637670516968 -0.348535984754562378 0.000533357786480337381
-0.197867810726165771 0.0159082822501659393 -0.0497475564479827881
-0.557982325553894043 0.341605305671691895 -0.00561724090948700905
0.489024251699447632 -0.360676467418670654 0.0413557477295398712
0.449715912342071533 -0.0743953362107276917 0.00237843254581093788
-0.556521773338317871 0.385033726692199707 0.157890915870666504
0.375152021646499634 -0.0813723504543304443 -0.119530484080314636
-0.389894843101501465 0.319355398416519165 0.168952584266662598
-0.384856134653091431 0.327917277812957764 0.197647422552108765
-0.364309102296829224 0.237787842750549316 -0.0833183526992797852
-0.407474547624588013 0.199265211820602417 0.0410563014447689056
-0.644669651985168457 0.286662280559539795 0.0936797335743904114
0.409107983112335205 -0.347499728202819824 0.136733919382095337
0.222861677408218384 0.0826924815773963928 -0.0331109985709190369
0.499078273773193359 -0.161476597189903259 0.124204851686954498
0.50084841251373291 -0.0930562987923622131 0.135154187679290771
0.215854540467262268 0.00162680947687476873 0.29984775185585022
-0.35327225923538208 -0.0684286877512931824 -0.00898745842278003693
-0.385569721460342407 0.265779823064804077 -0.0715097114443778992
0.506944239139556885 -0.34731486439704895 0.055217105895280838
-0.357115805149078369 -0.0565755739808082581 -0.145407006144523621
0.132594168186187744 0.0723422020673751831 0.322487294673919678
-0.0994382202625274658 -0.265918195247650146 0.00622776336967945099
0.242932900786399841 0.0230617783963680267 0.322299569845199585
-0.480614751577377319 -0.0120523637160658836 0.185351848602294922
0.242967262864112854 0.0480535216629505157 0.317490160465240479
-0.27825590968132019 0.332462549209594727 0.0408681482076644897
0.370381951332092285 -0.0310767237097024918 -0.0395449139177799225
0.5206107497215271 -0.348214596509933472 -0.036050010472536087
0.293857008218765259 -0.0122013911604881287 0.0374215692281723022
-0.644356608390808105 0.284580141305923462 0.0925275608897209167
0.0360352881252765656 0.136433213949203491 0.0854478403925895691
-0.39760628342628479 -0.0579567737877368927 0.125946223735809326
-0.44160151481628418 -0.03855133056640625 0.131367698311805725
0.52427905797958374 -0.31779634952545166 -0.0651883333921432495
0.422951072454452515 -0.280289590358734131 0.331514686346054077
0.510107755661010742 -0.345209181308746338 0.0573852919042110443
0.404375642538070679 -0.259165734052658081 0.323933064937591553
-0.480512946844100952 0.0177094005048274994 0.176751166582107544
0.236004307866096497 0.0682377517223358154 0.31489098072052002
-0.479665994644165039 -0.00870141666382551193 0.167389899492263794
0.239631548523902893 0.0672482401132583618 0.315294414758682251
0.388728618621826172 0.025737520307302475 0.106418222188949585
0.220074951648712158 -0.316463053226470947 0.310602039098739624
0.383547991514205933 0.0426505319774150848 0.0694609880447387695
0.463224917650222778 0.0104833431541919708 0.175478503108024597
0.400001227855682373 -0.258958905935287476 0.327505797147750854
-0.499826520681381226 0.0207895990461111069 0.180964678525924683
-0.573701024055480957 0.265921473503112793 0.360012590885162354
-0.664743602275848389 0.229668468236923218 0.0218690484762191772
-0.14919579029083252 0.275063872337341309 0.0793021544814109802
0.522386431694030762 -0.33529999852180481 -0.322476059198379517
-0.220405012369155884 0.315366476774215698 0.0969403758645057678
0.500339269638061523 -0.346806645393371582 0.067277960479259491
-0.189719647169113159 0.302450865507125854 0.114975146949291229
0.314161866903305054 -0.130495548248291016 0.301048904657363892
0.225583717226982117 -0.0355814360082149506 0.305479526519775391
0.0577412880957126617 -0.331239193677902222 0.291502952575683594
0.435739457607269287 -0.280320912599563599 0.333028167486190796
0.409474998712539673 -0.286127984523773193 0.331189274787902832
0.386193364858627319 -0.266165047883987427 0.31907615065574646
0.397847473621368408 -0.384964674711227417 -0.225533604621887207
-0.162197083234786987 0.278074681758880615 0.128835946321487427
0.381189793348312378 0.0436716116964817047 0.0774034559726715088
0.391317427158355713 -0.256118923425674438 0.319089680910110474
-0.500545740127563477 0.0240711066871881485 0.185802236199378967
0.499956965446472168 -0.326184898614883423 -0.313091009855270386
0.381037205457687378 -0.376259177923202515 -0.216137394309043884
0.521449863910675049 -0.349526077508926392 -0.324885159730911255
0.521010935306549072 -0.348664969205856323 -0.32182234525680542
0.513641119003295898 -0.31990891695022583 -0.318431943655014038
0.255463123321533203 -0.222725376486778259 0.0577459186315536499
0.186399951577186584 -0.142640501260757446 -0.105385102331638336
0.508229255676269531 -0.320493012666702271 0.0294422972947359085
-0.469701468944549561 -0.0123070096597075462 0.181051909923553467
0.496547311544418335 -0.349227458238601685 -0.309769272804260254
0.521794378757476807 -0.327782809734344482 -0.321945101022720337
0.476370066404342651 -0.320510447025299072 -0.303029268980026245
-0.34131389856338501 0.229556679725646973 -0.0442031696438789368
0.202166944742202759 0.132512912154197693 0.1125626340508461
-0.172556564211845398 0.0218617059290409088 0.0257405992597341537
0.266085416078567505 -0.166151121258735657 0.00630757957696914673
0.545091807842254639 -0.328562438488006592 -0.047681223601102829
-0.456520676612854004 -0.053505241870880127 0.162161886692047119
0.470062702894210815 -0.356331855058670044 -0.30710369348526001
0.478817850351333618 -0.270057559013366699 -0.301484256982803345
0.467675864696502686 -0.362141579389572144 -0.308196127414703369
-0.32030215859413147 0.266346335411071777 0.0116259502246975899
0.033415619283914566 0.0982352569699287415 0.128766700625419617
-0.284680783748626709 -0.100436747074127197 -0.0873154774308204651
-0.616979360580444336 0.216743677854537964 -0.104777611792087555
0.244869068264961243 0.104225620627403259 -0.0294065438210964203
0.466662943363189697 -0.235361635684967041 -0.228399604558944702
-0.29393613338470459 -0.0888890549540519714 -0.0958762317895889282
0.249584600329399109 -0.276315689086914062 0.322749346494674683
0.222484111785888672 0.0665830746293067932 -0.0275819394737482071
-0.250896185636520386 -0.130586281418800354 -0.0554624125361442566
-0.21162860095500946 0.301685541868209839 0.148862347006797791
0.340302795171737671 -0.140930116176605225 0.318600326776504517
0.530095815658569336 -0.356845319271087646 0.0698482245206832886
-0.600070655345916748 0.356388211250305176 0.0604431368410587311
-0.346420943737030029 -0.0561021231114864349 -0.14363841712474823
-0.432945281267166138 0.157263562083244324 -0.084571152925491333
0.526989161968231201 -0.331961244344711304 0.0205614529550075531
0.528550982475280762 -0.288196802139282227 -0.0699751898646354675
-0.499063819646835327 0.142420694231987 -0.253898710012435913
0.146891012787818909 0.156463742256164551 0.0591237172484397888
0.253707855939865112 -0.00799714308232069016 0.327962607145309448
0.35044628381729126 -0.147511839866638184 0.320836871862411499
0.442675381898880005 -0.32274898886680603 -0.229254588484764099
-0.224094316363334656 -0.140399008989334106 -0.0537667535245418549
0.522927522659301758 -0.350487947463989258 0.0971218645572662354
-0.646252751350402832 0.253228962421417236 0.0239089466631412506
0.393682807683944702 -0.28043442964553833 0.322521418333053589
-0.474870294332504272 -0.0102462675422430038 0.164837449789047241
0.224841892719268799 -0.325463682413101196 0.319198399782180786
-0.363767117261886597 -0.121600404381752014 0.130367830395698547
-0.238556623458862305 -0.141026318073272705 -0.0539050586521625519
-0.113869234919548035 -0.00949739944189786911 -0.0165095273405313492
0.389910042285919189 -0.278706729412078857 0.320852607488632202
-0.507190108299255371 0.0108903553336858749 0.20191781222820282
0.462998569011688232 -0.297110944986343384 -0.294211149215698242
0.351789683103561401 -0.148469403386116028 0.321693062782287598
0.458266973495483398 -0.303912758827209473 -0.228711619973182678
0.0247377790510654449 -0.144113838672637939 -0.0199881885200738907
0.369461864233016968 -0.328110277652740479 0.318968683481216431
0.39213639497756958 -0.281859219074249268 0.317114174365997314
0.12891070544719696 -0.319520801305770874 -0.096979193389415741
-0.134443387389183044 0.278149604797363281 0.117715269327163696
-0.333425730466842651 0.0942115560173988342 -0.102298170328140259
0.374474763870239258 -0.376124680042266846 -0.214691013097763062
0.520229160785675049 -0.345914453268051147 -0.322498977184295654
0.523790240287780762 -0.358179450035095215 -0.326365917921066284
-0.0681627318263053894 -0.255215585231781006 0.0989967137575149536
0.326241493225097656 -0.131177648901939392 0.315021485090255737
0.424792975187301636 -0.260081678628921509 0.328537672758102417
-0.480126321315765381 0.0315314792096614838 0.196687847375869751
0.526977896690368652 -0.299768984317779541 -0.321941405534744263
0.538407027721405029 -0.292614966630935669 -0.324355244636535645
0.378271132707595825 -0.374360859394073486 -0.213399261236190796
0.371777057647705078 -0.357301384210586548 -0.213399559259414673
0.524413883686065674 -0.351777225732803345 -0.324744462966918945
0.525718450546264648 -0.363554805517196655 -0.32283744215965271
0.515895724296569824 -0.327325731515884399 -0.319808840751647949
0.479861319065093994 -0.352487027645111084 -0.311947345733642578
0.478826701641082764 -0.365758210420608521 -0.312669068574905396
-0.362014561891555786 0.310128748416900635 0.239853799343109131
-0.320954382419586182 0.103793680667877197 0.0223435908555984497
-0.447825700044631958 0.204003885388374329 -0.0402635261416435242
-0.377934426069259644 0.279100477695465088 -0.00714923860505223274
-0.0223489068448543549 -0.261136531829833984 0.143980801105499268
-0.59217911958694458 0.361257702112197876 0.0642410591244697571
0.367976784706115723 -0.373692870140075684 -0.212193354964256287
-0.124021336436271667 -0.0109525630250573158 0.0081786448135972023
0.397041022777557373 -0.353567689657211304 -0.21800483763217926
0.507832765579223633 -0.159730911254882812 0.125590324401855469
0.195889905095100403 0.124549329280853271 0.00683099078014492989
-0.0267668161541223526 0.16655479371547699 0.383274853229522705
-0.334227174520492554 -0.121435649693012238 0.100383125245571136
-0.325395971536636353 0.302680432796478271 -0.0365557968616485596
0.534525632858276367 -0.346997231245040894 0.0381380058825016022
0.525781512260437012 -0.332029402256011963 0.0348184183239936829
-0.596009254455566406 0.381905674934387207 0.113406628370285034
-0.010905832052230835 -0.144540175795555115 -0.0266352575272321701
-0.235343232750892639 0.171782046556472778 -0.00144849438220262527
-0.485768049955368042 -0.0109346676617860794 0.177251726388931274
-0.278176873922348022 0.335875034332275391 0.0424176566302776337
0.513887107372283936 -0.34927833080291748 0.0973875895142555237
-0.448852658271789551 -0.036078326404094696 0.117464952170848846
0.434869557619094849 -0.253524690866470337 0.332141280174255371
0.415362417697906494 -0.278647035360336304 0.327599197626113892
-0.469162970781326294 0.0341444723308086395 0.193630412220954895
0.502714812755584717 -0.339756280183792114 0.00827560294419527054
-0.481737524271011353 -0.00309664593078196049 0.17758411169052124
-0.377669215202331543 -0.107001692056655884 0.0929670557379722595
-0.501294493675231934 0.0219234265387058258 0.18436276912689209
0.361110687255859375 -0.287117868661880493 -0.14147554337978363
0.00178673805203288794 -0.231720462441444397 0.0902707427740097046
-0.140230998396873474 0.264858394861221313 0.0886920318007469177
-0.129528507590293884 0.254180967807769775 0.0716934949159622192
0.313063293695449829 -0.293503254652023315 -0.130846768617630005
0.428705573081970215 -0.255766779184341431 0.330639243125915527
-0.615638494491577148 0.306415855884552002 0.392282843589782715
0.411190450191497803 -0.358148902654647827 -0.226080179214477539
0.505491495132446289 -0.346644759178161621 -0.319591343402862549
0.508183777332305908 -0.352681010961532593 -0.322303742170333862
0.523964226245880127 -0.298630326986312866 -0.318359851837158203
0.510144710540771484 -0.346990019083023071 -0.319917887449264526
0.270502805709838867 -0.169627487659454346 -0.0791665539145469666
0.134138986468315125 0.120096370577812195 0.329506844282150269
0.252314865589141846 -0.285340845584869385 0.328486442565917969
0.324996381998062134 -0.12046881765127182 0.311061352491378784
0.302951604127883911 -0.204690694808959961 0.251558393239974976
0.250588566064834595 -0.00401008967310190201 0.325518131256103516
0.507743537425994873 -0.343313902616500854 0.0879294946789741516
0.242241606116294861 0.0896766558289527893 0.310460090637207031
0.463317066431045532 -0.284216910600662231 -0.230821371078491211
-0.262314736843109131 0.313752800226211548 0.0460580997169017792
0.344641119241714478 -0.140223518013954163 0.329861879348754883
0.37432512640953064 -0.364049226045608521 -0.208392009139060974
0.338188529014587402 -0.129492238163948059 0.321108877658843994
0.526874184608459473 -0.34732624888420105 -0.323744654655456543
0.524639785289764404 -0.352183789014816284 -0.326301425695419312
0.480464726686477661 -0.372469305992126465 -0.312762141227722168
-0.360208094120025635 -0.0653158277273178101 0.0829874351620674133
-0.407715946435928345 0.0883709043264389038 -0.113062761723995209
0.0143591584637761116 0.097870461642742157 0.217502787709236145
-0.37874072790145874 -0.0934963822364807129 -0.0282604135572910309
0.266009151935577393 0.0682693719863891602 -0.0913413390517234802
-0.108170762658119202 -0.0154305007308721542 0.0462727025151252747
-0.358298182487487793 -0.0923343673348426819 0.0130144981667399406
-0.290528327226638794 0.304546147584915161 0.166778281331062317
-0.355734705924987793 -0.0738785490393638611 0.0407292284071445465
-0.598858118057250977 0.294344872236251831 0.186593443155288696
0.249939993023872375 0.0966250002384185791 -0.0338069051504135132
0.37960737943649292 -0.355100244283676147 -0.209060803055763245
0.470246791839599609 -0.324930459260940552 0.13836786150932312
0.464948296546936035 -0.271986663341522217 -0.0925956517457962036
-0.439892023801803589 -0.0433948338031768799 0.0842947661876678467
-0.336497366428375244 -0.125115185976028442 0.127680912613868713
0.528758883476257324 -0.342076569795608521 0.0513770356774330139
0.393313556909561157 0.0469799712300300598 0.134118735790252686
-0.185947924852371216 0.313861161470413208 0.108091980218887329
-0.441849201917648315 -0.043295685201883316 0.117862977087497711
0.537772834300994873 -0.326327919960021973 -0.0553030148148536682
-0.353242993354797363 0.306138575077056885 0.114350639283657074
0.494591414928436279 -0.346278250217437744 0.0444667041301727295
-0.575828194618225098 0.304934114217758179 0.37943112850189209
0.431447744369506836 -0.281230032444000244 0.334084957838058472
-0.477906703948974609 0.00367543264292180538 0.16417992115020752
0.525394976139068604 -0.350027680397033691 -0.00221987790428102016
-0.06716185063123703 -0.263279885053634644 0.298600047826766968
-0.512209117412567139 0.00423552282154560089 0.188095793128013611
0.390348851680755615 -0.360520303249359131 -0.215360268950462341
-0.118421278893947601 0.254158526659011841 0.0639279335737228394
-0.500724554061889648 0.00464719440788030624 0.193289101123809814
0.426932781934738159 -0.274732768535614014 0.331020146608352661
-0.33377113938331604 0.103861644864082336 -0.11838134378194809
-0.105763353407382965 0.254018127918243408 0.0939473956823348999
0.511065363883972168 -0.341882288455963135 -0.319393008947372437
-0.613100171089172363 0.302377820014953613 0.396306931972503662
-0.509286105632781982 0.0362382307648658752 0.188627302646636963
-0.291254818439483643 -0.0894830450415611267 -0.0785350725054740906
0.509919881820678711 -0.345162481069564819 -0.320820271968841553
0.0721694678068161011 0.139097362756729126 0.0729251503944396973
0.246095865964889526 0.107002288103103638 0.321912825107574463
0.47359052300453186 -0.286975860595703125 -0.230353295803070068
0.305726796388626099 -0.315020442008972168 0.332067519426345825
0.512131989002227783 -0.350230187177658081 -0.321848809719085693
-0.315556496381759644 -0.0873247683048248291 -0.0341936275362968445
0.51474153995513916 -0.355934590101242065 -0.32281842827796936
-0.625498831272125244 0.180134132504463196 -0.0861374884843826294
-0.353778183460235596 -0.0562013201415538788 -0.143942147493362427
-0.331436365842819214 0.269300222396850586 -0.0549133159220218658
-0.177302032709121704 0.138657107949256897 0.00525687495246529579
0.545840620994567871 -0.21763978898525238 0.159584850072860718
0.0308657027781009674 0.102293737232685089 0.0657413974404335022
0.510194480419158936 -0.33109593391418457 -0.319187432527542114
0.586192488670349121 -0.325358778238296509 -0.319790124893188477
0.250181585550308228 -0.288657158613204956 0.318706125020980835
0.256063282489776611 -0.00331369065679609776 0.328459203243255615
0.302030265331268311 -0.28289380669593811 0.331600010395050049
-0.344400137662887573 -0.0911413580179214478 0.0180478207767009735
-0.374615281820297241 -0.0903291851282119751 -0.0182130765169858932
-0.0652260705828666687 -0.273869335651397705 0.159545794129371643
-0.63076096773147583 0.275466680526733398 0.0759697332978248596
0.367064207792282104 -0.365876078605651855 -0.21196824312210083
-0.124355383217334747 -0.0294836293905973434 -0.00639676349237561226
-0.598868727684020996 0.342150330543518066 0.090575486421585083
0.444375067949295044 -0.249661266803741455 -0.285990804433822632
0.383113652467727661 -0.348346918821334839 -0.211826011538505554
0.312850832939147949 -0.373002886772155762 -0.155838444828987122
-0.179572016000747681 0.312502592802047729 0.100285612046718597
0.535543859004974365 -0.319514095783233643 -0.0321031101047992706
-0.655447006225585938 0.238185718655586243 0.0140814976766705513
-0.453313380479812622 -0.0542326644062995911 0.163310840725898743
0.500400722026824951 -0.348831534385681152 0.0716905295848846436
0.440984278917312622 -0.261170238256454468 0.334704756736755371
0.50767672061920166 -0.344044089317321777 0.0302305314689874649
0.265051752328872681 0.121411293745040894 0.0276044383645057678
0.40041545033454895 0.0323802009224891663 0.140282362699508667
-0.106375791132450104 0.252421140670776367 0.0729758739471435547
0.317102313041687012 -0.381027966737747192 -0.156717821955680847
-0.566939413547515869 0.295356541872024536 -0.0513704270124435425
0.390804499387741089 -0.363036096096038818 -0.220744490623474121
0.359589874744415283 0.0332822315394878387 0.0490593798458576202
0.194988951086997986 -0.365810275077819824 -0.0955736711621284485
0.391682863235473633 -0.355961531400680542 -0.216865584254264832
0.520059287548065186 -0.33539283275604248 -0.322339117527008057
0.523261368274688721 -0.333576202392578125 -0.323780417442321777
0.244776055216789246 0.0239021517336368561 0.324387818574905396
0.212890908122062683 -0.338959574699401855 0.318856507539749146
0.237583011388778687 0.105852663516998291 0.315484136343002319
0.52201688289642334 -0.337301522493362427 -0.32543143630027771
0.318601816892623901 -0.380138397216796875 -0.150869205594062805
0.584517061710357666 -0.318239867687225342 -0.334009945392608643
-0.381230980157852173 -0.093768000602722168 -0.0177227333188056946
0.458748579025268555 -0.325765073299407959 0.125383034348487854
0.389488458633422852 0.0534032508730888367 0.132111117243766785
-0.173798292875289917 0.307104170322418213 0.106169648468494415
-0.462462246417999268 -0.0304103381931781769 0.134547024965286255
0.440122336149215698 -0.261754631996154785 0.335482567548751831
0.400833249092102051 0.0245744567364454269 0.128412216901779175
0.427803933620452881 -0.263904184103012085 0.332412183284759521
-0.510066688060760498 0.00395839614793658257 0.190887272357940674
-0.131059512495994568 0.25339081883430481 0.0818678438663482666
-0.284116625785827637 0.335591018199920654 0.0344863831996917725
0.455802768468856812 -0.259773910045623779 0.337009251117706299
-0.330995053052902222 0.0975285843014717102 -0.117581047117710114
-0.508787691593170166 0.0357517823576927185 0.188584625720977783
0.258571326732635498 0.00727115385234355927 0.327954947948455811
0.446378767490386963 -0.256292909383773804 0.334195464849472046
0.236724063754081726 0.108859941363334656 0.309257030487060547
0.302938342094421387 -0.329512834548950195 0.334701865911483765
-0.320705443620681763 0.266710817813873291 -0.0467947795987129211
-0.133372977375984192 -0.268995553255081177 -0.0047785518690943718
-0.377326637506484985 -0.0758241266012191772 0.0239503122866153717
-0.375946700572967529 -0.063902638852596283 -0.160024255514144897
-0.495123088359832764 -0.0230847578495740891 0.173834159970283508
-0.528098225593566895 -0.00719714304432272911 0.186667010188102722
0.382535099983215332 -0.366833597421646118 -0.21893291175365448
0.389664441347122192 -0.33043023943901062 0.186902865767478943
-0.578248858451843262 0.291634202003479004 -0.0408568046987056732
0.242149472236633301 0.0882039442658424377 -0.0390295274555683136
0.375009357929229736 -0.351703941822052002 -0.209508404135704041
0.187704965472221375 0.10767296701669693 0.00225491449236869812
-0.341985017061233521 0.272805958986282349 -0.0517390333116054535
0.532883286476135254 -0.353953033685684204 0.0537512078881263733
-0.113753229379653931 0.185084223747253418 0.354826658964157104
-0.215898215770721436 0.313195914030075073 0.112291939556598663
0.470850557088851929 -0.305240213871002197 -0.23544001579284668
0.536855101585388184 -0.321111351251602173 -0.0258835256099700928
-0.266484111547470093 0.309800446033477783 0.0455688387155532837
0.279389798641204834 0.00816357880830764771 -0.0268563628196716309
0.384925395250320435 -0.362414538860321045 -0.216647431254386902
0.0281789768487215042 -0.09587889164686203 0.0190955009311437607
-0.417091131210327148 -0.0580077096819877625 0.133171975612640381
0.385657995939254761 -0.28782615065574646 -0.109265625476837158
0.382620930671691895 -0.363474875688552856 -0.219232752919197083
0.200202330946922302 -0.366713434457778931 -0.0958020463585853577
0.38808363676071167 -0.354364126920700073 -0.21628272533416748
0.512076079845428467 -0.33706355094909668 -0.319617718458175659
0.513384222984313965 -0.336825698614120483 -0.321800857782363892
0.233615800738334656 0.0340123772621154785 0.319235950708389282
0.242395266890525818 0.0888144895434379578 0.310328364372253418
0.363122314214706421 -0.283184975385665894 0.316528856754302979
0.530819118022918701 -0.346658051013946533 -0.329856008291244507
0.2010602205991745 -0.190773263573646545 -0.0714487433433532715
-0.192980632185935974 0.133308082818984985 0.00910777784883975983
0.321577310562133789 -0.374704867601394653 -0.158280506730079651
0.204952448606491089 -0.325961679220199585 0.316081821918487549
0.323299169540405273 -0.277838945388793945 0.31759566068649292
-0.499641597270965576 0.0159011315554380417 0.183742791414260864
0.347920209169387817 -0.273273617029190063 -0.131883814930915833
0.245335787534713745 0.0211805589497089386 0.322139739990234375
0.19589388370513916 -0.16770404577255249 -0.0674079135060310364
0.0378929562866687775 0.13135075569152832 0.105852954089641571
-0.45526459813117981 -0.0511325672268867493 0.154891669750213623
-0.140358969569206238 0.269091337919235229 0.0801856368780136108
0.540410935878753662 -0.226388469338417053 0.173236072063446045
0.236831530928611755 0.104228362441062927 0.309849321842193604
-0.45279356837272644 -0.0278354194015264511 0.124109663069248199
-0.50963282585144043 0.00103023007977753878 0.173352941870689392
0.236757084727287292 0.0834377706050872803 0.311093658208847046
-0.488218516111373901 -0.0233018677681684494 0.177738487720489502
-0.520572483539581299 -0.00214606220833957195 0.18681749701499939
-0.0835623964667320251 0.0734910890460014343 0.0423105992376804352
0.368462175130844116 -0.0230812113732099533 -0.0816829800605773926
-0.232032999396324158 0.0468122400343418121 -0.0684190317988395691
0.495392441749572754 -0.341376632452011108 -0.449625372886657715
-0.628328442573547363 0.291755735874176025 0.175515860319137573
-0.111451759934425354 0.153240695595741272 0.0495693013072013855
0.52319645881652832 -0.345042198896408081 -0.0205818489193916321
-0.583617866039276123 0.374229460954666138 0.185078009963035583
-0.186015278100967407 0.312965750694274902 0.131979331374168396
0.0274337437003850937 -0.125539928674697876 -0.0344058945775032043
0.320708245038986206 0.0747885555028915405 -0.106952592730522156
-0.0373756028711795807 0.156514853239059448 0.385690510272979736
0.476897209882736206 -0.308282047510147095 -0.226920872926712036
0.496580362319946289 -0.291278332471847534 -0.167465478181838989
0.450096309185028076 -0.255393326282501221 0.333325743675231934
0.507257819175720215 -0.359388023614883423 0.042237892746925354
0.4258461594581604 -0.285849541425704956 0.330068439245223999
0.504376709461212158 -0.34774443507194519 0.0201473552733659744
0.400758713483810425 -0.344907134771347046 -0.215541407465934753
-0.490403503179550171 0.0468906126916408539 -0.0940426886081695557
-0.128131181001663208 0.260800659656524658 0.0790312141180038452
0.3268585205078125 -0.372963786125183105 -0.154742881655693054
0.320103645324707031 -0.293497025966644287 -0.131991565227508545
0.434080392122268677 -0.296231716871261597 0.333527743816375732
0.41010206937789917 -0.356411486864089966 -0.225614339113235474
0.224047258496284485 -0.336822837591171265 0.318164825439453125
0.240734919905662537 0.0880269408226013184 0.30960652232170105
0.369249671697616577 -0.322258234024047852 0.3205128014087677
0.521627366542816162 -0.358643084764480591 -0.325622975826263428
-0.260271668434143066 -0.146043121814727783 -0.059763200581073761
0.527618288993835449 -0.340208858251571655 0.0354912914335727692
-0.243804931640625 0.0740678384900093079 0.00757867097854614258
0.198235094547271729 -0.336484402418136597 0.316301971673965454
0.467552393674850464 -0.27488437294960022 0.339332610368728638
-0.503243982791900635 0.00378738646395504475 0.187636896967887878
0.453130364418029785 -0.27972981333732605 0.333139777183532715
-0.456382036209106445 -0.0535531789064407349 0.162390455603599548
-0.503199279308319092 0.00308292126283049583 0.188626706600189209
-0.640955626964569092 0.297658264636993408 0.419322997331619263
0.5413932204246521 -0.216144412755966187 0.153977394104003906
-0.499440878629684448 0.00197841180488467216 0.188013479113578796
0.160653561353683472 -0.273309528827667236 -0.0721217021346092224
-0.338555723428726196 0.284002244472503662 0.1267901211977005
0.200197368860244751 -0.23214256763458252 -0.00390028487890958786
-0.349229007959365845 -0.081214025616645813 -0.0461658723652362823
-0.349861443042755127 0.291178971529006958 0.202487990260124207
-0.364709347486495972 -0.0985623225569725037 -0.0310050211846828461
0.371839761734008789 -0.375743865966796875 -0.215434238314628601
-0.576893627643585205 0.308182001113891602 -0.0511877872049808502
-0.139406025409698486 -0.032991945743560791 -0.0186556447297334671
0.386466085910797119 -0.342969954013824463 -0.214095205068588257
-0.585306525230407715 0.37281230092048645 0.185055539011955261
-0.181165099143981934 -0.115886770188808441 -0.0528120957314968109
-0.445959895849227905 -0.0466053895652294159 0.0956818386912345886
-0.343446344137191772 -0.118324935436248779 0.102424338459968567
-0.188900500535964966 0.302671760320663452 0.0972051620483398438
0.409313023090362549 -0.356169283390045166 -0.2242107093334198
-0.279800176620483398 0.336802542209625244 0.0430407822132110596
0.475206106901168823 -0.311219871044158936 -0.23032301664352417
0.515155315399169922 -0.354851573705673218 0.0551881454885005951
0.501136600971221924 -0.362348318099975586 0.0770502984523773193
-0.197772786021232605 -0.242509558796882629 -0.0306228902190923691
-0.479539155960083008 -0.00224238913506269455 0.166701361536979675
0.534877240657806396 -0.350994855165481567 0.0663747191429138184
0.39017757773399353 -0.35051390528678894 -0.213454678654670715
0.458305954933166504 -0.302004307508468628 -0.222838714718818665
0.351415455341339111 -0.277155101299285889 -0.102452300488948822
-0.0867320224642753601 -0.142118528485298157 -0.0337289087474346161
0.0180571824312210083 -0.136869356036186218 -0.023524867370724678
0.206171438097953796 -0.345587670803070068 -0.0869727358222007751
0.458401501178741455 0.0435485877096652985 0.178623273968696594
0.449193567037582397 0.0663264989852905273 0.193557471036911011
0.349925190210342407 -0.344927817583084106 0.321315944194793701
0.20694325864315033 -0.357616275548934937 -0.0927300378680229187
-0.385981172323226929 -0.0949402526021003723 0.0598221682012081146
