ply
format ascii 1.0
element vertex 738
property float x
property float y
property float z
end_header
0.138269990682601929 0.112992852926254272 0.336791306734085083
-0.652094066143035889 0.285914331674575806 0.0984263196587562561
-0.638269960880279541 0.245078757405281067 -0.0377890206873416901
0.136254355311393738 0.069484315812587738 0.337909281253814697
-0.577073454856872559 0.304059714078903198 -0.0551453419029712677
0.262456297874450684 0.030729370191693306 -0.0734295174479484558
0.542033731937408447 -0.216551035642623901 0.111387483775615692
-0.359967470169067383 -0.0353834293782711029 -0.134015053510665894
-0.574722051620483398 0.327735006809234619 -0.0291570499539375305
-0.361670434474945068 -0.0705537274479866028 -0.0336978957056999207
-0.130513846874237061 -0.267205476760864258 0.119229339063167572
0.495210587978363037 -0.36560213565826416 -0.000499698624480515718
0.373861014842987061 -0.359126418828964233 -0.210098087787628174
-0.378288745880126953 -0.106526248157024384 0.101547189056873322
-0.0670908242464065552 -0.263726234436035156 0.296565055847167969
0.519962072372436523 -0.243098720908164978 -0.309549927711486816
0.509543240070343018 -0.330346614122390747 0.0151324793696403503
-0.593338966369628906 0.369194716215133667 0.120983533561229706
-0.655305802822113037 0.175946533679962158 -0.102601952850818634
-0.222925096750259399 -0.143769189715385437 -0.0534876883029937744
-0.191269442439079285 0.316879749298095703 0.100985608994960785
0.256613016128540039 -0.283282667398452759 0.319605529308319092
0.239100903272628784 0.0324049852788448334 0.319081902503967285
-0.120095454156398773 -0.0457598753273487091 0.00752320745959877968
-0.641534566879272461 0.308861762285232544 0.102275051176548004
0.364742696285247803 -0.373666644096374512 -0.207009151577949524
0.537817537784576416 -0.217582687735557556 0.161662474274635315
-0.552729785442352295 0.382676392793655396 0.158358708024024963
-0.122533269226551056 0.259553849697113037 0.115331977605819702
0.119356781244277954 0.102726712822914124 0.0895245224237442017
-0.375413566827774048 0.266183823347091675 -0.0892409980297088623
0.516960322856903076 -0.348846226930618286 0.0986070930957794189
-0.293411821126937866 -0.106761746108531952 -0.109037213027477264
0.274968385696411133 0.10321594774723053 -0.0576388239860534668
-0.575034797191619873 0.219841763377189636 -0.21221517026424408
-0.115576483309268951 0.268818199634552002 0.180000871419906616
0.23596346378326416 -0.287751942873001099 0.314305335283279419
0.310115158557891846 -0.187144950032234192 0.240927129983901978
0.54185938835144043 -0.325625389814376831 -0.0210683830082416534
0.0789281874895095825 -0.337421387434005737 0.282233357429504395
-0.00640752306208014488 -0.171514660120010376 0.00441880244761705399
-0.2822532057762146 0.26204344630241394 0.00732059590518474579
0.513211667537689209 -0.236869290471076965 -0.3095436692237854
-0.64689338207244873 0.278492271900177002 0.0799497812986373901
-0.646241307258605957 0.183457598090171814 -0.0904524326324462891
0.514179229736328125 -0.322309046983718872 0.0241390503942966461
-0.40684962272644043 -0.0632700175046920776 0.113773427903652191
0.516910552978515625 -0.355486363172531128 -0.0207616183906793594
-0.566542267799377441 0.374548107385635376 0.152869999408721924
0.235854014754295349 0.0432192869484424591 0.313632994890213013
-0.66475987434387207 0.227389410138130188 0.023510148748755455
-0.447997897863388062 -0.0381257869303226471 0.127341777086257935
0.503090381622314453 -0.302045613527297974 -0.178995102643966675
-0.58908766508102417 0.361264705657958984 0.086491018533706665
-0.194110825657844543 0.315153926610946655 0.105101734399795532
0.246877625584602356 0.0241188742220401764 0.323762655258178711
0.531007885932922363 -0.323586761951446533 -0.0582216084003448486
-0.182862997055053711 0.307251065969467163 0.128704667091369629
0.247126325964927673 0.00719504756852984428 0.323891937732696533
0.0585816875100135803 0.139885857701301575 0.345801889896392822
-0.505631029605865479 0.149637535214424133 0.357141047716140747
0.270676463842391968 -0.311028927564620972 0.326140671968460083
-0.253677904605865479 0.0239332132041454315 -0.0704702287912368774
0.241014823317527771 -0.295066714286804199 0.322403788566589355
0.24890764057636261 0.0439994148910045624 0.314353853464126587
0.468402743339538574 -0.1017751544713974 0.0344801954925060272
-0.124791726469993591 0.195387080311775208 0.11558898538351059
0.239909067749977112 -0.326376914978027344 0.317856580018997192
0.500309109687805176 -0.366381287574768066 0.0744930282235145569
0.523513197898864746 -0.324513256549835205 0.0260532796382904053
0.444643378257751465 -0.253131121397018433 0.332169979810714722
0.321499347686767578 -0.13120761513710022 -0.106697864830493927
0.0632904320955276489 -0.0105102285742759705 0.321733087301254272
0.511371016502380371 -0.360681623220443726 0.0473579652607440948
0.135636776685714722 -0.100402750074863434 0.0405765548348426819
0.0494937337934970856 0.0118474196642637253 0.0298276841640472412
0.0207520052790641785 0.0485337153077125549 0.0427063293755054474
0.0880548283457756042 -0.0658175349235534668 0.289651185274124146
-0.162042960524559021 -0.26529461145401001 0.148113325238227844
0.264898955821990967 -0.0199380815029144287 0.0615063868463039398
-0.028963061049580574 -0.0287677794694900513 0.295637041330337524
0.502278029918670654 -0.240112513303756714 -0.302125155925750732
0.47604137659072876 -0.314724236726760864 -0.302055209875106812
-0.630833923816680908 0.306490063667297363 0.167750075459480286
0.47552257776260376 -0.320634335279464722 0.120853222906589508
0.509186029434204102 -0.300645321607589722 -0.105674967169761658
0.528337478637695312 -0.274688899517059326 -0.317309319972991943
0.493659853935241699 -0.332192957401275635 -0.310810118913650513
0.503581225872039795 -0.319954127073287964 0.0978430286049842834
0.474288880825042725 -0.305558502674102783 -0.29821130633354187
-0.559241354465484619 0.268250346183776855 0.364816546440124512
0.124948374927043915 0.11705414205789566 0.314218252897262573
-0.633483409881591797 0.282473474740982056 0.0546824410557746887
-0.587276101112365723 0.363014489412307739 0.102827496826648712
0.371584087610244751 -0.373820364475250244 -0.212789177894592285
0.438500463962554932 -0.347800672054290771 0.154190927743911743
0.0580677315592765808 0.12152138352394104 0.3211783766746521
-0.574485838413238525 0.369003027677536011 0.215915828943252563
0.264712661504745483 0.0248350575566291809 -0.0586374513804912567
0.368813037872314453 -0.336602568626403809 0.160502150654792786
0.510629951953887939 -0.301364094018936157 -0.112123332917690277
0.133702114224433899 -0.320313602685928345 -0.0976843088865280151
0.516688108444213867 -0.348612725734710693 -0.0204186532646417618
0.389383792877197266 -0.346555560827255249 -0.214155018329620361
-0.576933443546295166 0.31932029128074646 0.0411907993257045746
0.536157310009002686 -0.27766042947769165 -0.320715039968490601
0.467996776103973389 -0.310693264007568359 -0.299342364072799683
0.507299065589904785 -0.346954882144927979 0.0177971832454204559
-0.555828571319580078 0.30995747447013855 0.102639354765415192
0.193959712982177734 -0.339106172323226929 -0.0591257773339748383
0.0702024102210998535 -0.281934678554534912 -0.0777635127305984497
0.252481132745742798 -0.250145435333251953 0.320074081420898438
0.239895269274711609 0.0310476142913103104 0.31685936450958252
-0.1209559366106987 -0.0475580953061580658 0.00837729591876268387
0.178782239556312561 -0.0999757722020149231 -0.0147461853921413422
0.532586097717285156 -0.332145631313323975 -0.0133073404431343079
0.370451211929321289 -0.349276304244995117 -0.208924993872642517
0.53507697582244873 -0.245741873979568481 0.177074655890464783
0.561296045780181885 -0.315614640712738037 -0.331049442291259766
0.554652214050292969 -0.211623206734657288 0.133730843663215637
-0.5431937575340271 0.380979180335998535 0.164892435073852539
0.12285507470369339 0.117373712360858917 0.133187025785446167
-0.582157015800476074 0.352141350507736206 0.0982154384255409241
-0.481461942195892334 0.186269596219062805 -0.0911312773823738098
0.515753090381622314 -0.339033633470535278 0.0386940985918045044
0.25349310040473938 -0.279058575630187988 0.321891903877258301
0.278607010841369629 -0.355753660202026367 -0.126053988933563232
0.508056402206420898 -0.286465853452682495 -0.313775897026062012
-0.431982517242431641 -0.056954946368932724 0.117012478411197662
0.201944142580032349 0.0906282588839530945 0.223357081413269043
0.244307801127433777 0.104723647236824036 -0.0571887418627738953
-0.195642441511154175 0.201695919036865234 0.349477946758270264
0.250459760427474976 0.0250047370791435242 0.323285132646560669
0.239817529916763306 0.019102124497294426 0.320982247591018677
-0.0314192138612270355 0.162850067019462585 0.382788270711898804
-0.482338100671768188 -0.0154273444786667824 0.180515974760055542
0.483938813209533691 -0.368943721055984497 0.0459535643458366394
-0.643416702747344971 0.287301927804946899 0.0866660401225090027
0.276032149791717529 -0.16566823422908783 -0.0704783201217651367
-0.411648571491241455 -0.0566153973340988159 0.0792289301753044128
-0.642897844314575195 0.175927206873893738 -0.0815399587154388428
-0.22576749324798584 -0.133665546774864197 -0.0519450455904006958
0.254994720220565796 -0.265474975109100342 0.321053624153137207
-0.345171034336090088 0.0175946522504091263 -0.116567753255367279
-0.286936163902282715 -0.091272599995136261 -0.106202483177185059
-0.584930896759033203 0.210053861141204834 -0.217520013451576233
0.267656564712524414 -0.296927422285079956 0.3151225745677948
-0.0254830401390790939 -0.187050327658653259 -0.0432614982128143311
-0.617965400218963623 0.277122765779495239 0.0318593531847000122
-0.608746767044067383 0.298425972461700439 0.0929274484515190125
-0.397395074367523193 -0.0626228153705596924 0.119186669588088989
-0.451533675193786621 -0.0379540286958217621 0.119830422103404999
0.43121907114982605 -0.271751284599304199 0.329051464796066284
-0.0524033568799495697 0.140981212258338928 0.09191913902759552
-0.502897918224334717 0.151262566447257996 0.355755239725112915
0.240870013833045959 -0.319204896688461304 0.322753369808197021
0.497322201728820801 -0.370766878128051758 0.057262815535068512
0.399399459362030029 -0.256867319345474243 0.322342395782470703
-0.158200249075889587 -0.263291269540786743 0.181734487414360046
-0.499014824628829956 0.0142134930938482285 0.158456012606620789
0.417697340250015259 -0.29736754298210144 0.328606873750686646
0.535513043403625488 -0.340133905410766602 -0.018536888062953949
0.344426721334457397 -0.267306983470916748 -0.127853795886039734
-0.496331244707107544 0.0721542313694953918 0.20434105396270752
0.443767070770263672 -0.272199511528015137 0.33327290415763855
0.52223581075668335 -0.335348427295684814 0.0326953232288360596
0.453554093837738037 -0.319824904203414917 -0.293075680732727051
0.474401861429214478 -0.311648577451705933 0.116591848433017731
0.517438411712646484 -0.278357356786727905 -0.312890827655792236
0.50287330150604248 -0.325879871845245361 -0.314379066228866577
0.518311262130737305 -0.327079653739929199 0.101800836622714996
0.479520142078399658 -0.311360836029052734 -0.302227705717086792
0.11454271525144577 0.118668623268604279 0.289087980985641479
-0.121886923909187317 0.268766641616821289 0.159023448824882507
-0.614715218544006348 0.265597432851791382 0.0525565333664417267
-0.479222685098648071 0.00324211386032402515 0.181695938110351562
0.426831543445587158 -0.354988634586334229 0.1584768146276474
-0.292108148336410522 -0.110345110297203064 -0.105463296175003052
0.130502045154571533 0.0655685514211654663 0.321279257535934448
0.253780275583267212 0.0387634932994842529 -0.0777389258146286011
0.23553118109703064 0.0939521118998527527 -0.05300859734416008
0.417859435081481934 -0.261492937803268433 -0.202379852533340454
0.521902322769165039 -0.354610830545425415 -0.0195466168224811554
-0.608786404132843018 0.381176978349685669 0.18169674277305603
0.517789781093597412 -0.279257833957672119 -0.314813047647476196
0.499317973852157593 -0.349964708089828491 0.0239916611462831497
-0.587759733200073242 0.369384407997131348 0.113510213792324066
0.50611644983291626 -0.104750268161296844 0.147143125534057617
-0.197970643639564514 0.311688244342803955 0.113216854631900787
0.264104068279266357 -0.286517202854156494 0.319713443517684937
0.236923232674598694 0.0621575452387332916 0.310526937246322632
-0.144387811422348022 -0.043294072151184082 0.00445137405768036842
-0.657659232616424561 0.214813485741615295 -0.0457031577825546265
-0.288415729999542236 -0.0757390409708023071 -0.0683055147528648376
0.227291062474250793 0.0422430820763111115 -0.0480819158256053925
0.551713407039642334 -0.144510850310325623 0.131878823041915894
0.519957244396209717 -0.295350402593612671 0.0747757256031036377
0.51780402660369873 -0.284025490283966064 -0.181264236569404602
-0.357903748750686646 -0.0168792903423309326 -0.0276059862226247787
0.0914616063237190247 0.0883202031254768372 0.085895150899887085
0.466833323240280151 -0.361855864524841309 -0.0107349734753370285
-0.432803958654403687 0.157936781644821167 -0.0660829544067382812
0.523995161056518555 -0.335622102022171021 0.0687857642769813538
0.262963563203811646 -0.285885542631149292 0.318437486886978149
0.00942707713693380356 -0.090821191668510437 -0.0259117893874645233
0.0326038450002670288 -0.130227237939834595 0.0220359545201063156
-0.630623996257781982 0.265109270811080933 0.0295231025665998459
0.242127120494842529 0.0743224024772644043 0.318792372941970825
0.240203380584716797 0.0295719727873802185 0.318872064352035522
-0.174767613410949707 0.300965249538421631 0.116585150361061096
0.304672956466674805 -0.151307582855224609 0.307722508907318115
0.261998414993286133 -0.290685415267944336 0.320923328399658203
-0.476051658391952515 -0.00802378170192241669 0.166570171713829041
0.242760688066482544 0.0817607194185256958 0.312151640653610229
0.520415842533111572 -0.351273119449615479 0.0818197950720787048
-0.0348436795175075531 -0.237413614988327026 0.124238528311252594
-0.638232588768005371 0.290082633495330811 0.0992892831563949585
-0.234079331159591675 -0.132636696100234985 -0.0577272400259971619
-0.379134893417358398 -0.108611427247524261 0.105815708637237549
-0.236283779144287109 -0.147656187415122986 -0.0575764812529087067
-0.657872915267944336 0.214505612850189209 -0.0334096327424049377
0.529059708118438721 -0.352605640888214111 0.0777604430913925171
-0.62107241153717041 0.270370066165924072 0.0529547035694122314
-0.404012978076934814 -0.0641654133796691895 0.112366475164890289
-0.446193665266036987 -0.0413400530815124512 0.122330218553543091
0.268067628145217896 -0.2855815589427948 0.323394656181335449
0.127659618854522705 -0.32651132345199585 0.312582820653915405
0.152320101857185364 -0.343007057905197144 0.317841768264770508
0.447880834341049194 -0.335581779479980469 -0.293044537305831909
0.515935301780700684 -0.302943199872970581 -0.108046434819698334
0.515410244464874268 -0.280228525400161743 -0.31290850043296814
0.485033273696899414 -0.327642977237701416 -0.309855639934539795
0.46450236439704895 -0.345846682786941528 -0.302722662687301636
0.549776673316955566 -0.21020759642124176 -0.316074728965759277
0.524280548095703125 -0.30001494288444519 -0.322558939456939697
0.518143713474273682 -0.30082470178604126 -0.318453818559646606
0.246849611401557922 0.057041514664888382 0.316382229328155518
0.241328731179237366 0.0875143185257911682 0.312720209360122681
-0.291558295488357544 -0.100347600877285004 -0.101592704653739929
-0.453447788953781128 -0.0518196113407611847 0.117429308593273163
0.404873579740524292 -0.272285103797912598 0.322384059429168701
-0.502269744873046875 0.00390471355058252811 0.189491987228393555
0.401165753602981567 -0.287258356809616089 0.324701309204101562
0.399311929941177368 -0.27357897162437439 0.323181718587875366
0.342304438352584839 -0.258918792009353638 0.0900538861751556396
-0.018752317875623703 -0.244208693504333496 0.128802359104156494
-0.464384377002716064 0.0361231788992881775 0.189890012145042419
-0.194373294711112976 0.221714958548545837 0.172298341989517212
0.366943806409835815 -0.329212039709091187 -0.0235417373478412628
0.323512643575668335 -0.390009075403213501 -0.158867642283439636
0.535603225231170654 -0.323595017194747925 -0.0583248399198055267
-0.441641420125961304 -0.00457396777346730232 0.153032094240188599
-0.0191290713846683502 -0.0593759454786777496 0.141891419887542725
-0.000201361763174645603 -0.235944435000419617 0.106525279581546783
0.526367723941802979 -0.201780155301094055 -0.0801352038979530334
0.449939876794815063 -0.308269232511520386 -0.292933017015457153
0.527009069919586182 -0.275391072034835815 -0.315763950347900391
0.500067591667175293 -0.324829310178756714 -0.31274828314781189
0.475369125604629517 -0.304988265037536621 -0.297464907169342041
-0.127450034022331238 0.246743187308311462 0.1392098069190979
-0.648936033248901367 0.282099515199661255 0.0946822687983512878
-0.198939979076385498 0.286711543798446655 0.336116820573806763
0.498091459274291992 -0.0867614075541496277 0.136519670486450195
0.200820669531822205 -0.359024971723556519 -0.090746365487575531
0.505570054054260254 -0.367630541324615479 -0.022796066477894783
0.527391016483306885 -0.242686688899993896 0.172782301902770996
-0.585909485816955566 0.379401743412017822 0.171085044741630554
0.445154875516891479 -0.314860999584197998 -0.287804991006851196
0.498676329851150513 -0.111118137836456299 0.112035498023033142
-0.655684351921081543 0.175630822777748108 -0.103298939764499664
-0.201942205429077148 0.308891952037811279 0.0894400924444198608
0.201285317540168762 -0.0135618820786476135 0.295255601406097412
0.16005253791809082 -0.0620419271290302277 -0.0439499653875827789
-0.579475581645965576 0.302278041839599609 0.369037806987762451
0.275059878826141357 0.0984457284212112427 -0.0290724728256464005
-0.435170024633407593 0.155642092227935791 -0.0856013000011444092
0.53461003303527832 -0.333004236221313477 0.0126288933679461479
-0.568642795085906982 0.197516560554504395 -0.228609606623649597
-0.497502803802490234 0.045231059193611145 -0.0864091739058494568
0.0314555428922176361 -0.103837020695209503 0.0331879295408725739
0.534263372421264648 -0.264432847499847412 -0.316412180662155151
0.00978379230946302414 0.197800874710083008 0.0278019048273563385
0.302187502384185791 0.0389582701027393341 -0.0844393447041511536
-0.332003265619277954 -0.0157170314341783524 -0.107340127229690552
0.236478909850120544 0.0144607443362474442 0.321788430213928223
0.125043854117393494 0.0130636226385831833 0.299008995294570923
0.527679085731506348 -0.355121642351150513 0.0662115886807441711
0.467245280742645264 -0.309765875339508057 -0.233188554644584656
-0.651916027069091797 0.285436004400253296 0.104788191616535187
0.546735107898712158 -0.219969063997268677 0.163335844874382019
0.528209269046783447 -0.323328018188476562 -0.0161506030708551407
-0.382831871509552002 -0.0561488829553127289 0.0765486136078834534
0.457064002752304077 -0.310751855373382568 -0.292634397745132446
0.505146324634552002 -0.339751154184341431 -0.317984431982040405
0.478988528251647949 -0.314236313104629517 -0.29958653450012207
0.520552158355712891 -0.301230043172836304 -0.317419230937957764
-0.00218175165355205536 -0.139789596199989319 -0.0245868582278490067
0.397645264863967896 -0.273136734962463379 0.323357492685317993
0.401317209005355835 -0.27156519889831543 0.323660939931869507
0.50624924898147583 -0.331935226917266846 0.105731874704360962
-0.467382371425628662 0.0426628701388835907 0.171011239290237427
0.410155445337295532 -0.3458060622215271 0.156504839658737183
-0.360577255487442017 -0.0349908359348773956 -0.147715717554092407
-0.128047764301300049 -0.267443209886550903 0.112594641745090485
0.512790858745574951 -0.368969589471817017 -0.014745047315955162
-0.213564246892929077 0.312693268060684204 0.0979726463556289673
0.250664740800857544 -0.287023723125457764 0.322868287563323975
0.209003910422325134 0.00954211689531803131 -0.0460052266716957092
0.0700732618570327759 -0.151335343718528748 -0.0170491598546504974
-0.169609323143959045 0.304915964603424072 0.11914883553981781
0.471286594867706299 -0.364275872707366943 0.00698157865554094315
-0.290678620338439941 -0.0991381257772445679 -0.102849796414375305
0.0365745015442371368 -0.149484798312187195 -0.0214925352483987808
0.23221936821937561 0.0562773793935775757 0.309213399887084961
0.253471612930297852 -0.288585484027862549 0.320648610591888428
-0.471470296382904053 0.0013693846995010972 0.169031918048858643
0.241039440035820007 0.0627283453941345215 0.313108056783676147
0.509148895740509033 -0.35196232795715332 0.0638685673475265503
0.227495819330215454 -0.31471329927444458 0.314567446708679199
-0.37513384222984314 -0.0928639918565750122 0.0865007638931274414
-0.0625861361622810364 -0.241457566618919373 0.302678883075714111
-0.222436249256134033 -0.127380713820457458 -0.0527900978922843933
-0.409626036882400513 -0.0651768967509269714 0.0988683328032493591
-0.44473797082901001 -0.0444641150534152985 0.133098289370536804
0.239055410027503967 -0.293959707021713257 0.314433157444000244
0.153989613056182861 -0.324218660593032837 0.320152610540390015
0.425463497638702393 -0.2560616135597229 0.328495949506759644
0.438430517911911011 -0.342805474996566772 -0.292692720890045166
0.506565690040588379 -0.33445391058921814 -0.318130224943161011
0.445282936096191406 -0.352153152227401733 -0.286754518747329712
0.238304868340492249 0.065792866051197052 0.312389016151428223
0.403394222259521484 -0.287487626075744629 0.325824588537216187
-0.494490981101989746 0.00694168265908956528 0.188772648572921753
0.485930263996124268 -0.0631928518414497375 0.131659790873527527
0.0126979677006602287 -0.170514091849327087 0.0100771430879831314
0.531799912452697754 -0.307530224323272705 -0.0622892566025257111
0.314987063407897949 -0.302123755216598511 -0.126770094037055969
0.446122735738754272 -0.291202813386917114 -0.285669684410095215
-0.33665427565574646 0.224905282258987427 0.126063168048858643
-0.400535821914672852 -0.0278724469244480133 -0.00150615861639380455
0.403303772211074829 -0.271708518266677856 0.324043393135070801
-0.133092373609542847 0.195959612727165222 0.168024614453315735
0.39935186505317688 -0.271644353866577148 0.323858439922332764
-0.446193099021911621 -0.024658525362610817 0.0218366682529449463
-0.137765467166900635 0.244997099041938782 0.191982567310333252
-0.61247330904006958 0.294164389371871948 0.184210985898971558
0.12466246634721756 0.116185739636421204 0.316807031631469727
-0.120707146823406219 0.250738024711608887 0.162123933434486389
-0.582983493804931641 0.348317861557006836 0.0586390532553195953
0.427073270082473755 -0.347982078790664673 0.152982249855995178
-0.566401541233062744 0.295276343822479248 -0.0684659704566001892
0.25204157829284668 0.0268933940678834915 -0.0794641897082328796
0.247828215360641479 0.100567631423473358 -0.0482353195548057556
-0.357049852609634399 -0.0553394779562950134 -0.141458466649055481
0.198862001299858093 0.120391756296157837 0.0358884818851947784
0.545838296413421631 -0.131446957588195801 0.111885108053684235
-0.581294238567352295 0.321955442428588867 -0.0223281960934400558
0.20628693699836731 0.0248253364115953445 0.176921561360359192
-0.594996929168701172 0.37527698278427124 0.172498121857643127
0.445056706666946411 -0.319077610969543457 0.127311348915100098
0.255273252725601196 -0.278553664684295654 0.316492736339569092
0.235694244503974915 0.0238991584628820419 0.316635847091674805
-0.362511128187179565 -0.0493804514408111572 -0.0233842339366674423
-0.182350203394889832 0.118426792323589325 0.0426422432065010071
0.254988640546798706 -0.287990301847457886 0.319308489561080933
0.242130696773529053 0.0332703329622745514 0.321897536516189575
0.400037676095962524 0.0234772339463233948 0.115169502794742584
-0.340087294578552246 -0.0656903982162475586 -0.146912425756454468
0.0759846195578575134 -0.332675516605377197 0.299067765474319458
-0.386357158422470093 -0.06040211021900177 0.0941742584109306335
-0.447770595550537109 -0.0409388169646263123 0.128112360835075378
0.439618170261383057 -0.279182463884353638 0.333561688661575317
0.03472185879945755 -0.122542098164558411 -0.0253955237567424774
0.414573311805725098 -0.280627936124801636 0.326917856931686401
0.433291256427764893 -0.295923352241516113 0.333068609237670898
0.368197441101074219 -0.278440356254577637 -0.130263671278953552
-0.476931869983673096 0.00183080846909433603 0.188726171851158142
-0.291092753410339355 -0.0958482027053833008 -0.104179956018924713
0.241610333323478699 -0.312742412090301514 0.309679090976715088
0.473512738943099976 -0.353999942541122437 0.00698957312852144241
-0.295925140380859375 -0.0960981622338294983 -0.106628738343715668
0.244964137673377991 -0.288335531949996948 0.320067316293716431
0.0625222399830818176 -0.329374879598617554 0.297160029411315918
0.158293917775154114 -0.267404437065124512 -0.105386659502983093
0.250337034463882446 0.063534080982208252 0.315528661012649536
-0.482066810131072998 -0.00754320994019508362 0.178337857127189636
0.236476048827171326 0.0667089894413948059 0.314891427755355835
0.238951161503791809 -0.331544667482376099 0.321407705545425415
-0.381805390119552612 -0.0915435627102851868 0.0370981991291046143
-0.215699866414070129 -0.139614596962928772 -0.0540278144180774689
-0.382259994745254517 -0.0632068738341331482 0.0838915929198265076
0.150200605392456055 -0.331328839063644409 0.331942081451416016
0.446141630411148071 -0.279715448617935181 0.333482086658477783
0.407682418823242188 -0.28033757209777832 0.325033783912658691
-0.501580893993377686 0.00691878097131848335 0.18909066915512085
-0.321502834558486938 0.0976268723607063293 -0.0698682293295860291
0.532871842384338379 -0.207316741347312927 -0.0527195930480957031
0.451317965984344482 -0.293641537427902222 -0.290561437606811523
0.487794607877731323 -0.324996054172515869 -0.310986876487731934
0.446760565042495728 -0.30948302149772644 -0.290920346975326538
-0.577325046062469482 0.269296348094940186 0.366225987672805786
-0.460975676774978638 0.106182605028152466 -0.230517938733100891
0.375101387500762939 -0.318471997976303101 0.199018940329551697
-0.589368104934692383 0.367048114538192749 0.131724849343299866
0.392887145280838013 -0.353175878524780273 -0.217528074979782104
0.441454917192459106 -0.310024470090866089 -0.289126813411712646
-0.200326606631278992 0.305617988109588623 0.0952965095639228821
-0.155194327235221863 0.26810649037361145 0.151953801512718201
0.530159473419189453 -0.338253259658813477 0.071699090301990509
0.464172601699829102 -0.265905886888504028 -0.217756018042564392
-0.633095026016235352 0.275857210159301758 0.107533000409603119
0.438775360584259033 -0.308316528797149658 -0.287296593189239502
0.515851855278015137 -0.276972442865371704 -0.316959112882614136
0.516973912715911865 -0.340108990669250488 -0.320868611335754395
0.454726099967956543 -0.306800007820129395 -0.293360680341720581
0.491226702928543091 -0.321738511323928833 0.0942675694823265076
0.0209252890199422836 -0.275429368019104004 -0.0183577574789524078
-0.65361475944519043 0.172171935439109802 -0.107579760253429413
-0.224357575178146362 0.318709820508956909 0.121691316366195679
0.46568065881729126 -0.363880634307861328 0.00582303572446107864
0.481403440237045288 -0.336611330509185791 0.0501752011477947235
0.511874198913574219 -0.339167535305023193 -0.319526463747024536
0.440540432929992676 -0.356302857398986816 -0.297704130411148071
-0.269653558731079102 0.32220873236656189 0.04225945845246315
0.424491852521896362 -0.313034683465957642 -0.281983405351638794
0.4157753586769104 -0.295078903436660767 0.328364133834838867
-0.325683921575546265 -0.0750297084450721741 0.123783595860004425
-0.366460114717483521 -0.066358223557472229 0.15499916672706604
-0.337906062602996826 0.215074062347412109 0.133196175098419189
0.0102936029434204102 0.119621627032756805 0.105368383228778839
0.542406201362609863 -0.30900302529335022 -0.0463284142315387726
0.0139357084408402443 -0.261426597833633423 0.0397054776549339294
-0.00326373102143406868 -0.236216291785240173 0.0944424942135810852
0.000494446663651615381 -0.219258546829223633 0.0817078053951263428
0.465255975723266602 -0.360739052295684814 0.030219273641705513
-0.268996059894561768 -0.137658283114433289 0.177748560905456543
-0.34467017650604248 -0.0655292421579360962 0.141583696007728577
0.123702816665172577 -0.276383280754089355 0.129071086645126343
-0.133567720651626587 0.0790691673755645752 0.0905739068984985352
0.463772207498550415 -0.0542664416134357452 0.0175043884664773941
-0.013836391270160675 -0.216568052768707275 0.0805560946464538574
-0.554345130920410156 0.391752749681472778 0.148227795958518982
0.496963053941726685 -0.366612941026687622 0.00513901188969612122
-0.610301792621612549 0.294161945581436157 0.187013566493988037
0.530391335487365723 -0.275041252374649048 -0.317800730466842651
0.370600104331970215 -0.264448434114456177 0.181439325213432312
0.420624583959579468 -0.344297230243682861 0.150752171874046326
0.252178162336349487 0.039388950914144516 -0.0665973573923110962
0.549743771553039551 -0.149841144680976868 0.124068401753902435
-0.570155799388885498 0.28423115611076355 -0.00582099193707108498
0.501235485076904297 -0.362465709447860718 -0.00139277731068432331
0.208397865295410156 0.115855313837528229 -0.0103503912687301636
-0.288760542869567871 -0.0852437391877174377 -0.0660338997840881348
0.159437313675880432 -0.0830044597387313843 -0.0360370203852653503
-0.339532554149627686 -0.105088174343109131 0.141614228487014771
0.511391282081604004 -0.281198561191558838 -0.313311338424682617
-0.338849425315856934 -0.0792594626545906067 0.038981955498456955
-0.368975073099136353 0.281000971794128418 -0.0621233619749546051
0.510172247886657715 -0.340819269418716431 0.0649913549423217773
0.302476704120635986 -0.205777674913406372 0.247848793864250183
0.543149590492248535 -0.311887651681900024 -0.0608755350112915039
0.141670569777488708 0.0696267113089561462 0.336441904306411743
-0.594469606876373291 0.267713099718093872 0.0127258496358990669
0.222119078040122986 -0.00697486894205212593 0.29558175802230835
0.23097267746925354 0.0344337895512580872 0.312773406505584717
0.533847928047180176 -0.31949499249458313 -0.0129224034026265144
-0.388890177011489868 -0.0636154487729072571 0.10613541305065155
-0.447113871574401855 -0.0397908203303813934 0.126964211463928223
0.496193647384643555 -0.0912746638059616089 0.154309183359146118
0.251004517078399658 0.0632106289267539978 0.316646099090576172
-0.290950864553451538 -0.0924368202686309814 0.307963728904724121
-0.366113185882568359 -0.114373423159122467 0.10440807044506073
-0.562981188297271729 0.12756916880607605 -0.0778916403651237488
-0.501049637794494629 0.0237597469240427017 0.187137648463249207
0.518453121185302734 -0.297219783067703247 -0.314149022102355957
0.472893297672271729 -0.32810404896736145 -0.299986302852630615
-0.573858678340911865 0.268965393304824829 0.363151282072067261
-0.570777595043182373 0.355036079883575439 0.167564123868942261
-0.191411525011062622 0.30486568808555603 0.101652055978775024
-0.66165459156036377 0.239961877465248108 0.0422179549932479858
-0.504471719264984131 0.144608035683631897 0.353743523359298706
0.507455885410308838 -0.347033202648162842 -0.318421751260757446
-0.200237229466438293 0.305200070142745972 0.102314196527004242
0.475413322448730469 -0.357526957988739014 0.00457546114921569824
0.510057628154754639 -0.330639362335205078 0.0662657842040061951
-0.610313653945922852 0.3677329421043396 0.0883453115820884705
-0.562101423740386963 0.28850218653678894 -0.0553723648190498352
0.220051899552345276 0.0103811733424663544 0.309111505746841431
0.240619614720344543 0.00520277302712202072 0.321560561656951904
-0.359100669622421265 -0.0564844459295272827 -0.137454316020011902
0.399482309818267822 -0.252721130847930908 0.321787655353546143
0.39978596568107605 -0.263090282678604126 0.324539124965667725
0.224218189716339111 -0.323998749256134033 0.320645362138748169
0.411275118589401245 -0.267832398414611816 0.324953645467758179
-0.50869220495223999 0.0497138574719429016 0.195732578635215759
-0.630786418914794922 0.156743854284286499 -0.0520677901804447174
-0.501444697380065918 0.147176504135131836 0.34571722149848938
0.521265685558319092 -0.350597083568572998 -0.323168367147445679
0.495603412389755249 -0.348256677389144897 8.59908177517354488e-05
-0.197530344128608704 0.0164607502520084381 -0.0496007800102233887
-0.557354927062988281 0.341971725225448608 -0.00515384692698717117
0.488805919885635376 -0.360387086868286133 0.0409033112227916718
0.44937509298324585 -0.0741835236549377441 0.00183453178033232689
-0.555873990058898926 0.385357677936553955 0.158347427845001221
0.37480241060256958 -0.0811064690351486206 -0.119982697069644928
-0.389320790767669678 0.319788277149200439 0.169210284948348999
-0.384280800819396973 0.328338205814361572 0.197893962264060974
-0.363765686750411987 0.238286823034286499 -0.0830330103635787964
-0.406905472278594971 0.19978998601436615 0.0413427948951721191
-0.644044399261474609 0.286976546049118042 0.0941859781742095947
0.408785700798034668 -0.347164660692214966 0.136282846331596375
0.22248329222202301 0.0830116048455238342 -0.0334899909794330597
0.498795241117477417 -0.161276236176490784 0.123621709644794464
0.500534653663635254 -0.0928785428404808044 0.134544715285301208
0.215461865067481995 0.00194198801182210445 0.299445748329162598
-0.352706223726272583 -0.0677919834852218628 -0.0086939716711640358
-0.385007649660110474 0.266265332698822021 -0.0712034478783607483
0.506738901138305664 -0.347037374973297119 0.0547488965094089508
-0.356521159410476685 -0.0559469610452651978 -0.145045801997184753
0.132298722863197327 0.0726938545703887939 0.322176963090896606
-0.0992452725768089294 -0.265256017446517944 0.00635592499747872353
0.242529824376106262 0.0233404748141765594 0.321867823600769043
-0.479926228523254395 -0.0114652346819639206 0.18571646511554718
0.242562666535377502 0.048326440155506134 0.317051708698272705
-0.2778167724609375 0.332878708839416504 0.0410485006868839264
0.369989931583404541 -0.030824173241853714 -0.0400260686874389648
0.520451724529266357 -0.34794655442237854 -0.0364874638617038727
0.293425589799880981 -0.0119133377447724342 0.0369704551994800568
-0.643731296062469482 0.284896284341812134 0.09303322434425354
0.0358844026923179626 0.136836662888526917 0.0852682068943977356
-0.397016316652297974 -0.0573312416672706604 0.126233220100402832
-0.440972983837127686 -0.037944357842206955 0.131700634956359863
0.524126648902893066 -0.317540407180786133 -0.0656321048736572266
0.42263716459274292 -0.280021011829376221 0.331013411283493042
0.509904921054840088 -0.344933748245239258 0.0569146499037742615
0.404042541980743408 -0.258897513151168823 0.323432117700576782
-0.47984805703163147 0.0182785056531429291 0.17710798978805542
0.23560294508934021 0.06851176917552948 0.314453959465026855
-0.47900053858757019 -0.00812148209661245346 0.167753413319587708
0.239227831363677979 0.0675192996859550476 0.314853876829147339
0.388277590274810791 0.0259459707885980606 0.105864331126213074
0.219739437103271484 -0.31599724292755127 0.310306459665298462
0.383107006549835205 0.0428663976490497589 0.0689184442162513733
0.462831974029541016 0.0106536699458956718 0.174853086471557617
0.399665474891662598 -0.258688777685165405 0.327007830142974854
-0.499160557985305786 0.0213422141969203949 0.18134036660194397
-0.573052108287811279 0.266244947910308838 0.360373526811599731
-0.664117634296417236 0.230030849575996399 0.0223677195608615875
-0.148959144949913025 0.275462299585342407 0.0793420448899269104
0.522306442260742188 -0.335022032260894775 -0.322785496711730957
-0.22004622220993042 0.315764307975769043 0.0970495864748954773
0.500121712684631348 -0.346525877714157104 0.0668060854077339172
-0.189408138394355774 0.302842527627944946 0.115046359598636627
0.31376078724861145 -0.130217373371124268 0.300573945045471191
0.225194931030273438 -0.0352635569870471954 0.305077433586120605
0.0575735345482826233 -0.330644190311431885 0.291410565376281738
0.435436904430389404 -0.280059754848480225 0.332519501447677612
0.409150600433349609 -0.285847991704940796 0.330699026584625244
0.38584667444229126 -0.265879690647125244 0.318589866161346436
0.397633969783782959 -0.38461536169052124 -0.225821301341056824
-0.161937952041625977 0.278473973274230957 0.128875002264976501
0.380744636058807373 0.0438872464001178741 0.0768597647547721863
0.390973716974258423 -0.25584295392036438 0.318595468997955322
-0.499880433082580566 0.0246214419603347778 0.18617643415927887
0.499849766492843628 -0.325898140668869019 -0.313409715890884399
0.380803614854812622 -0.37590402364730835 -0.216427460312843323
0.521372139453887939 -0.349243521690368652 -0.325184434652328491
0.520931601524353027 -0.348382651805877686 -0.322124004364013672
0.513548433780670166 -0.319630831480026245 -0.318752795457839966
0.255115538835525513 -0.22232644259929657 0.0573891215026378632
0.186144918203353882 -0.14221702516078949 -0.105625912547111511
0.50802689790725708 -0.320227622985839844 0.0289670992642641068
-0.469025701284408569 -0.0117158424109220505 0.181403815746307373
0.496438562870025635 -0.348932802677154541 -0.310075849294662476
0.521712362766265869 -0.32750663161277771 -0.322259455919265747
0.476235836744308472 -0.320213407278060913 -0.303353846073150635
-0.340801090002059937 0.230058372020721436 -0.0439579598605632782
0.201769649982452393 0.132819727063179016 0.112156152725219727
-0.172283247113227844 0.02239982970058918 0.0258316919207572937
0.265735357999801636 -0.165787070989608765 0.00593167450278997421
0.544958353042602539 -0.32831108570098877 -0.048129204660654068
-0.455879122018814087 -0.0528975874185562134 0.162505596876144409
0.469927310943603516 -0.356021106243133545 -0.307402759790420532
0.478674739599227905 -0.269775986671447754 -0.301846414804458618
0.467538982629776001 -0.36182790994644165 -0.308490991592407227
-0.319817781448364258 0.266820400953292847 0.0118350144475698471
0.0332574844360351562 0.0986548662185668945 0.128586187958717346
-0.284156441688537598 -0.0997887179255485535 -0.0870718210935592651
-0.616334617137908936 0.217140734195709229 -0.104273296892642975
0.244472548365592957 0.104524210095405579 -0.0298138987272977829
0.4664783775806427 -0.23509158194065094 -0.228805020451545715
-0.293409675359725952 -0.0882485061883926392 -0.095612064003944397
0.24922826886177063 -0.275899738073348999 0.322400808334350586
0.222105666995048523 0.0669062882661819458 -0.0279583651572465897
-0.250450164079666138 -0.129941388964653015 -0.0552264153957366943
-0.211281925439834595 0.30208510160446167 0.148947924375534058
0.339913666248321533 -0.140675991773605347 0.318105101585388184
0.529916942119598389 -0.356573104858398438 0.0693774297833442688
-0.599442005157470703 0.356713920831680298 0.060926046222448349
-0.345839172601699829 -0.0554747432470321655 -0.143289104104042053
-0.43233528733253479 0.15780213475227356 -0.084209635853767395
0.526814281940460205 -0.331699669361114502 0.0200922247022390366
0.528398454189300537 -0.287952601909637451 -0.0704351291060447693
-0.498386353254318237 0.142906561493873596 -0.253385186195373535
0.146577432751655579 0.156799599528312683 0.05879945307970047
0.253301441669464111 -0.00771990325301885605 0.327526837587356567
0.350062072277069092 -0.147264525294303894 0.320334076881408691
0.442490190267562866 -0.322440892457962036 -0.229599758982658386
-0.22368834912776947 -0.139757826924324036 -0.0535505674779415131
0.5227317214012146 -0.350213736295700073 0.0966405421495437622
-0.645627200603485107 0.253584802150726318 0.0244022831320762634
0.393343240022659302 -0.280146479606628418 0.32203713059425354
-0.474209636449813843 -0.00966367404907941818 0.165195971727371216
0.224506452679634094 -0.325000256299972534 0.31890222430229187
-0.363209545612335205 -0.120940797030925751 0.130632400512695312
-0.238128185272216797 -0.140379771590232849 -0.0536763966083526611
-0.113692648708820343 -0.00897304527461528778 -0.0164450462907552719
0.389567047357559204 -0.278417050838470459 0.320369631052017212
-0.506520390510559082 0.011439099907875061 0.20229753851890564
0.462844908237457275 -0.296814292669296265 -0.294559836387634277
0.351406335830688477 -0.148223087191581726 0.321189284324645996
0.458091974258422852 -0.303618818521499634 -0.229076370596885681
0.0246842522174119949 -0.143583104014396667 -0.0200393833220005035
0.369118601083755493 -0.327773571014404297 0.318529337644577026
0.391793817281723022 -0.281568706035614014 0.316630452871322632
0.128760755062103271 -0.318982541561126709 -0.0970534905791282654
-0.134233206510543823 0.278539180755615234 0.11773325502872467
-0.332891523838043213 0.0947815403342247009 -0.102026306092739105
0.374237298965454102 -0.37576565146446228 -0.214977309107780457
0.520148754119873047 -0.345632404088973999 -0.322801798582077026
0.523717045783996582 -0.357895702123641968 -0.326659262180328369
-0.0680750608444213867 -0.254571259021759033 0.099033840000629425
0.325845986604690552 -0.130914151668548584 0.314536541700363159
0.424477219581604004 -0.259825944900512695 0.328024953603744507
-0.479469418525695801 0.0320923924446105957 0.197033658623695374
0.52689659595489502 -0.299503594636917114 -0.322273761034011841
0.538337171077728271 -0.292357683181762695 -0.324691176414489746
0.378033280372619629 -0.37400507926940918 -0.21369093656539917
0.371539980173110962 -0.356944501399993896 -0.213691771030426025
0.524339556694030762 -0.351495653390884399 -0.325042665004730225
0.525647103786468506 -0.363271057605743408 -0.323129922151565552
0.515806972980499268 -0.327046662569046021 -0.320124328136444092
0.479736953973770142 -0.352182209491729736 -0.312247663736343384
0.478702515363693237 -0.36544916033744812 -0.312962383031845093
-0.361463218927383423 0.310548990964889526 0.240056097507476807
-0.320459634065628052 0.10435880720615387 0.0225501526147127151
-0.447222411632537842 0.20451529324054718 -0.039905548095703125
-0.377375632524490356 0.279608249664306641 -0.00688770925626158714
-0.022364690899848938 -0.260511726140975952 0.143958404660224915
-0.591549277305603027 0.361584663391113281 0.0647222325205802917
0.367736130952835083 -0.373330354690551758 -0.212476879358291626
-0.123832300305366516 -0.0104228099808096886 0.00824147555977106094
0.396819978952407837 -0.353226691484451294 -0.218313410878181458
0.507558882236480713 -0.159534797072410583 0.12500472366809845
0.195519477128982544 0.124869793653488159 0.00645824940875172615
-0.0267847180366516113 0.166937708854675293 0.383145034313201904
-0.333702653646469116 -0.120777659118175507 0.100626222789287567
-0.324900686740875244 0.303133070468902588 -0.0363169126212596893
0.534357845783233643 -0.34673231840133667 0.0376708023250102997
0.525600552558898926 -0.331766724586486816 0.0343450382351875305
-0.595373451709747314 0.382211029529571533 0.113893896341323853
-0.0108927134424448013 -0.14399072527885437 -0.0266377292573451996
-0.234972894191741943 0.17228485643863678 -0.00132422801107168198
-0.485092610120773315 -0.0103557705879211426 0.177621066570281982
-0.277737408876419067 0.336288958787918091 0.0425986126065254211
0.513679146766662598 -0.349000781774520874 0.0969060882925987244
-0.448217540979385376 -0.0354739762842655182 0.117810778319835663
0.43456190824508667 -0.253279447555541992 0.331619530916213989
0.415041178464889526 -0.278374344110488892 0.327101349830627441
-0.468513607978820801 0.0347106344997882843 0.193963617086410522
0.502517580986022949 -0.339482337236404419 0.00781965907663106918
-0.481054127216339111 -0.00251500564627349377 0.177949681878089905
-0.377082258462905884 -0.106346748769283295 0.0932433679699897766
-0.500628411769866943 0.0224741734564304352 0.184738814830780029
0.360842674970626831 -0.286780446767807007 -0.141825214028358459
0.00174335949122905731 -0.231122210621833801 0.0902258232235908508
-0.140014052391052246 0.265260070562362671 0.0887184441089630127
-0.129332318902015686 0.254586607217788696 0.0717130303382873535
0.312786489725112915 -0.29312935471534729 -0.131155461072921753
0.428392797708511353 -0.255516409873962402 0.330122143030166626
-0.615003526210784912 0.306677460670471191 0.392659425735473633
0.410983443260192871 -0.357813805341720581 -0.22639000415802002
0.505395054817199707 -0.346354782581329346 -0.319894164800643921
0.508091926574707031 -0.352390587329864502 -0.322601586580276489
0.523878395557403564 -0.298363983631134033 -0.318695008754730225
0.51005321741104126 -0.346702456474304199 -0.320220768451690674
0.270185679197311401 -0.169264838099479675 -0.0795117989182472229
0.133849248290061951 0.120429143309593201 0.329185038805007935
0.251959174871444702 -0.284924060106277466 0.328139305114746094
0.324595987796783447 -0.120208397507667542 0.31057441234588623
0.302560716867446899 -0.20435062050819397 0.251115351915359497
0.250182956457138062 -0.00373072992078959942 0.325084537267684937
0.507528305053710938 -0.343036800622940063 0.0874477922916412354
0.241834387183189392 0.0899404138326644897 0.310010254383087158
0.463143080472946167 -0.283931106328964233 -0.231199100613594055
-0.261898964643478394 0.314173907041549683 0.0462169572710990906
0.344255059957504272 -0.139976799488067627 0.329363048076629639
0.374083399772644043 -0.363693892955780029 -0.208688244223594666
0.337795913219451904 -0.129242449998855591 0.32061275839805603
0.526801228523254395 -0.347047299146652222 -0.324046343564987183
0.524566292762756348 -0.351902127265930176 -0.326598465442657471
0.4803428053855896 -0.372159391641616821 -0.313052535057067871
-0.359653502702713013 -0.064684160053730011 0.0832491070032119751
-0.407100588083267212 0.0889479145407676697 -0.112704366445541382
0.0142322694882750511 0.0983021333813667297 0.21733836829662323
-0.378137141466140747 -0.0928460210561752319 -0.0279258172959089279
0.265615761280059814 0.068570263683795929 -0.0917443633079528809
-0.108024872839450836 -0.0149061782285571098 0.046304706484079361
-0.357724010944366455 -0.0916843563318252563 0.0133081767708063126
-0.290065735578536987 0.304968088865280151 0.166930675506591797
-0.355177164077758789 -0.0732414200901985168 0.0410058014094829559
-0.598208785057067871 0.294685393571853638 0.187060043215751648
0.249541014432907104 0.0969229638576507568 -0.0342165641486644745
0.379370987415313721 -0.354749768972396851 -0.209363028407096863
0.46997794508934021 -0.324641644954681396 0.137873932719230652
0.46473383903503418 -0.271722853183746338 -0.0930435657501220703
-0.439261823892593384 -0.0427825115621089935 0.0846425667405128479
-0.33597448468208313 -0.124455153942108154 0.12791915237903595
0.528579056262969971 -0.341810554265975952 0.0509038902819156647
0.392869561910629272 0.047181982547044754 0.133551701903343201
-0.185639694333076477 0.314245164394378662 0.108167685568332672
-0.441219687461853027 -0.0426859408617019653 0.118201516568660736
0.537633657455444336 -0.326074540615081787 -0.0557481348514556885
-0.352717816829681396 0.306585133075714111 0.114577487111091614
0.494374990463256836 -0.345996290445327759 0.0440042242407798767
-0.575177133083343506 0.305215328931808472 0.379792243242263794
0.431141674518585205 -0.280966192483901978 0.333579331636428833
-0.477245241403579712 0.00425093388184905052 0.16453966498374939
0.525230646133422852 -0.349759966135025024 -0.00267114327289164066
-0.067140430212020874 -0.2626667320728302 0.298601746559143066
-0.511537492275238037 0.00478401361033320427 0.188487067818641663
0.390121430158615112 -0.360174208879470825 -0.215663492679595947
-0.118243806064128876 0.254560112953186035 0.0639399811625480652
-0.500050902366638184 0.00520596932619810104 0.193666443228721619
0.426621347665786743 -0.274469763040542603 0.330513656139373779
-0.333236336708068848 0.10442526638507843 -0.118103332817554474
-0.10561303049325943 0.254413366317749023 0.0939368903636932373
0.510973811149597168 -0.341596692800521851 -0.319699347019195557
