ply
format ascii 1.0
element vertex 738
property float x
property float y
property float z
end_header
-0.563316226005554199 0.199206098914146423 -0.229214459657669067
-0.276580899953842163 0.287963449954986572 -0.00117885111831128597
0.454618692398071289 -0.246524393558502197 -0.288503319025039673
0.459956258535385132 -0.2754954993724823 -0.291024506092071533
-0.635036349296569824 0.308127671480178833 0.170208245515823364
0.512200355529785156 -0.317498534917831421 -0.0387543514370918274
0.468665510416030884 -0.265893340110778809 -0.298152446746826172
0.477873682975769043 -0.295121490955352783 -0.300426185131072998
0.457875937223434448 -0.246308669447898865 -0.290074408054351807
0.380836814641952515 -0.361070305109024048 -0.214065983891487122
-0.479684978723526001 -0.0126161267980933189 0.185678973793983459
-0.516622781753540039 0.365729451179504395 0.173855379223823547
-0.618742704391479492 0.201965838670730591 -0.0873562544584274292
-0.237564235925674438 0.0187521222978830338 -0.0728041678667068481
-0.382870793342590332 -0.0591428652405738831 0.0235012583434581757
0.47457924485206604 -0.368356019258499146 0.0216482542455196381
-0.649448096752166748 0.236708164215087891 0.0320569984614849091
0.412298440933227539 -0.346803337335586548 -0.221846342086791992
0.525781571865081787 -0.337151974439620972 0.0799080580472946167
0.505770981311798096 -0.239106327295303345 -0.30826258659362793
0.249240249395370483 -0.282171070575714111 0.318118572235107422
0.239046886563301086 0.0667468607425689697 0.314442098140716553
0.539290785789489746 -0.301876991987228394 -0.0938413962721824646
-0.448145657777786255 -0.0414729379117488861 0.126349836587905884
-0.0440454930067062378 0.10460972785949707 0.317577123641967773
0.247789174318313599 0.0211989302188158035 0.322016745805740356
-0.285163402557373047 -0.0998788550496101379 -0.099316038191318512
-0.138021886348724365 -0.0151164373382925987 -0.0490741245448589325
-0.278029769659042358 0.337830543518066406 0.0467324890196323395
-0.254881620407104492 0.289875268936157227 -0.00350742670707404613
-0.219067946076393127 0.32188764214515686 0.0695798918604850769
-0.573459982872009277 0.152196243405342102 -0.0746794566512107849
-0.290112763643264771 0.29266849160194397 0.0157774463295936584
0.525352358818054199 -0.320670753717422485 0.027014831081032753
0.345910876989364624 -0.0303943194448947906 -0.0346824638545513153
0.521964490413665771 -0.362918585538864136 0.0892456173896789551
-0.0835867822170257568 -0.111832946538925171 0.0782452449202537537
-0.404121220111846924 0.326002508401870728 0.121001578867435455
0.504475533962249756 -0.367096066474914551 -0.00464783143252134323
-0.118874922394752502 0.266161084175109863 0.120687611401081085
0.518445849418640137 -0.342966586351394653 0.0356867015361785889
0.12996344268321991 -0.334648281335830688 0.301114320755004883
0.466351509094238281 -0.311037570238113403 0.0723047778010368347
0.482583165168762207 -0.37401309609413147 0.0521733611822128296
0.420896381139755249 -0.0259262789040803909 0.0646723732352256775
0.49386933445930481 -0.363556027412414551 -0.0156980454921722412
-0.233125463128089905 0.287158489227294922 0.0838752835988998413
0.530944943428039551 -0.331779688596725464 -0.00738825555890798569
-0.272107243537902832 0.315389424562454224 0.113711483776569366
0.30807185173034668 0.00271976180374622345 0.0460927262902259827
0.467147886753082275 -0.263500392436981201 -0.296224474906921387
0.473548710346221924 -0.304303348064422607 0.114083811640739441
0.510896742343902588 -0.313678711652755737 -0.104558967053890228
0.508918464183807373 -0.245456293225288391 -0.308580636978149414
0.447672069072723389 -0.29259878396987915 -0.292914986610412598
0.466108441352844238 -0.283365756273269653 -0.297430247068405151
0.138205841183662415 0.11295037716627121 0.336528092622756958
-0.652269721031188965 0.28569340705871582 0.0978661999106407166
-0.638478279113769531 0.244774565100669861 -0.0383726321160793304
0.136171266436576843 0.0694319456815719604 0.337658852338790894
-0.577246785163879395 0.303753077983856201 -0.0557535327970981598
0.262327015399932861 0.0305847655981779099 -0.0736941248178482056
0.541698217391967773 -0.216692209243774414 0.11140306293964386
-0.360350847244262695 -0.0359343849122524261 -0.13456253707408905
-0.574881494045257568 0.327438086271286011 -0.0297645218670368195
-0.362060338258743286 -0.0710905417799949646 -0.0342165045440196991
-0.130913853645324707 -0.267708092927932739 0.118876732885837555
0.49483981728553772 -0.365847378969192505 -0.000533207377884536982
0.373527020215988159 -0.359466910362243652 -0.210233539342880249
-0.378677278757095337 -0.107061721384525299 0.101104594767093658
-0.0674362778663635254 -0.26407960057258606 0.296327143907546997
0.519599378108978271 -0.243410766124725342 -0.309599131345748901
0.509177625179290771 -0.330576211214065552 0.0151082668453454971
-0.593486428260803223 0.36896812915802002 0.120401844382286072
-0.655559539794921875 0.175606966018676758 -0.103185787796974182
-0.223342359066009521 -0.144304409623146057 -0.0539797991514205933
-0.191401511430740356 0.31667017936706543 0.10044030100107193
0.256342560052871704 -0.283461183309555054 0.319553613662719727
0.239003702998161316 0.032386239618062973 0.318920254707336426
-0.120383456349372864 -0.0461267754435539246 0.00704125640913844109
-0.641710340976715088 0.308627784252166748 0.101707421243190765
0.364410519599914551 -0.374014288187026978 -0.207149684429168701
0.537483334541320801 -0.217702552676200867 0.16169208288192749
-0.552871108055114746 0.382455408573150635 0.157781884074211121
-0.122659824788570404 0.259376257658004761 0.114820361137390137
0.119309514760971069 0.102602846920490265 0.0891829580068588257
-0.375594913959503174 0.265790998935699463 -0.0898466035723686218
0.51659846305847168 -0.349062561988830566 0.0986115485429763794
-0.293831974267959595 -0.107339449226856232 -0.109556809067726135
0.27487027645111084 0.103105328977108002 -0.0579041242599487305
-0.575276553630828857 0.219463616609573364 -0.212829858064651489
-0.115698039531707764 0.268673181533813477 0.179509431123733521
0.235696688294410706 -0.287947207689285278 0.314237594604492188
0.309892624616622925 -0.187258169054985046 0.240865051746368408
0.541476607322692871 -0.325868278741836548 -0.0210855156183242798
0.078640468418598175 -0.337763398885726929 0.282058656215667725
-0.00670862849801778793 -0.171905249357223511 0.00399170583114027977
-0.282413691282272339 0.261725872755050659 0.00674780318513512611
0.512853384017944336 -0.237178772687911987 -0.309596240520477295
-0.647077620029449463 0.278247088193893433 0.0793844088912010193
-0.646488547325134277 0.183122932910919189 -0.0910368189215660095
0.513814866542816162 -0.322532743215560913 0.0241193361580371857
-0.40721699595451355 -0.0637479349970817566 0.11330721527338028
0.516531944274902344 -0.355738967657089233 -0.0207902919501066208
-0.566686809062957764 0.374328404664993286 0.152293264865875244
0.235763922333717346 0.0432001389563083649 0.313464432954788208
-0.664974570274353027 0.227102309465408325 0.0229432955384254456
-0.448352575302124023 -0.0385735742747783661 0.126858621835708618
0.502710103988647461 -0.302331656217575073 -0.1790475994348526
-0.589229881763458252 0.361023008823394775 0.0859028473496437073
-0.194243267178535461 0.314944297075271606 0.10455872118473053
0.246774047613143921 0.0241030771285295486 0.323610126972198486
0.530624926090240479 -0.323838710784912109 -0.0582511462271213531
-0.182995051145553589 0.307056337594985962 0.12817440927028656
0.247013881802558899 0.00717480340972542763 0.323745548725128174
0.0585020743310451508 0.139823064208030701 0.345468580722808838
-0.505914926528930664 0.149414494633674622 0.35666346549987793
0.270392924547195435 -0.311218291521072388 0.326102405786514282
-0.253992855548858643 0.0234856028109788895 -0.0710145607590675354
0.240743175148963928 -0.29526183009147644 0.322342842817306519
0.248815879225730896 0.0439869612455368042 0.314194172620773315
0.468142569065093994 -0.10187365859746933 0.0344151481986045837
-0.12493443489074707 0.195188790559768677 0.115094877779483795
0.239629015326499939 -0.326597303152084351 0.317796170711517334
0.499949812889099121 -0.366610586643218994 0.0744842886924743652
0.523144960403442383 -0.324738860130310059 0.0260384492576122284
0.444313496351242065 -0.25320810079574585 0.33221137523651123
0.321257025003433228 -0.131411895155906677 -0.106892846524715424
0.0631513744592666626 -0.0106233954429626465 0.32145226001739502
0.511004030704498291 -0.360917121171951294 0.0473439432680606842
0.135465130209922791 -0.10063520073890686 0.0402686372399330139
0.0493535548448562622 0.011631358414888382 0.0294240526854991913
0.020618923008441925 0.0483256913721561432 0.0422811731696128845
0.0879034996032714844 -0.0659611672163009644 0.289400994777679443
-0.16245974600315094 -0.26580241322517395 0.147778242826461792
0.264785706996917725 -0.0200496856123209 0.0612974874675273895
-0.0291560757905244827 -0.0289361067116260529 0.295306116342544556
0.501921594142913818 -0.240420907735824585 -0.302182465791702271
0.475677073001861572 -0.315064877271652222 -0.3021220862865448
-0.631015896797180176 0.30627739429473877 0.167191669344902039
0.475187450647354126 -0.320825695991516113 0.120849914848804474
0.508808910846710205 -0.300901323556900024 -0.105722390115261078
0.527964413166046143 -0.27501639723777771 -0.31735345721244812
0.49329066276550293 -0.332541346549987793 -0.310869485139846802
0.503231525421142578 -0.320152789354324341 0.0978431105613708496
0.473922938108444214 -0.30589526891708374 -0.298276156187057495
-0.559468209743499756 0.268115580081939697 0.364300578832626343
0.124887891113758087 0.117000244557857513 0.313937067985534668
-0.633665859699249268 0.282211422920227051 0.0541095882654190063
-0.587416589260101318 0.362780511379241943 0.102241933345794678
0.371250122785568237 -0.374168097972869873 -0.21292482316493988
0.438179254531860352 -0.348005205392837524 0.154182001948356628
0.0579849928617477417 0.12144692987203598 0.320844799280166626
-0.5746421217918396 0.368817150592803955 0.215351104736328125
0.264583945274353027 0.0246956627815961838 -0.0588964000344276428
0.368528306484222412 -0.336820662021636963 0.160461321473121643
0.510251939296722412 -0.301623165607452393 -0.112170621752738953
0.133383825421333313 -0.320741921663284302 -0.0980186611413955688
0.516310930252075195 -0.348862290382385254 -0.0204475335776805878
0.389045625925064087 -0.346888571977615356 -0.214280679821968079
-0.577087819576263428 0.31904679536819458 0.0406011343002319336
0.535781204700469971 -0.277990102767944336 -0.320755720138549805
0.467634767293930054 -0.311032205820083618 -0.299413084983825684
0.506931483745574951 -0.347191154956817627 0.0177729707211256027
-0.555976450443267822 0.309702694416046143 0.102065086364746094
0.193660765886306763 -0.339482247829437256 -0.0593926608562469482
0.0698745995759963989 -0.282382279634475708 -0.0781525745987892151
0.252224534749984741 -0.250302225351333618 0.320013135671615601
0.239797711372375488 0.0310283377766609192 0.316698282957077026
-0.121245428919792175 -0.0479266680777072906 0.00789596047252416611
0.178605422377586365 -0.100190870463848114 -0.0150407925248146057
0.53220665454864502 -0.332387864589691162 -0.0133271105587482452
0.370118439197540283 -0.349613845348358154 -0.209064409136772156
0.534731566905975342 -0.245871618390083313 0.17710953950881958
0.560909152030944824 -0.315960168838500977 -0.331081211566925049
0.554314672946929932 -0.211755439639091492 0.133756399154663086
-0.543334305286407471 0.380757242441177368 0.164318457245826721
0.122811079025268555 0.117266051471233368 0.132859036326408386
-0.582300305366516113 0.351900577545166016 0.097631499171257019
-0.481685489416122437 0.185862511396408081 -0.0917387902736663818
0.515387296676635742 -0.339261651039123535 0.0386793166399002075
0.253224462270736694 -0.279235035181045532 0.321837663650512695
0.27829509973526001 -0.356104373931884766 -0.126261457800865173
0.50768744945526123 -0.286797523498535156 -0.313828527927398682
-0.43234822154045105 -0.0574235469102859497 0.116535939276218414
0.201903194189071655 0.0905758515000343323 0.223128050565719604
0.244215130805969238 0.104601696133613586 -0.0574782900512218475
-0.19583524763584137 0.20156937837600708 0.349046230316162109
0.250356197357177734 0.0249908119440078735 0.323134630918502808
0.239713013172149658 0.0190808530896902084 0.320826053619384766
-0.0315398387610912323 0.162782967090606689 0.382401078939437866
-0.482684999704360962 -0.0158310569822788239 0.180031776428222656
0.483582258224487305 -0.369181305170059204 0.0459269508719444275
-0.643596351146697998 0.287062227725982666 0.0861003100872039795
0.275787532329559326 -0.165894106030464172 -0.0706980377435684204
-0.41201367974281311 -0.0571019686758518219 0.0787426456809043884
-0.64314734935760498 0.175588369369506836 -0.0821233168244361877
-0.226178213953971863 -0.134195104241371155 -0.0524396933615207672
0.254731118679046631 -0.26564103364944458 0.320997774600982666
-0.345514625310897827 0.0170848146080970764 -0.117123514413833618
-0.287347167730331421 -0.091846071183681488 -0.106726869940757751
-0.58517831563949585 0.209673941135406494 -0.218132749199867249
0.267379522323608398 -0.29711112380027771 0.315079361200332642
-0.0258184298872947693 -0.187481418251991272 -0.0437085963785648346
-0.618146061897277832 0.276848077774047852 0.0312809422612190247
-0.608914673328399658 0.29817885160446167 0.0923553928732872009
-0.397760927677154541 -0.0630982518196105957 0.118726298213005066
-0.451888114213943481 -0.038404460996389389 0.119342602789402008
0.430888950824737549 -0.271844208240509033 0.329088747501373291
-0.0525301545858383179 0.140792280435562134 0.0914529189467430115
-0.503180086612701416 0.151038840413093567 0.355278342962265015
0.240590959787368774 -0.319417864084243774 0.322694599628448486
0.49696117639541626 -0.371003061532974243 0.0572461970150470734
0.399090379476547241 -0.256957501173019409 0.322365045547485352
-0.158612415194511414 -0.263778656721115112 0.18142254650592804
-0.499340653419494629 0.0138286128640174866 0.157954409718513489
0.417365282773971558 -0.297482341527938843 0.328640192747116089
0.53513026237487793 -0.340381711721420288 -0.0185562819242477417
0.344118237495422363 -0.26758265495300293 -0.128017261624336243
-0.496624261140823364 0.0718191191554069519 0.203845411539077759
0.443429917097091675 -0.272289425134658813 0.333315908908843994
0.521867096424102783 -0.335577219724655151 0.0326817259192466736
0.453197866678237915 -0.320165723562240601 -0.293157070875167847
0.474068909883499146 -0.311834841966629028 0.116587705910205841
0.517067790031433105 -0.278685092926025391 -0.312939494848251343
0.502501964569091797 -0.326226592063903809 -0.314434409141540527
0.51795351505279541 -0.327283352613449097 0.101806923747062683
0.479154437780380249 -0.311700165271759033 -0.302292138338088989
0.114487655460834503 0.118603110313415527 0.288790881633758545
-0.122010707855224609 0.268608242273330688 0.158524602651596069
-0.614899158477783203 0.265325725078582764 0.0519829876720905304
-0.479555785655975342 0.00284397020004689693 0.181207194924354553
0.426515132188796997 -0.355199515819549561 0.158464103937149048
-0.2925301194190979 -0.11092357337474823 -0.10598117858171463
0.130419343709945679 0.0655076205730438232 0.321021378040313721
0.253654688596725464 0.0386158600449562073 -0.0780126005411148071
0.235437572002410889 0.093825608491897583 -0.0533023551106452942
0.417523324489593506 -0.261777013540267944 -0.202491447329521179
0.521521925926208496 -0.354863435029983521 -0.0195725318044424057
-0.608946859836578369 0.380982398986816406 0.1811247318983078
0.517419219017028809 -0.279586553573608398 -0.314861685037612915
0.498954236507415771 -0.350199729204177856 0.0239654015749692917
-0.587901413440704346 0.369155287742614746 0.112925797700881958
0.505855441093444824 -0.104816123843193054 0.147139936685562134
-0.198103830218315125 0.311479330062866211 0.112678296864032745
0.263830661773681641 -0.286693722009658813 0.319667518138885498
0.236843273043632507 0.0621426552534103394 0.310352712869644165
-0.144688740372657776 -0.0436787158250808716 0.00396255729719996452
-0.657886385917663574 0.214498966932296753 -0.0462817810475826263
-0.288805514574050903 -0.0762734413146972656 -0.0688241273164749146
0.227178558707237244 0.0420982688665390015 -0.0483717061579227448
0.551409065723419189 -0.144610151648521423 0.13189522922039032
0.519603908061981201 -0.295545190572738647 0.0747743472456932068
0.517422318458557129 -0.284305006265640259 -0.181310772895812988
-0.358255505561828613 -0.0173780769109725952 -0.0281366221606731415
0.0914221182465553284 0.0881814286112785339 0.0855362787842750549
0.466474175453186035 -0.362102240324020386 -0.0107863340526819229
-0.433046847581863403 0.157522708177566528 -0.0666670501232147217
0.523630619049072266 -0.335841000080108643 0.0687834322452545166
0.262690812349319458 -0.286062657833099365 0.318390369415283203
0.00918161217123270035 -0.0911483690142631531 -0.0263506043702363968
0.0323620252311229706 -0.130552858114242554 0.0216448437422513962
-0.630813300609588623 0.264832913875579834 0.0289482027292251587
0.242050513625144958 0.0743150636553764343 0.318619787693023682
0.240104630589485168 0.0295530129224061966 0.318712085485458374
-0.174899116158485413 0.3007698655128479 0.116053313016891479
0.304456532001495361 -0.151374846696853638 0.307668030261993408
0.261723935604095459 -0.290865868330001831 0.320876568555831909
-0.476391434669494629 -0.00842926371842622757 0.166083037853240967
0.242689028382301331 0.0817537829279899597 0.311976164579391479
0.520050704479217529 -0.351495951414108276 0.0818202793598175049
-0.0351579785346984863 -0.237829849123954773 0.123902641236782074
-0.638411462306976318 0.289845466613769531 0.0987241789698600769
-0.234492823481559753 -0.133172839879989624 -0.0582240074872970581
-0.37952655553817749 -0.109138712286949158 0.105372726917266846
-0.236708179116249084 -0.148203417658805847 -0.0580685809254646301
-0.65809786319732666 0.214195325970649719 -0.0339856632053852081
0.528690099716186523 -0.352831602096557617 0.0777628496289253235
-0.621256232261657715 0.270101279020309448 0.0523814298212528229
-0.404380530118942261 -0.0646450668573379517 0.11190100759267807
-0.446550160646438599 -0.0417927131056785583 0.121846437454223633
0.26779291033744812 -0.285753965377807617 0.323352247476577759
0.127382352948188782 -0.326801210641860962 0.312448263168334961
0.152039676904678345 -0.343290716409683228 0.317726284265518188
0.447526365518569946 -0.335928946733474731 -0.293129771947860718
0.515555322170257568 -0.303201824426651001 -0.108090363442897797
0.515039920806884766 -0.280557096004486084 -0.312958002090454102
0.484667181968688965 -0.327989935874938965 -0.309919357299804688
0.464141309261322021 -0.346199542284011841 -0.302796304225921631
0.549411356449127197 -0.210509389638900757 -0.316110372543334961
0.523905754089355469 -0.300353854894638062 -0.322605013847351074
0.517770230770111084 -0.301162809133529663 -0.318502336740493774
0.246764332056045532 0.0570317134261131287 0.316217541694641113
0.24125969409942627 0.087508082389831543 0.312542170286178589
-0.291976332664489746 -0.100929863750934601 -0.102114275097846985
-0.453811466693878174 -0.0522807873785495758 0.116942979395389557
0.404556006193161011 -0.272384673357009888 0.322410792112350464
-0.502607524394989014 0.00352719076909124851 0.188999474048614502
0.400844186544418335 -0.287369102239608765 0.324728310108184814
0.398996055126190186 -0.273680329322814941 0.323206782341003418
0.342046260833740234 -0.259118974208831787 0.0899589061737060547
-0.019056735560297966 -0.244619175791740417 0.128476694226264954
-0.464697748422622681 0.0357535779476165771 0.189407169818878174
-0.194530755281448364 0.221508696675300598 0.171809807419776917
0.366634398698806763 -0.329473197460174561 -0.0236630868166685104
0.32318761944770813 -0.390364736318588257 -0.159040719270706177
0.535218536853790283 -0.323847442865371704 -0.0583521388471126556
-0.44197508692741394 -0.00498896511271595955 0.152554109692573547
-0.0193239152431488037 -0.0596344955265522003 0.141516119241714478
-0.000493299507070332766 -0.236347809433937073 0.10618976503610611
0.526016354560852051 -0.201982244849205017 -0.0801768004894256592
0.449585586786270142 -0.308605968952178955 -0.293016403913497925
0.526636064052581787 -0.275718361139297485 -0.315808594226837158
0.499697029590606689 -0.325175255537033081 -0.312804818153381348
0.47500234842300415 -0.305324643850326538 -0.297528624534606934
-0.127580329775810242 0.246567413210868835 0.138710230588912964
-0.649115204811096191 0.281869828701019287 0.0941205993294715881
-0.199103400111198425 0.286612898111343384 0.335658520460128784
0.49784398078918457 -0.08682212233543396 0.136505559086799622
0.200512990355491638 -0.359415590763092041 -0.0910157784819602966
0.505193352699279785 -0.367887109518051147 -0.0228306334465742111
0.527051150798797607 -0.2428150475025177 0.172813072800636292
-0.58605802059173584 0.379200458526611328 0.17050933837890625
0.444801986217498779 -0.315198719501495361 -0.287892132997512817
0.498412936925888062 -0.111195847392082214 0.112019918859004974
-0.655938327312469482 0.175290703773498535 -0.103882819414138794
-0.202077150344848633 0.308670520782470703 0.0888924822211265564
0.20117698609828949 -0.0136138647794723511 0.29508092999458313
0.159880861639976501 -0.0622662417590618134 -0.0442774593830108643
-0.579692423343658447 0.302163839340209961 0.36851346492767334
0.274969875812530518 0.0983481854200363159 -0.0293310247361660004
-0.435418814420700073 0.155219927430152893 -0.0861891880631446838
0.534233331680297852 -0.333239555358886719 0.0126160206273198128
-0.568896353244781494 0.197121813893318176 -0.229222655296325684
-0.497829020023345947 0.0447721481323242188 -0.086992412805557251
0.0312345325946807861 -0.104139216244220734 0.0327966846525669098
0.533890366554260254 -0.264755845069885254 -0.316454023122787476
0.00969041138887405396 0.197641149163246155 0.0273217931389808655
0.302049249410629272 0.0388262234628200531 -0.0846764519810676575
-0.332366496324539185 -0.0162403322756290436 -0.107886232435703278
0.236372277140617371 0.0144367944449186325 0.321631759405136108
0.124940112233161926 0.0129789160564541817 0.298757702112197876
0.527308523654937744 -0.355351686477661133 0.0662098973989486694
0.466880530118942261 -0.310079008340835571 -0.233262240886688232
-0.65209507942199707 0.285211861133575439 0.104228034615516663
0.546395719051361084 -0.220091193914413452 0.163369119167327881
0.52783280611038208 -0.323566466569900513 -0.0161732658743858337
-0.383193790912628174 -0.0566373392939567566 0.076070539653301239
0.45670589804649353 -0.311089098453521729 -0.29271233081817627
0.504773855209350586 -0.340103864669799805 -0.318038731813430786
0.478622525930404663 -0.314575850963592529 -0.299651265144348145
0.520177543163299561 -0.301567882299423218 -0.317466557025909424
-0.00246704090386629105 -0.140162095427513123 -0.0250209402292966843
0.397330224514007568 -0.273238122463226318 0.323381930589675903
0.401001214981079102 -0.271664708852767944 0.323686569929122925
0.505896270275115967 -0.332138955593109131 0.10573490709066391
-0.467687934637069702 0.0422894470393657684 0.170520424842834473
0.409849882125854492 -0.346016615629196167 0.156483709812164307
-0.36096230149269104 -0.0355469770729541779 -0.148264437913894653
-0.128447458148002625 -0.267947971820831299 0.112237431108951569
0.512411832809448242 -0.369225203990936279 -0.0147741138935089111
-0.213699355721473694 0.312467783689498901 0.097426779568195343
0.250393778085708618 -0.287207335233688354 0.322813361883163452
0.208878889679908752 0.0093785654753446579 -0.0463040322065353394
0.06982392817735672 -0.151665911078453064 -0.0174298584461212158
-0.169739603996276855 0.304724335670471191 0.118616729974746704
0.47092592716217041 -0.364514917135238647 0.00693872477859258652
-0.291095972061157227 -0.0997200086712837219 -0.103371940553188324
0.0363070219755172729 -0.149838477373123169 -0.0218992531299591064
0.232137396931648254 0.0562584437429904938 0.309037387371063232
0.253199875354766846 -0.288769334554672241 0.320595324039459229
-0.471803635358810425 0.000968762673437595367 0.168545141816139221
0.240958616137504578 0.062716268002986908 0.312937021255493164
0.508786976337432861 -0.352188944816589355 0.0638589188456535339
0.227221623063087463 -0.31493300199508667 0.314496815204620361
-0.375512927770614624 -0.0933999791741371155 0.0860492363572120667
-0.0629165619611740112 -0.241787165403366089 0.302439004182815552
-0.222841978073120117 -0.127904370427131653 -0.0532870367169380188
-0.409995228052139282 -0.065662875771522522 0.0983947142958641052
-0.445096999406814575 -0.0449143238365650177 0.132620424032211304
0.238785937428474426 -0.294157743453979492 0.314368367195129395
0.153714478015899658 -0.324487030506134033 0.320036917924880981
0.4251423180103302 -0.256144702434539795 0.328529477119445801
0.438079506158828735 -0.343156218528747559 -0.292784154415130615
0.506193220615386963 -0.334804683923721313 -0.318184047937393188
0.44492727518081665 -0.352504909038543701 -0.286839604377746582
0.238226115703582764 0.0657800137996673584 0.312215059995651245
0.403071552515029907 -0.287597924470901489 0.325852513313293457
-0.494825690984725952 0.00656087649986147881 0.188281834125518799
0.485701769590377808 -0.0632448792457580566 0.131631836295127869
0.0124124428257346153 -0.170889228582382202 0.00966676231473684311
0.531418681144714355 -0.307776361703872681 -0.0623191595077514648
0.314677536487579346 -0.302428603172302246 -0.126952439546585083
0.445770472288131714 -0.291530609130859375 -0.285754919052124023
-0.336825430393218994 0.224602729082107544 0.125547736883163452
-0.400894224643707275 -0.0283724032342433929 -0.00203442643396556377
0.402986884117126465 -0.271807670593261719 0.324069797992706299
-0.133237451314926147 0.19577556848526001 0.167548090219497681
0.399036616086959839 -0.271744251251220703 0.323883414268493652
-0.446546345949172974 -0.0251399483531713486 0.0213031508028507233
-0.137901201844215393 0.244837969541549683 0.19149896502494812
-0.612655878067016602 0.293953478336334229 0.183656424283981323
0.124601081013679504 0.116132326424121857 0.316526502370834351
-0.120834015309810638 0.250576108694076538 0.161632254719734192
-0.583131134510040283 0.348057568073272705 0.0580479428172111511
0.42675819993019104 -0.348189949989318848 0.152967572212219238
-0.566577315330505371 0.294964313507080078 -0.0690785869956016541
0.251910626888275146 0.0267405379563570023 -0.0797374770045280457
0.247736081480979919 0.100449874997138977 -0.0485193729400634766
-0.357446908950805664 -0.0559049658477306366 -0.142001479864120483
0.198806449770927429 0.120293043553829193 0.0355867147445678711
0.545541584491729736 -0.131545618176460266 0.111892923712730408
-0.581454992294311523 0.321662575006484985 -0.0229320228099822998
0.206224381923675537 0.024739384651184082 0.176701575517654419
-0.595150947570800781 0.375075876712799072 0.171924561262130737
0.444738000631332397 -0.31927037239074707 0.127295851707458496
0.255005359649658203 -0.278730481863021851 0.316438347101211548
0.235593706369400024 0.0238760150969028473 0.316474258899688721
-0.362884521484375 -0.0498989634215831757 -0.0239054393023252487
-0.182559221982955933 0.118130750954151154 0.0421235710382461548
0.254716962575912476 -0.288173288106918335 0.319255918264389038
0.242032885551452637 0.0332539975643157959 0.321738272905349731
0.399902939796447754 0.0234476178884506226 0.115059643983840942
-0.340489685535430908 -0.0662616118788719177 -0.147451192140579224
0.0756953209638595581 -0.333007603883743286 0.298898577690124512
-0.386720508337020874 -0.0608881786465644836 0.0937056094408035278
-0.448127210140228271 -0.0413882620632648468 0.127630308270454407
0.439280539751052856 -0.279278039932250977 0.333603531122207642
0.0344696454703807831 -0.122877925634384155 -0.025809289887547493
0.414248049259185791 -0.28073081374168396 0.326949387788772583
0.432951658964157104 -0.296033024787902832 0.333108305931091309
0.367879152297973633 -0.278713852167129517 -0.130408585071563721
-0.477262020111083984 0.00141552474815398455 0.188233405351638794
-0.291507720947265625 -0.0964270159602165222 -0.104703076183795929
0.241335362195968628 -0.312954545021057129 0.309616327285766602
0.473155379295349121 -0.35423848032951355 0.00694618513807654381
-0.296339213848114014 -0.0966723933815956116 -0.107151515781879425
0.244694411754608154 -0.288524240255355835 0.320007681846618652
0.0622293055057525635 -0.329713106155395508 0.296982020139694214
0.15799318253993988 -0.267783284187316895 -0.105705671012401581
0.250254690647125244 0.0635273531079292297 0.315364301204681396
-0.482407689094543457 -0.00794443301856517792 0.177850782871246338
0.236397445201873779 0.0666961222887039185 0.314716428518295288
0.238669231534004211 -0.331768125295639038 0.321348190307617188
-0.382198363542556763 -0.0920731201767921448 0.0366090387105941772
-0.216112345457077026 -0.140142843127250671 -0.0545214563608169556
-0.3826255202293396 -0.0636990964412689209 0.0834198221564292908
0.14992155134677887 -0.331600308418273926 0.331829071044921875
0.445800483226776123 -0.279810160398483276 0.333526521921157837
0.407360434532165527 -0.280441880226135254 0.32506263256072998
-0.501916587352752686 0.00654262816533446312 0.188597783446311951
-0.321777999401092529 0.0971901938319206238 -0.0704302415251731873
0.532520711421966553 -0.207512363791465759 -0.0527536123991012573
0.450962573289871216 -0.29397207498550415 -0.290641933679580688
0.48742792010307312 -0.325342267751693726 -0.31104925274848938
0.446407526731491089 -0.309819668531417847 -0.291006207466125488
-0.577554643154144287 0.269169420003890991 0.36570584774017334
-0.461280792951583862 0.105690531432628632 -0.231114044785499573
0.374815374612808228 -0.318661302328109741 0.198999807238578796
-0.589517354965209961 0.366823881864547729 0.131145879626274109
0.392547518014907837 -0.353511989116668701 -0.217650666832923889
0.441104233264923096 -0.310360968112945557 -0.289216727018356323
-0.200461089611053467 0.305400669574737549 0.0947530642151832581
-0.155328512191772461 0.267927736043930054 0.15144781768321991
0.52979201078414917 -0.338473647832870483 0.071699969470500946
0.463815689086914062 -0.266193389892578125 -0.217833593487739563
-0.633279383182525635 0.275615692138671875 0.106970220804214478
0.438425779342651367 -0.308651924133300781 -0.287388414144515991
0.515482902526855469 -0.277301043272018433 -0.31700897216796875
0.51659780740737915 -0.340462148189544678 -0.320917814970016479
0.454369276762008667 -0.307136178016662598 -0.293440014123916626
0.49088209867477417 -0.321938097476959229 0.0942620038986206055
0.0205892622470855713 -0.275888323783874512 -0.0187601391226053238
-0.65387117862701416 0.171826258301734924 -0.108164697885513306
-0.224491894245147705 0.318488568067550659 0.121153078973293304
0.46532323956489563 -0.364121407270431519 0.005776246078312397
0.481055140495300293 -0.336832642555236816 0.0501483716070652008
0.511499702930450439 -0.33952021598815918 -0.319577872753143311
0.440188139677047729 -0.356660127639770508 -0.297793060541152954
-0.269792884588241577 0.321924865245819092 0.0416846461594104767
0.424147367477416992 -0.313371390104293823 -0.282085508108139038
0.415444821119308472 -0.295192301273345947 0.328396767377853394
-0.326047122478485107 -0.0754974856972694397 0.12334761768579483
-0.366825908422470093 -0.0668160021305084229 0.154566243290901184
-0.338082551956176758 0.214770644903182983 0.132685586810112
0.0102039016783237457 0.119461961090564728 0.104944497346878052
0.542023181915283203 -0.309245944023132324 -0.0463505871593952179
0.0136210117489099503 -0.261861443519592285 0.039335351437330246
-0.00356079894118010998 -0.23662663996219635 0.0940974652767181396
0.000204633979592472315 -0.219658508896827698 0.0813518688082695007
0.464906394481658936 -0.360976815223693848 0.0301779862493276596
-0.269387781620025635 -0.138120606541633606 0.177374064922332764
-0.345031023025512695 -0.0659867823123931885 0.141149386763572693
0.123461201786994934 -0.2767220139503479 0.128831073641777039
-0.133765339851379395 0.078805968165397644 0.090094350278377533
0.463535428047180176 -0.0543517619371414185 0.0174212735146284103
-0.014135126955807209 -0.216974914073944092 0.0801925137639045715
-0.554485678672790527 0.391527563333511353 0.147646650671958923
0.496592432260513306 -0.366857528686523438 0.00510769104585051537
-0.610484123229980469 0.293952018022537231 0.186459377408027649
0.530017495155334473 -0.275368988513946533 -0.31784394383430481
0.370335847139358521 -0.26460692286491394 0.181411236524581909
0.420313745737075806 -0.344505161046981812 0.150733619928359985
0.252055853605270386 0.0392456129193305969 -0.0668704137206077576
0.549436867237091064 -0.149945288896560669 0.124082848429679871
-0.57027733325958252 0.28396838903427124 -0.0064230235293507576
0.500863611698150635 -0.362712055444717407 -0.00142410013359040022
0.208330482244491577 0.115744844079017639 -0.0106589896604418755
-0.289156615734100342 -0.0857845693826675415 -0.0665492787957191467
0.159255385398864746 -0.0832372233271598816 -0.036359008401632309
-0.339918822050094604 -0.105573408305644989 0.141193971037864685
0.511022210121154785 -0.281527847051620483 -0.313362628221511841
-0.33922770619392395 -0.0797698274254798889 0.0385000705718994141
-0.369146078824996948 0.280626952648162842 -0.0627258196473121643
0.509812295436859131 -0.341040134429931641 0.0649823993444442749
0.302244573831558228 -0.205903112888336182 0.247788846492767334
0.542763352394104004 -0.312136411666870117 -0.0608995147049427032
0.141588568687438965 0.0695763528347015381 0.336195826530456543
-0.594645798206329346 0.267426341772079468 0.0121406838297843933
0.222009778022766113 -0.00701895309612154961 0.29541739821434021
0.230878964066505432 0.0344099923968315125 0.312604129314422607
0.53347015380859375 -0.319731563329696655 -0.0129414703696966171
-0.389255374670028687 -0.064099043607711792 0.105672664940357208
-0.447469592094421387 -0.0402401089668273926 0.126481667160987854
0.495945841073989868 -0.0913298279047012329 0.154301732778549194
0.250921666622161865 0.0632044300436973572 0.316482514142990112
-0.291341483592987061 -0.0928119942545890808 0.307626575231552124
-0.366508901119232178 -0.114895708858966827 0.103967137634754181
-0.563250482082366943 0.127188459038734436 -0.0784814134240150452
-0.501373827457427979 0.0233935024589300156 0.186642035841941833
0.518079042434692383 -0.29755517840385437 -0.314196974039077759
0.472529858350753784 -0.328448861837387085 -0.300055742263793945
-0.574087262153625488 0.268834561109542847 0.362631618976593018
-0.570928096771240234 0.354822129011154175 0.16699470579624176
-0.191544339060783386 0.304657280445098877 0.101112328469753265
-0.661862790584564209 0.239684417843818665 0.0416517779231071472
-0.504758000373840332 0.144380852580070496 0.353266358375549316
0.507082104682922363 -0.347388625144958496 -0.318474739789962769
-0.200371414422988892 0.304985702037811279 0.10177389532327652
0.475053310394287109 -0.35776636004447937 0.00453299190849065781
0.50969994068145752 -0.330854564905166626 0.0662572085857391357
-0.610465288162231445 0.367496371269226074 0.0877595692873001099
-0.562277793884277344 0.288187742233276367 -0.0559806190431118011
0.219948410987854004 0.0103454645723104477 0.308942496776580811
0.240507587790489197 0.00517804408445954323 0.32140997052192688
-0.359498202800750732 -0.0570494458079338074 -0.137996986508369446
0.399175018072128296 -0.252808570861816406 0.321809589862823486
0.399473875761032104 -0.263184100389480591 0.324563205242156982
0.223940581083297729 -0.324225068092346191 0.320575356483459473
0.410956203937530518 -0.267927110195159912 0.324982553720474243
-0.509000957012176514 0.0493697002530097961 0.195233017206192017
-0.631039857864379883 0.156401127576828003 -0.0526463165879249573
-0.501726925373077393 0.146946221590042114 0.345239073038101196
0.520887613296508789 -0.350954592227935791 -0.323215574026107788
0.4952373206615448 -0.348496764898300171 5.15998362971004099e-05
-0.197829946875572205 0.0160556826740503311 -0.0501340962946414948
-0.557500958442687988 0.341678351163864136 -0.00576246064156293869
0.488447785377502441 -0.36062207818031311 0.0408772528171539307
0.449130892753601074 -0.0742822512984275818 0.0017411594744771719
-0.556015551090240479 0.385138511657714844 0.157769620418548584
0.374567598104476929 -0.0812745839357376099 -0.120147630572319031
-0.389456897974014282 0.319521248340606689 0.168684810400009155
-0.384418666362762451 0.328089267015457153 0.1973772794008255
-0.363962262868881226 0.237894997000694275 -0.083628632128238678
-0.407099455595016479 0.199429452419281006 0.040788993239402771
-0.644223511219024658 0.286741703748703003 0.0936219394207000732
0.40848076343536377 -0.347381651401519775 0.13625296950340271
0.222393795847892761 0.0828854143619537354 -0.0337874703109264374
0.498505383729934692 -0.161374226212501526 0.123617753386497498
0.500282347202301025 -0.0929427221417427063 0.134532541036605835
0.215357676148414612 0.0019001977052539587 0.299275040626525879
-0.353088498115539551 -0.0683173388242721558 -0.00920304097235202789
-0.385187357664108276 0.265882194042205811 -0.0718056336045265198
0.506377816200256348 -0.347263932228088379 0.0547351911664009094
-0.356918960809707642 -0.0565141439437866211 -0.145588904619216919
0.132219582796096802 0.0726357549428939819 0.32191842794418335
-0.0996617153286933899 -0.265774995088577271 0.00591875705868005753
0.242426902055740356 0.023321857675909996 0.321712195873260498
-0.480270296335220337 -0.0118685252964496613 0.185232549905776978
0.242473453283309937 0.0483126416802406311 0.316886842250823975
-0.27795371413230896 0.332591146230697632 0.0404696278274059296
0.36980101466178894 -0.0309396982192993164 -0.040192779153585434
0.520071327686309814 -0.348201334476470947 -0.0365179292857646942
0.293301671743392944 -0.0120163671672344208 0.0367692597210407257
-0.643911123275756836 0.284660160541534424 0.0924692153930664062
0.0358036905527114868 0.13668486475944519 0.0848510563373565674
-0.397378832101821899 -0.0577988661825656891 0.125774577260017395
-0.441327333450317383 -0.0383912362158298492 0.131222158670425415
0.523746252059936523 -0.317791461944580078 -0.0656663104891777039
0.422307908535003662 -0.280121058225631714 0.331048518419265747
0.509543120861053467 -0.345158964395523071 0.0569029524922370911
0.403730511665344238 -0.25898781418800354 0.323457002639770508
-0.480172097682952881 0.0178948305547237396 0.176617562770843506
0.235525444149971008 0.0684988126158714294 0.314277768135070801
-0.47934076189994812 -0.00852573476731777191 0.167265459895133972
0.239149242639541626 0.0675079524517059326 0.314680576324462891
0.388150781393051147 0.0259134508669376373 0.105743154883384705
0.219466596841812134 -0.316223561763763428 0.310229510068893433
0.382978290319442749 0.0428223870694637299 0.0687780901789665222
0.462661951780319214 0.0106484582647681236 0.174806982278823853
0.3993549644947052 -0.258779078722000122 0.327031731605529785
-0.499485105276107788 0.0209710169583559036 0.180844128131866455
-0.573281347751617432 0.266108125448226929 0.359854698181152344
-0.66433107852935791 0.229744181036949158 0.0218003299087285995
-0.149093642830848694 0.275259703397750854 0.0788054019212722778
0.52192920446395874 -0.335373669862747192 -0.322832614183425903
-0.220181331038475037 0.315534263849258423 0.0965020731091499329
0.499765336513519287 -0.346748113632202148 0.0667937770485877991
-0.189541220664978027 0.302639186382293701 0.114512510597705841
0.313556909561157227 -0.130271643400192261 0.300515532493591309
0.225066468119621277 -0.0353163741528987885 0.304926782846450806
0.0572788044810295105 -0.330988943576812744 0.291227340698242188
0.435101300477981567 -0.280157029628753662 0.332559585571289062
0.408825457096099854 -0.285954892635345459 0.330729693174362183
0.385539799928665161 -0.265980005264282227 0.318608075380325317
0.397291123867034912 -0.384966075420379639 -0.225938990712165833
-0.162071451544761658 0.278284907341003418 0.128356501460075378
0.380620121955871582 0.0438460856676101685 0.0767204016447067261
0.390669047832489014 -0.255935370922088623 0.318613946437835693
-0.500203788280487061 0.0242547653615474701 0.185680851340293884
0.499479323625564575 -0.326244711875915527 -0.313466399908065796
0.380466878414154053 -0.376251280307769775 -0.216556385159492493
0.52099454402923584 -0.349601149559020996 -0.325231790542602539
0.520553648471832275 -0.348739057779312134 -0.322171330451965332
0.513174772262573242 -0.319976091384887695 -0.318803608417510986
0.254885494709014893 -0.222557812929153442 0.0572082512080669403
0.185907557606697083 -0.142497152090072632 -0.105934157967567444
0.507666289806365967 -0.320448100566864014 0.0289457868784666061
-0.469368815422058105 -0.0121228555217385292 0.180923745036125183
0.496066778898239136 -0.349286913871765137 -0.310132771730422974
0.521335840225219727 -0.327855437994003296 -0.32230687141418457
0.475871890783309937 -0.320556282997131348 -0.30342140793800354
-0.340992599725723267 0.229685917496681213 -0.0445407144725322723
0.201736733317375183 0.13274809718132019 0.111882194876670837
-0.172550112009048462 0.0220494065433740616 0.0253298617899417877
0.26551392674446106 -0.165990397334098816 0.00572803383693099022
0.544570982456207275 -0.32856336236000061 -0.0481504835188388824
-0.456247150897979736 -0.0533389300107955933 0.162037253379821777
0.46956363320350647 -0.356378883123397827 -0.307471871376037598
0.478314220905303955 -0.27009931206703186 -0.301910310983657837
0.467175811529159546 -0.362188398838043213 -0.308560669422149658
-0.319979071617126465 0.266488343477249146 0.0112625006586313248
0.0331723354756832123 0.0985020101070404053 0.128192245960235596
-0.284574210643768311 -0.100374549627304077 -0.0875918194651603699
-0.616564393043518066 0.216804206371307373 -0.104870200157165527
0.24438774585723877 0.104414574801921844 -0.0300970058888196945
0.466130942106246948 -0.235369369387626648 -0.228884518146514893
-0.293818831443786621 -0.0888208821415901184 -0.0961359217762947083
0.248961672186851501 -0.276076167821884155 0.32234308123588562
0.222011357545852661 0.0667767971754074097 -0.0282516013830900192
-0.250865370035171509 -0.130484402179718018 -0.055723242461681366
-0.211419001221656799 0.301882147789001465 0.148426085710525513
0.339690566062927246 -0.140718072652816772 0.318069249391555786
0.529545426368713379 -0.356803447008132935 0.0693775862455368042
-0.599592804908752441 0.356460630893707275 0.0603357218205928802
-0.346235096454620361 -0.0560391135513782501 -0.143830761313438416
-0.432582288980484009 0.157380834221839905 -0.0847971364855766296
0.526442229747772217 -0.331930965185165405 0.0200774781405925751
0.528020858764648438 -0.288192212581634521 -0.0704683512449264526
-0.498668938875198364 0.142441198229789734 -0.253989219665527344
0.146530419588088989 0.156694069504737854 0.0584534406661987305
0.253179192543029785 -0.00774095673114061356 0.327390700578689575
0.349830597639083862 -0.147304505109786987 0.320306837558746338
0.442134469747543335 -0.32276037335395813 -0.229689523577690125
-0.224103063344955444 -0.140290841460227966 -0.0540439039468765259
0.522366762161254883 -0.350432276725769043 0.0966463983058929443
-0.645825445652008057 0.253305673599243164 0.0238304752856492996
0.393027454614639282 -0.280253946781158447 0.322060644626617432
-0.474550306797027588 -0.0100710336118936539 0.164709582924842834
0.224228829145431519 -0.325227707624435425 0.318831890821456909
-0.363610237836837769 -0.121449105441570282 0.130205452442169189
-0.238547146320343018 -0.140921816229820251 -0.0541694425046443939
-0.113959617912769318 -0.00931642763316631317 -0.0169460196048021317
0.389253497123718262 -0.27852436900138855 0.320391446352005005
-0.506856441497802734 0.0110748456791043282 0.201805934309959412
0.46248161792755127 -0.297147810459136963 -0.294629126787185669
0.351173549890518188 -0.148262664675712585 0.321163386106491089
0.457731395959854126 -0.303928405046463013 -0.229156047105789185
0.0244142003357410431 -0.143939495086669922 -0.0204545110464096069
0.368801146745681763 -0.32792973518371582 0.318540900945663452
0.391478478908538818 -0.281677931547164917 0.316653251647949219
0.128441482782363892 -0.319414019584655762 -0.0973925739526748657
-0.134359821677207947 0.278360754251480103 0.117214083671569824
-0.333176642656326294 0.0943256542086601257 -0.102594688534736633
0.373902440071105957 -0.376114249229431152 -0.215111032128334045
0.519771397113800049 -0.345988065004348755 -0.32284960150718689
0.523338258266448975 -0.358256816864013672 -0.326705425977706909
-0.0684281140565872192 -0.255033880472183228 0.0986741110682487488
0.325634688138961792 -0.130958840250968933 0.314488530158996582
0.42415502667427063 -0.259911954402923584 0.328058421611785889
-0.479788303375244141 0.0317274555563926697 0.196547597646713257
0.526520848274230957 -0.299842149019241333 -0.32231864333152771
0.537958443164825439 -0.292694151401519775 -0.324730932712554932
0.377697616815567017 -0.374351084232330322 -0.213821575045585632
0.371206551790237427 -0.357286512851715088 -0.213829681277275085
0.523960649967193604 -0.351853936910629272 -0.325088649988174438
0.525266587734222412 -0.363633006811141968 -0.323174774646759033
0.515432178974151611 -0.32739490270614624 -0.320174247026443481
0.479371190071105957 -0.352539300918579102 -0.312312722206115723
0.478335767984390259 -0.365811556577682495 -0.313026010990142822
-0.361617535352706909 0.310326099395751953 0.23955988883972168
-0.320710718631744385 0.103963784873485565 0.022017432376742363
-0.447430402040481567 0.204133152961730957 -0.0404946878552436829
-0.377516835927963257 0.279232382774353027 -0.00747338263317942619
-0.0226761046797037125 -0.260929971933364868 0.14364565908908844
-0.591695666313171387 0.361332029104232788 0.0641303807497024536
0.367403030395507812 -0.373679250478744507 -0.212615758180618286
-0.124098971486091614 -0.0107649387791752815 0.00774935213848948479
0.396479010581970215 -0.353562235832214355 -0.218433231115341187
0.507265925407409668 -0.159633368253707886 0.125004410743713379
0.195459291338920593 0.124762676656246185 0.00614240951836109161
-0.0269007440656423569 0.166872918605804443 0.382757961750030518
-0.334099262952804565 -0.121292099356651306 0.100191086530685425
-0.325058251619338989 0.30278778076171875 -0.0369162559509277344
0.533982574939727783 -0.346966922283172607 0.0376637764275074005
0.525231480598449707 -0.331993758678436279 0.0343333296477794647
-0.595517814159393311 0.381984680891036987 0.113307647407054901
-0.0111869573593139648 -0.144372984766960144 -0.0270765013992786407
-0.235175684094429016 0.171961575746536255 -0.0018786899745464325
-0.485435843467712402 -0.0107565578073263168 0.177133753895759583
-0.277873396873474121 0.336002469062805176 0.0420193709433078766
0.513318657875061035 -0.349217206239700317 0.0969089195132255554
-0.448570042848587036 -0.0359242595732212067 0.117322824895381927
0.434237092733383179 -0.253358274698257446 0.331656903028488159
0.414716452360153198 -0.278475403785705566 0.327132910490036011
-0.468829125165939331 0.0343429632484912872 0.193480595946311951
0.502151846885681152 -0.339717447757720947 0.00779031915590167046
-0.481391340494155884 -0.00291451206430792809 0.177461475133895874
-0.377470552921295166 -0.106887593865394592 0.0927977189421653748
-0.500952959060668945 0.0221058595925569534 0.184242859482765198
0.360523641109466553 -0.287065804004669189 -0.141975477337837219
0.00145083502866327763 -0.231526970863342285 0.0898791179060935974
-0.140147268772125244 0.265063822269439697 0.0881906077265739441
-0.12946707010269165 0.254386693239212036 0.071182742714881897
0.312478363513946533 -0.293432295322418213 -0.131340876221656799
0.428070276975631714 -0.255598187446594238 0.330157101154327393
-0.615230560302734375 0.306564897298812866 0.392140686511993408
0.410637229681015015 -0.358151465654373169 -0.22649972140789032
