ply
format ascii 1.0
element vertex 737
property float x
property float y
property float z
end_header
-0.575522899627685547 0.200047343969345093 -0.226530462503433228
0.207396209239959717 0.117525681853294373 0.0448586419224739075
0.463229328393936157 -0.308519721031188965 0.13447175920009613
-0.585824370384216309 0.319411963224411011 -0.0253984592854976654
0.529915094375610352 -0.2537364661693573 0.0979351028800010681
-0.310257077217102051 0.0822951197624206543 -0.0726632475852966309
-0.450022697448730469 0.00833141803741455078 -0.140605807304382324
-0.301606267690658569 0.290426909923553467 0.146003931760787964
-0.526936590671539307 0.18134559690952301 -0.215803354978561401
-0.392093956470489502 -0.0587192997336387634 0.100459165871143341
-0.545816779136657715 0.262468546628952026 -0.165265947580337524
0.313212037086486816 -0.334335058927536011 0.197486311197280884
-0.060191567987203598 0.0937029719352722168 0.320982605218887329
-0.102098062634468079 0.143445834517478943 0.0932332947850227356
0.49923408031463623 -0.363061040639877319 0.0760634392499923706
0.348417460918426514 -0.283097624778747559 -0.135296627879142761
-0.412781089544296265 0.19783841073513031 0.0359953902661800385
-0.345582485198974609 0.251396924257278442 -0.013849177397787571
-0.267892420291900635 0.0787247344851493835 -0.0149769075214862823
-0.18118131160736084 0.0184203702956438065 0.0393243990838527679
-0.553802728652954102 0.212363958358764648 -0.047892451286315918
0.407252103090286255 -0.401042282581329346 -0.21594904363155365
0.517109692096710205 -0.285417050123214722 -0.100543923676013947
0.394722580909729004 -0.264665424823760986 -0.193972960114479065
0.497344106435775757 -0.27449151873588562 -0.301032096147537231
0.434002935886383057 -0.257513314485549927 -0.00211308128200471401
-0.154809936881065369 -0.24416765570640564 0.148628681898117065
-0.630526900291442871 0.194145426154136658 -0.0482254885137081146
-0.355401098728179932 0.00025951507268473506 -0.151528269052505493
-0.50143963098526001 0.146098986268043518 0.345927983522415161
-0.332013487815856934 0.299470067024230957 0.190745025873184204
-0.335026860237121582 -0.0317202284932136536 -0.132650777697563171
0.112682811915874481 0.0950664877891540527 0.0290148761123418808
0.469571143388748169 -0.135255888104438782 0.0992170423269271851
0.398482292890548706 -0.305155813694000244 0.144944235682487488
-0.457617282867431641 0.167406991124153137 0.116451852023601532
-0.536682724952697754 0.287022799253463745 0.0416703447699546814
-0.276679396629333496 -0.127700775861740112 0.0816652700304985046
-0.483419269323348999 0.248820722103118896 -0.103392355144023895
0.170680209994316101 -0.272164642810821533 0.0364125743508338928
-0.345042884349822998 0.103265777230262756 0.00622442830353975296
-0.36635860800743103 0.282676547765731812 0.0866918191313743591
0.38603365421295166 -0.230220526456832886 -0.12197577953338623
-0.353476166725158691 0.00232709129340946674 0.0349935963749885559
-0.518418788909912109 0.201753184199333191 0.0487784631550312042
-0.385333478450775146 0.182621240615844727 0.0918715968728065491
-0.572161853313446045 0.327841669321060181 -0.0121027696877717972
-0.339484989643096924 -0.0878182724118232727 -0.0542353428900241852
-0.137295767664909363 -0.26905137300491333 0.130158379673957825
0.274553835391998291 -0.166052296757698059 0.0548110976815223694
0.312637865543365479 -0.302764356136322021 -0.128565490245819092
-0.381593078374862671 0.250078260898590088 0.233148083090782166
0.310269564390182495 -0.217321097850799561 0.201027035713195801
0.495843797922134399 -0.255169838666915894 -0.105654358863830566
-0.119366474449634552 0.0723713487386703491 0.173423632979393005
0.512007772922515869 -0.362152963876724243 -0.0309255979955196381
-0.509526968002319336 0.268740594387054443 -0.00532548129558563232
-0.595552384853363037 0.243637368083000183 -0.00312467734329402447
-0.586643755435943604 0.250758647918701172 0.193975165486335754
-0.548164069652557373 0.121050551533699036 -0.13457179069519043
-0.245284393429756165 0.182541534304618835 0.356782585382461548
0.461943477392196655 -0.264426499605178833 -0.29058074951171875
0.455659240484237671 -0.256172806024551392 -0.187105894088745117
0.518915235996246338 -0.303043872117996216 0.0443322174251079559
-0.626041412353515625 0.19998854398727417 0.0445430316030979156
-0.256207078695297241 -0.00482141273096203804 -0.0623910054564476013
0.245086237788200378 0.0985866561532020569 -0.0691999644041061401
0.504479825496673584 -0.160239383578300476 0.130689099431037903
0.342707306146621704 -0.0703016817569732666 0.161881417036056519
0.399399071931838989 -0.237331986427307129 0.130178526043891907
-0.360030561685562134 -0.118854023516178131 0.116303645074367523
-0.479408949613571167 0.189366281032562256 0.0636834278702735901
-0.57504504919052124 0.341677635908126831 0.0248964317142963409
-0.359406501054763794 -0.0634293332695960999 0.0906709432601928711
-0.343190014362335205 0.0114710777997970581 -0.114654317498207092
0.30257377028465271 -0.296042799949645996 0.161931157112121582
-0.505007326602935791 0.220709830522537231 0.141639634966850281
-0.485595911741256714 0.0282647684216499329 -0.0471638664603233337
0.0328064598143100739 0.087634257972240448 0.0876519680023193359
-0.231874227523803711 0.346885144710540771 0.148609966039657593
0.0315073095262050629 0.010227840393781662 0.041892319917678833
-0.366142302751541138 -0.0368534661829471588 -0.0329585745930671692
-0.048459518700838089 -0.234301850199699402 0.301591664552688599
0.185424670577049255 -0.29301723837852478 0.00356648815795779228
0.234285309910774231 -0.0118873212486505508 0.230074688792228699
-0.526848793029785156 0.140442833304405212 0.0677497684955596924
-0.520699381828308105 0.201142549514770508 -0.0677014365792274475
-0.552614212036132812 0.285426080226898193 0.107230573892593384
0.143396362662315369 0.00753043871372938156 0.307621687650680542
0.0674794092774391174 -0.286292970180511475 -0.0815947577357292175
-0.362427979707717896 0.0350875183939933777 -0.1614217609167099
0.306894421577453613 -0.293893635272979736 0.0293942838907241821
-0.33963775634765625 0.213178619742393494 0.159028381109237671
-0.18849240243434906 0.199817612767219543 0.367665290832519531
-0.540470302104949951 0.254563122987747192 -0.0844539552927017212
0.522123396396636963 -0.199997812509536743 -0.0928631722927093506
-0.519421041011810303 0.185098111629486084 0.136253133416175842
-0.544062614440917969 0.269682914018630981 -0.00274198269471526146
0.470606684684753418 -0.326562225818634033 0.0444203168153762817
0.28846094012260437 0.0305810011923313141 0.0535561852157115936
0.432756423950195312 -0.306387811899185181 -0.285265088081359863
-0.519060850143432617 0.0898166373372077942 -0.135388612747192383
-0.600964844226837158 0.285038948059082031 0.183708041906356812
0.467149436473846436 -0.321486949920654297 0.127206370234489441
0.467107594013214111 -0.260938346385955811 -0.293846100568771362
-0.404414445161819458 0.300263911485671997 0.142627015709877014
-0.454705923795700073 0.119225203990936279 -0.224216774106025696
0.481017500162124634 -0.312204062938690186 -0.302665561437606812
0.467683196067810059 -0.331041693687438965 -0.00318363006226718426
0.456750780344009399 -0.305640727281570435 -0.292598724365234375
0.523749053478240967 -0.262322038412094116 -0.102235734462738037
-0.409171640872955322 0.318369209766387939 0.162488952279090881
-0.561166763305664062 0.267310261726379395 0.365071028470993042
-0.576609671115875244 0.210268452763557434 -0.201168283820152283
0.446895003318786621 -0.296944350004196167 -0.223224103450775146
0.309965997934341431 -0.0766113325953483582 0.148642167448997498
0.534162521362304688 -0.248646900057792664 0.100981295108795166
-0.563067138195037842 0.119546905159950256 -0.233602344989776611
-0.408656805753707886 0.0764737725257873535 -0.116787806153297424
-0.580113828182220459 0.356060415506362915 0.0823162645101547241
0.0409709587693214417 0.114202022552490234 0.312152355909347534
-0.457085669040679932 0.0087584787979722023 0.181456029415130615
0.408947259187698364 -0.344252526760101318 0.159735247492790222
-0.555170416831970215 0.288183003664016724 -0.0495645701885223389
0.542667150497436523 -0.256301403045654297 0.113417565822601318
0.0235657542943954468 -0.249944299459457397 0.204872459173202515
0.195098951458930969 0.129572167992591858 0.0346375815570354462
0.314980864524841309 -0.370787680149078369 -0.157183900475502014
0.110173508524894714 0.0592381134629249573 0.318849891424179077
-0.315300524234771729 0.306176155805587769 0.283994138240814209
-0.254967033863067627 -0.132806867361068726 -0.0733503848314285278
-0.386981576681137085 -0.0603015013039112091 0.106238804757595062
0.452699869871139526 -0.0731915906071662903 -0.116673305630683899
0.315385758876800537 -0.333368808031082153 0.195617526769638062
0.297310680150985718 0.0377165637910366058 0.0498573333024978638
0.475399911403656006 -0.331302046775817871 0.136177763342857361
0.439301341772079468 -0.267843276262283325 -0.28245466947555542
0.460955917835235596 -0.273410707712173462 0.137742534279823303
0.503558635711669922 -0.346720665693283081 0.0172215048223733902
0.518479108810424805 -0.269909948110580444 -0.0873657315969467163
0.498231232166290283 -0.0884995460510253906 0.161571070551872253
0.54182136058807373 -0.21562802791595459 0.110604323446750641
-0.577537953853607178 0.326584100723266602 0.0801331549882888794
0.246228769421577454 0.110825411975383759 -0.0546512939035892487
0.0331562384963035583 0.0680827796459197998 0.272332578897476196
-0.562520265579223633 0.274960190057754517 0.0236405264586210251
-0.614438176155090332 0.271748125553131104 0.0382252968847751617
0.53517913818359375 -0.23959648609161377 0.102637097239494324
-0.576547682285308838 0.212432712316513062 -0.117066562175750732
-0.425573527812957764 0.0304999649524688721 -0.188799276947975159
0.304016679525375366 -0.126790940761566162 -0.108529537916183472
-0.385597705841064453 -0.0558194965124130249 0.100478678941726685
-0.603744745254516602 0.259284168481826782 0.0171219184994697571
-0.46116405725479126 0.306032806634902954 0.0809746384620666504
0.504428982734680176 -0.264279395341873169 -0.109477169811725616
0.534170985221862793 -0.192733436822891235 0.0284461416304111481
-0.616692841053009033 0.210215628147125244 -0.0564725100994110107
0.452126473188400269 -0.123997882008552551 0.0891299694776535034
0.0331298299133777618 -0.279627799987792969 -0.0359733700752258301
0.401513487100601196 -0.319101780652999878 0.130706027150154114
-0.094272911548614502 0.0737684741616249084 0.293037712574005127
0.24274897575378418 -0.137086778879165649 0.0109190260991454124
0.160886526107788086 -0.271712630987167358 0.0437127463519573212
-0.591054797172546387 0.368847429752349854 0.0899121835827827454
0.0265861265361309052 -0.0119916275143623352 0.0277613047510385513
0.195323362946510315 0.033664364367723465 0.177943974733352661
-0.306532680988311768 -0.091510385274887085 0.305296838283538818
0.493234843015670776 -0.367136865854263306 0.0196021981537342072
0.52114415168762207 -0.311714291572570801 0.0458173751831054688
0.502191364765167236 -0.153868511319160461 0.118741519749164581
0.080360807478427887 -0.272182554006576538 -0.0596866756677627563
-0.325900793075561523 -0.103321172297000885 0.0882483050227165222
-0.586677968502044678 0.334509819746017456 0.0182543173432350159
-0.0742266997694969177 -0.235854089260101318 0.301457673311233521
0.193854168057441711 -0.340058058500289917 -0.0625056400895118713
-0.399353504180908203 0.271759241819381714 -0.0548643395304679871
-0.522246301174163818 0.0439475476741790771 -0.0579945594072341919
-0.258262425661087036 0.141975954174995422 0.0911348387598991394
-0.214023396372795105 -0.13585248589515686 -0.0634229406714439392
0.508069753646850586 -0.105063319206237793 0.144058391451835632
0.213652685284614563 -0.27985459566116333 -0.00945790298283100128
0.23767012357711792 -0.076371319591999054 0.126676544547080994
-0.140864968299865723 0.296209901571273804 0.147654488682746887
-0.656485140323638916 0.171207457780838013 -0.112844519317150116
0.252878338098526001 -0.00976630300283432007 0.249734029173851013
0.249815121293067932 -0.179061070084571838 0.302486330270767212
-0.263544768095016479 -0.137091994285583496 -0.0678319483995437622
-0.201245963573455811 0.314026504755020142 0.0987794697284698486
0.257351070642471313 -0.27824091911315918 0.322805821895599365
0.178370743989944458 -0.054373718798160553 -0.0511685200035572052
-0.443762481212615967 -0.0667590722441673279 0.128898829221725464
-0.504223287105560303 0.0299199316650629044 0.246975257992744446
-0.497524291276931763 0.0363355875015258789 -0.0119119267910718918
0.232202440500259399 0.0225299745798110962 0.313835054636001587
-0.371846050024032593 -0.0458720885217189789 0.143196702003479004
-0.349384397268295288 0.106351718306541443 0.0658043399453163147
0.307133585214614868 -0.1990518718957901 0.242694973945617676
0.307927310466766357 -0.00585611537098884583 0.219346106052398682
-0.443256080150604248 0.266288161277770996 -0.0375180952250957489
0.516629457473754883 -0.326825588941574097 -0.0815172120928764343
-0.53925633430480957 0.138209179043769836 -0.0974740758538246155
0.465301841497421265 -0.124793954193592072 0.00176903826650232077
-0.385804563760757446 0.255054861307144165 0.0325595960021018982
0.493447989225387573 -0.302193790674209595 0.120900571346282959
0.464843273162841797 -0.106543965637683868 0.0593634471297264099
0.203273460268974304 0.0148289930075407028 -0.0424022413790225983
-0.225000783801078796 0.295437604188919067 0.158527001738548279
-0.125577196478843689 -0.0491585507988929749 0.0107589308172464371
-0.23211243748664856 0.228130578994750977 0.348037034273147583
-0.381236165761947632 -0.0544258169829845428 0.145309403538703918
0.340736597776412964 -0.074114382266998291 0.0474932119250297546
-0.436408489942550659 -0.0123668638989329338 0.0338712893426418304
0.204917922616004944 0.0162759833037853241 0.0702254623174667358
0.0557966567575931549 -0.0861488506197929382 0.239134639501571655
-0.384330987930297852 -0.0596129782497882843 0.116418592631816864
-0.137208744883537292 -0.264866143465042114 -0.00131478719413280487
-0.244151458144187927 0.0633768811821937561 0.244691640138626099
-0.542524933815002441 0.210596323013305664 0.162541374564170837
-0.591165900230407715 0.286838948726654053 -0.00757900625467300415
0.306500792503356934 0.0172301456332206726 0.0426865220069885254
0.478013068437576294 -0.31502416729927063 -0.305543005466461182
0.503276228904724121 -0.34577643871307373 -0.0639271140098571777
0.471185177564620972 -0.305406719446182251 0.114918939769268036
0.52664870023727417 -0.303154796361923218 -0.109510622918605804
-0.403293639421463013 0.31120145320892334 0.134525984525680542
0.51746678352355957 -0.251551061868667603 -0.307536780834197998
0.507129013538360596 -0.329298198223114014 -0.314908415079116821
0.518362283706665039 -0.331608742475509644 0.091457664966583252
0.476899176836013794 -0.30449974536895752 -0.303179055452346802
0.527109265327453613 -0.285903513431549072 -0.108125045895576477
-0.560282886028289795 0.266926437616348267 0.365457534790039062
-0.640550851821899414 0.289258658885955811 0.0849016755819320679
0.370921522378921509 -0.401357203722000122 -0.217647656798362732
-0.450165808200836182 -0.00115493650082498789 0.174943655729293823
0.175994887948036194 0.0725680217146873474 0.00648990785703063011
-0.453997761011123657 0.134441792964935303 -0.213920027017593384
0.40266302227973938 -0.336101025342941284 0.128845766186714172
-0.599317550659179688 0.207095727324485779 0.000537756772246211767
0.247102797031402588 -0.114815689623355865 -0.0709284394979476929
-0.483594119548797607 0.182451874017715454 -0.210351288318634033
-0.376508176326751709 -0.0631601586937904358 0.0915534645318984985
0.522465348243713379 -0.321208536624908447 0.0357493199408054352
0.541963338851928711 -0.217693164944648743 0.108131147921085358
0.525282025337219238 -0.273798286914825439 0.0551896244287490845
0.110771596431732178 0.0837841778993606567 0.317146629095077515
-0.351279288530349731 -0.0479863360524177551 0.0448584966361522675
0.104684837162494659 0.071933746337890625 0.295385569334030151
-0.165672585368156433 0.132770240306854248 0.151232302188873291
0.502332031726837158 -0.2567577064037323 -0.102593660354614258
0.428495019674301147 -0.304108798503875732 0.135819926857948303
-0.356063485145568848 -0.10146215558052063 0.158910304307937622
0.498200178146362305 -0.201926767826080322 -0.108056023716926575
-0.578805029392242432 0.347746223211288452 0.151913076639175415
0.104615546762943268 -0.0118071660399436951 0.0210602674633264542
-0.341567367315292358 -0.12339436262845993 0.104462079703807831
-0.12102934718132019 -0.27565494179725647 0.173937633633613586
-0.161479845643043518 0.167033419013023376 0.325083494186401367
0.514570713043212891 -0.358826011419296265 0.0266768001019954681
0.520618796348571777 -0.287839114665985107 -0.0117953456938266754
0.478451699018478394 -0.140303283929824829 0.107517100870609283
-0.181228280067443848 0.0290993247181177139 0.025796450674533844
-0.342283755540847778 -0.121616490185260773 0.103605113923549652
-0.600499391555786133 0.376447886228561401 0.188169926404953003
-0.120001249015331268 -0.266776204109191895 0.218182563781738281
0.523025453090667725 -0.309071481227874756 -0.074904024600982666
0.515912771224975586 -0.252364635467529297 -0.309660077095031738
0.454551786184310913 -0.308448076248168945 -0.294588088989257812
0.240182548761367798 -0.0962385982275009155 0.158538386225700378
-0.620527029037475586 0.271935820579528809 0.0369126312434673309
-0.43024250864982605 -0.00389489671215415001 0.17718583345413208
-0.250749856233596802 -0.136869385838508606 -0.0712116435170173645
0.316895067691802979 -0.319174230098724365 0.122446462512016296
0.538891434669494629 -0.249995112419128418 0.106514886021614075
0.452298641204833984 -0.140111967921257019 0.0153225352987647057
0.428928762674331665 -0.321251422166824341 0.123607061803340912
0.412861347198486328 -0.331014633178710938 -0.209906890988349915
0.473390340805053711 -0.128886938095092773 0.10940183699131012
-0.549258530139923096 0.378248751163482666 0.172394484281539917
0.190112918615341187 -0.339906781911849976 -0.0133947758004069328
-0.202037110924720764 -0.135414391756057739 -0.0685439258813858032
-0.185884222388267517 0.31174623966217041 0.117777071893215179
0.102917589247226715 0.10742621123790741 0.174370139837265015
-0.444620519876480103 -0.0543373450636863708 0.0917084738612174988
-0.489673256874084473 0.0299755334854125977 0.0166834592819213867
0.230976536870002747 0.0107407141476869583 0.314911842346191406
-0.0250573437660932541 0.112945593893527985 0.312394410371780396
0.242830097675323486 -0.0388988479971885681 0.204557105898857117
-0.385152220726013184 0.245076790452003479 0.0341522879898548126
-0.65436023473739624 0.216473191976547241 -0.0395180769264698029
0.482578873634338379 -0.116577997803688049 0.0233375616371631622
0.121773429214954376 0.0792143866419792175 0.138482123613357544
-0.382211446762084961 -0.0725835487246513367 0.0955018177628517151
0.319270044565200806 -0.0726661980152130127 0.0623222067952156067
-0.440954774618148804 -0.0116941658779978752 0.00671350071206688881
-0.5024833083152771 0.23342953622341156 -0.0713235959410667419
-0.547542870044708252 0.203200682997703552 -0.0687454566359519958
0.0881764516234397888 0.0913871601223945618 0.0799647718667984009
-0.520174205303192139 0.204311653971672058 -0.0473768040537834167
-0.168531954288482666 0.072230808436870575 0.232423111796379089
-0.0576728805899620056 -0.186851918697357178 0.0267578344792127609
-0.212822556495666504 0.290458738803863525 0.109028339385986328
0.249222025275230408 -0.00573842180892825127 0.0222785212099552155
-0.556066036224365234 0.204121485352516174 0.118180863559246063
-0.457618534564971924 0.216201096773147583 0.024371415376663208
-0.462915033102035522 0.266205817461013794 -0.00290072662755846977
-0.575731873512268066 0.247312203049659729 -0.0766929984092712402
-0.389647632837295532 0.274844199419021606 -0.0842909738421440125
0.343391090631484985 -0.134920686483383179 0.318709641695022583
-0.498895227909088135 0.206599488854408264 -0.011800241656601429
-0.346284866333007812 0.292534977197647095 -0.0502897202968597412
0.525571703910827637 -0.36125105619430542 0.0415778234601020813
-0.54021763801574707 0.214890018105506897 0.200920462608337402
-0.569592833518981934 0.294048279523849487 -0.00338380271568894386
0.316176086664199829 0.0233479030430316925 0.0486680902540683746
0.481633871793746948 -0.307173103094100952 -0.303849846124649048
0.479293406009674072 -0.326517194509506226 0.125192075967788696
0.522795736789703369 -0.307206392288208008 -0.0988973826169967651
0.489987701177597046 -0.310938596725463867 -0.307613343000411987
0.51581263542175293 -0.325242877006530762 0.119651257991790771
0.444157898426055908 -0.300370454788208008 -0.290823221206665039
0.522812962532043457 -0.304758697748184204 -0.0975597500801086426
0.133850425481796265 0.116068989038467407 0.336991488933563232
-0.642699718475341797 0.242316260933876038 -0.00969925988465547562
-0.292948812246322632 -0.113843604922294617 -0.105800159275531769
0.538827419281005859 -0.255729913711547852 0.0920131057500839233
0.128711298108100891 0.0972926020622253418 0.317265689373016357
-0.235550776124000549 -0.143511116504669189 -0.071440674364566803
0.252045720815658569 0.0296830032020807266 -0.0860234498977661133
0.530550837516784668 -0.323350131511688232 0.00663564819842576981
-0.59965050220489502 0.307028919458389282 0.104284286499023438
0.531683027744293213 -0.244909480214118958 0.0863675698637962341
-0.374393641948699951 -0.0608592256903648376 0.0922135934233665466
0.52616584300994873 -0.275533944368362427 -0.123436674475669861
-0.501431047916412354 0.148529529571533203 0.352937519550323486
0.384752064943313599 -0.297847092151641846 0.131672918796539307
0.132329195737838745 -0.332028090953826904 -0.100527733564376831
0.52234947681427002 -0.355058938264846802 -0.0151339666917920113
-0.436801731586456299 0.150310531258583069 -0.0851828902959823608
0.515352427959442139 -0.300331056118011475 0.064519539475440979
0.392682969570159912 -0.368036717176437378 -0.21386013925075531
0.500114083290100098 -0.17175881564617157 0.129872769117355347
0.532819926738739014 -0.334215044975280762 0.028191959485411644
-0.580231428146362305 0.348517149686813354 0.040060337632894516
0.51959604024887085 -0.241129085421562195 -0.308903515338897705
-0.601324737071990967 0.370286166667938232 0.104434795677661896
-0.500932097434997559 0.146901950240135193 0.355142533779144287
0.233629941940307617 -0.278008341789245605 0.317204862833023071
-0.181683287024497986 -0.137047559022903442 -0.0556987188756465912
-0.228712499141693115 -0.13798174262046814 -0.0536048486828804016
-0.204629480838775635 0.298060029745101929 0.12661309540271759
0.26218414306640625 -0.289830923080444336 0.323489993810653687
-0.36261335015296936 -0.0305886827409267426 0.119433797895908356
-0.500449120998382568 0.0193230491131544113 0.0317188724875450134
0.242460429668426514 -0.000179715483682230115 0.322149276733398438
0.141026437282562256 -0.290521711111068726 0.311560511589050293
0.307713538408279419 -0.207762911915779114 0.248030379414558411
-0.386462867259979248 0.254595518112182617 0.0342044755816459656
0.530699491500854492 -0.26251634955406189 0.102740004658699036
0.22367192804813385 0.0224566478282213211 0.305313855409622192
0.530219078063964844 -0.147655710577964783 -0.308434069156646729
-0.645213305950164795 0.231108129024505615 -0.047753065824508667
0.540861666202545166 -0.311149418354034424 -0.0446435585618019104
0.50742870569229126 -0.267936229705810547 -0.311683475971221924
0.513904333114624023 -0.316264450550079346 -0.29528433084487915
0.458453893661499023 -0.29105415940284729 -0.296757638454437256
-0.543453216552734375 0.267869770526885986 -0.189625769853591919
-0.621761918067932129 0.288677901029586792 0.0664383098483085632
0.363049298524856567 -0.384353309869766235 -0.206270650029182434
-0.092856869101524353 0.266940981149673462 0.189256608486175537
-0.448811888694763184 0.131159156560897827 -0.209020242094993591
-0.57579803466796875 0.203552901744842529 -0.12735438346862793
-0.63042140007019043 0.191487595438957214 -0.0401677563786506653
-0.470119953155517578 0.138802200555801392 -0.231344953179359436
0.257264792919158936 -0.0173644945025444031 -0.0722151175141334534
0.230126604437828064 0.0535309351980686188 -0.0452883094549179077
0.112664759159088135 0.109496265649795532 0.301536351442337036
-0.584467589855194092 0.218170687556266785 -0.221757948398590088
-0.598559558391571045 0.234987184405326843 -0.0110264206305146217
-0.367349505424499512 -0.0917046070098876953 0.122685089707374573
-0.330328673124313354 -0.125320181250572205 0.137134745717048645
-0.63495105504989624 0.199400678277015686 -0.0385862812399864197
-0.426030337810516357 -0.0549063347280025482 0.0990756750106811523
-0.478434234857559204 0.0200910121202468872 -0.0367406494915485382
0.208259448409080505 0.00834571756422519684 0.300691783428192139
-0.634528398513793945 0.247840866446495056 -0.00626823399215936661
-0.128415077924728394 0.269596993923187256 0.132123231887817383
0.270677626132965088 -0.330387204885482788 0.179925784468650818
0.532639026641845703 -0.210336849093437195 -0.099056534469127655
-0.126836627721786499 -0.112657196819782257 -0.054905429482460022
0.453752249479293823 -0.339000999927520752 -0.298286199569702148
-0.212973356246948242 0.0361384600400924683 -0.0598122142255306244
-0.553547263145446777 0.175588414072990417 0.0125675434246659279
-0.198890164494514465 0.1394491046667099 0.0210136007517576218
-0.0129436850547790527 -0.102576009929180145 -0.043047584593296051
0.26435619592666626 -0.275022208690643311 0.202277570962905884
0.348260164260864258 -0.321217745542526245 -0.000207502453122287989
-0.156314656138420105 0.0696517676115036011 0.027416527271270752
-0.249567270278930664 0.130639150738716125 -0.0345856137573719025
0.198707297444343567 0.00141868006903678179 0.0189515426754951477
0.0759515762329101562 0.0806276947259902954 0.0238353479653596878
-0.283798903226852417 0.288017988204956055 -0.00609028572216629982
0.476532399654388428 -0.289941936731338501 -0.301922798156738281
-0.557238519191741943 0.265520274639129639 -0.017503807321190834
-0.237756460905075073 0.0975075960159301758 -0.0325941070914268494
0.137464970350265503 -0.280874520540237427 0.149919867515563965
0.295955538749694824 -0.297485977411270142 0.0567583516240119934
-0.286403924226760864 0.257032155990600586 0.000389067892683669925
-0.0214604195207357407 -0.0404567830264568329 0.0888801887631416321
0.204083845019340515 0.0424888096749782562 0.0655649080872535706
-0.144094333052635193 -0.0852046608924865723 0.0915899425745010376
0.372095227241516113 -0.0736421868205070496 0.0313891954720020294
0.520941972732543945 -0.199283495545387268 -0.098745100200176239
0.486675173044204712 -0.297936916351318359 -0.30558362603187561
0.480015486478805542 -0.31498304009437561 0.122090183198451996
0.513173043727874756 -0.307317942380905151 -0.102644145488739014
0.495596736669540405 -0.309561461210250854 -0.309955775737762451
0.505730330944061279 -0.327956587076187134 -0.00436150655150413513
0.511313676834106445 -0.324679195880889893 0.11811576783657074
0.465460002422332764 -0.288844197988510132 -0.296773999929428101
0.437558144330978394 -0.26355820894241333 -0.194500118494033813
0.134657680988311768 0.116715557873249054 0.336907178163528442
0.396161258220672607 -0.244505554437637329 0.318539857864379883
-0.602000117301940918 0.354054808616638184 0.0653035491704940796
-0.505589544773101807 0.356965482234954834 0.17813342809677124
0.54220271110534668 -0.282667815685272217 0.0976790338754653931
0.255988419055938721 0.0366366654634475708 -0.0722255557775497437
-0.233574956655502319 0.155812323093414307 -0.00543349515646696091
0.50572049617767334 -0.332122355699539185 -0.00278506334871053696
0.444367796182632446 -0.250148773193359375 -0.228222399950027466
-0.639530360698699951 0.254323720932006836 0.0543195568025112152
0.5321769118309021 -0.26285022497177124 0.0929994210600852966
-0.393571972846984863 -0.059231635183095932 0.100268669426441193
0.523475229740142822 -0.289791613817214966 -0.0923402532935142517
0.027564195916056633 -0.274111717939376831 -0.035435263067483902
0.384714961051940918 -0.306178689002990723 0.118598848581314087
-0.582677304744720459 0.366597354412078857 0.131513059139251709
0.239742681384086609 0.0027319698128849268 0.180955037474632263
-0.113454647362232208 0.165335163474082947 0.347423642873764038
0.481739789247512817 -0.368477106094360352 -0.0223095696419477463
0.411787211894989014 -0.321261107921600342 -0.211240619421005249
0.506836295127868652 -0.155731305480003357 0.123787663877010345
0.528371572494506836 -0.334847390651702881 0.0125652290880680084
-0.584632217884063721 0.336202621459960938 0.0338818952441215515
-0.591252386569976807 0.381691724061965942 0.131065934896469116
0.525888502597808838 -0.244484797120094299 -0.310880511999130249
0.47400134801864624 -0.290863603353500366 -0.299673706293106079
-0.597712039947509766 0.353481560945510864 0.169479489326477051
-0.587846219539642334 0.371225178241729736 0.100906044244766235
-0.212529703974723816 -0.129505395889282227 -0.0578267015516757965
0.233961775898933411 -0.293096572160720825 0.314771324396133423
0.237563252449035645 0.0669242963194847107 0.319907724857330322
0.541417717933654785 -0.313985258340835571 -0.0583654381334781647
-0.44516715407371521 -0.0483697764575481415 0.126909077167510986
0.359088987112045288 -0.388426780700683594 -0.209215924143791199
-0.557075321674346924 0.21101061999797821 -0.113914318382740021
0.520385444164276123 -0.279689162969589233 -0.177354350686073303
0.241427555680274963 0.0345822013914585114 0.314380824565887451
0.242280244827270508 0.000247149786446243525 0.0235093198716640472
0.380213499069213867 0.0385929904878139496 0.0117129012942314148
0.526362061500549316 -0.230789974331855774 -0.310386598110198975
0.326528638601303101 0.0959235355257987976 -0.0360884480178356171
-0.374737411737442017 -0.0602059662342071533 -0.133085116744041443
0.512463688850402832 -0.167725548148155212 0.13567863404750824
-0.575004875659942627 0.321810394525527954 0.0492622107267379761
-0.559464931488037109 0.283229231834411621 0.363997042179107666
0.223961055278778076 0.0317585952579975128 -0.0583382844924926758
-0.574854075908660889 0.21448950469493866 -0.221389368176460266
-0.0447922758758068085 0.156419813632965088 0.0810897722840309143
0.113587632775306702 0.109868727624416351 0.0253271088004112244
0.342280536890029907 -0.247094675898551941 -0.0970609933137893677
-0.285587966442108154 0.3002299964427948 -0.00298906606622040272
0.152807801961898804 -0.00451543927192687988 -0.00369568937458097935
0.0685500726103782654 0.138660073280334473 0.0755389109253883362
-0.270577520132064819 0.279984623193740845 0.00154333084356039762
0.502921044826507568 -0.292735695838928223 -0.159590199589729309
0.136474177241325378 -0.0259191542863845825 0.0129917003214359283
-0.339534789323806763 -0.0319697484374046326 0.022645074874162674
0.372908085584640503 -0.0920256450772285461 0.0441007241606712341
0.199424728751182556 0.101024821400642395 -0.00195287587121129036
-0.29777178168296814 -0.025015583261847496 0.0357893742620944977
0.131282016634941101 -0.0179162174463272095 -0.0262108221650123596
0.10088106244802475 0.0159420296549797058 0.091095656156539917
0.175172150135040283 0.119152888655662537 0.0378938242793083191
-0.23099285364151001 -0.0636474564671516418 0.104517459869384766
0.485659122467041016 -0.296800851821899414 -0.303811460733413696
-0.603678226470947266 0.289315283298492432 0.184943526983261108
0.466736316680908203 -0.308863162994384766 0.119850993156433105
0.377776980400085449 -0.0146934455260634422 0.00620601745322346687
0.513923108577728271 -0.295456975698471069 -0.103734448552131653
0.518429160118103027 -0.239878088235855103 -0.307884842157363892
0.477490991353988647 -0.309862464666366577 -0.300565510988235474
0.482965975999832153 -0.274662047624588013 -0.300190001726150513
0.116710379719734192 0.118613332509994507 0.297481238842010498
-0.58470451831817627 0.356119245290756226 0.0655295625329017639
0.383267581462860107 -0.337453216314315796 0.125284492969512939
-0.574986636638641357 0.317471086978912354 -0.0268596373498439789
-0.604959011077880859 0.216968834400177002 -0.0872237011790275574
0.267263472080230713 0.0390268638730049133 -0.0864245444536209106
-0.356913179159164429 -0.0221494231373071671 -0.131373539566993713
-0.564795970916748047 0.314102649688720703 -0.0082055460661649704
0.190178468823432922 -0.340830504894256592 -0.074939042329788208
0.403711616992950439 -0.357734918594360352 -0.224299043416976929
-0.500680804252624512 0.145487040281295776 0.354486048221588135
0.509137451648712158 -0.15169447660446167 0.114759936928749084
0.496432036161422729 -0.264072716236114502 -0.304675281047821045
0.457543283700942993 -0.281021326780319214 -0.290019631385803223
0.44050481915473938 -0.265107512474060059 -0.283968269824981689
-0.588521420955657959 0.357223153114318848 0.0614399313926696777
0.504739165306091309 -0.12702605128288269 0.124181419610977173
-0.206731334328651428 0.312214821577072144 0.108592614531517029
0.267770767211914062 -0.284149587154388428 0.318948537111282349
0.232058122754096985 0.00336303561925888062 0.317676812410354614
0.512842774391174316 -0.175861626863479614 -0.282040834426879883
-0.115711309015750885 0.0098148491233587265 0.00577064184471964836
0.403443276882171631 -0.359762996435165405 -0.224922806024551392
0.417154431343078613 -0.313406497240066528 0.143536478281021118
-0.555984437465667725 0.376240462064743042 0.186555430293083191
-0.176149994134902954 0.308881700038909912 0.118278659880161285
-0.390243798494338989 0.275815188884735107 -0.085292428731918335
0.364772677421569824 0.0515276640653610229 0.0244205668568611145
0.128683164715766907 0.115506820380687714 0.31870606541633606
-0.286995142698287964 -0.100504197180271149 -0.0922374501824378967
0.257646471261978149 0.100614964962005615 -0.0621991381049156189
-0.361749738454818726 -0.0597642362117767334 -0.144346937537193298
0.133636534214019775 0.113469183444976807 0.337650477886199951
-0.56362384557723999 0.199157983064651489 -0.229364514350891113
-0.276910185813903809 0.28774532675743103 -0.00108640373218804598
0.454465240240097046 -0.246607586741447449 -0.288559198379516602
0.459808081388473511 -0.27555498480796814 -0.29108700156211853
-0.635335743427276611 0.307938307523727417 0.170132070779800415
0.512040793895721436 -0.317620545625686646 -0.0388312377035617828
0.468516916036605835 -0.265956729650497437 -0.298218101263046265
0.477728515863418579 -0.295162439346313477 -0.300500869750976562
0.457723110914230347 -0.246391251683235168 -0.290131837129592896
0.380673676729202271 -0.361093461513519287 -0.214104041457176208
-0.479873716831207275 -0.012555035762488842 0.185661152005195618
-0.516961216926574707 0.365534037351608276 0.173829302191734314
-0.61904066801071167 0.20187029242515564 -0.0874893888831138611
-0.237769350409507751 0.0187594685703516006 -0.0727191641926765442
-0.383050113916397095 -0.0590062439441680908 0.0235214512795209885
0.474418044090270996 -0.368475437164306641 0.0215623714029788971
-0.649750411510467529 0.236575871706008911 0.0319382846355438232
0.412139207124710083 -0.346838384866714478 -0.221896365284919739
0.525619387626647949 -0.337292730808258057 0.0798154175281524658
0.505623519420623779 -0.239181146025657654 -0.308341801166534424
0.24912695586681366 -0.282322317361831665 0.318009495735168457
0.238717496395111084 0.0663534551858901978 0.314452379941940308
0.53913956880569458 -0.301982343196868896 -0.0939224213361740112
-0.448323041200637817 -0.0413773767650127411 0.126341089606285095
-0.0443032346665859222 0.10432993620634079 0.317678302526473999
0.247485607862472534 0.0208315867930650711 0.322006076574325562
-0.285319030284881592 -0.0996389538049697876 -0.0992562174797058105
-0.138224869966506958 -0.0151589270681142807 -0.048953566700220108
-0.278365790843963623 0.337612241506576538 0.0468085482716560364
-0.25519794225692749 0.289655923843383789 -0.0034177340567111969
-0.219394087791442871 0.321629643440246582 0.0696796998381614685
-0.573745191097259521 0.152133464813232422 -0.0747792422771453857
-0.290439248085021973 0.292465388774871826 0.0158560946583747864
0.525188803672790527 -0.320808649063110352 0.0269302893429994583
0.345648407936096191 -0.0307556092739105225 -0.0346577949821949005
0.521805465221405029 -0.363045960664749146 0.0891465917229652405
-0.0837653577327728271 -0.111847840249538422 0.078337155282497406
-0.404466986656188965 0.325830250978469849 0.121026530861854553
0.50431746244430542 -0.367202341556549072 -0.00473848637193441391
-0.119195230305194855 0.265846282243728638 0.120811291038990021
0.5182839035987854 -0.343093931674957275 0.0355975069105625153
0.129879191517829895 -0.33466726541519165 0.301023155450820923
0.466180711984634399 -0.311204344034194946 0.0722322240471839905
0.482422083616256714 -0.374132394790649414 0.0520828515291213989
0.420627117156982422 -0.0263295713812112808 0.0646572709083557129
0.493710964918136597 -0.363663196563720703 -0.0157843567430973053
-0.233444049954414368 0.286916613578796387 0.083974100649356842
0.530784845352172852 -0.331898540258407593 -0.00747523689642548561
-0.272437840700149536 0.315164476633071899 0.113794483244419098
0.30776512622833252 0.00232921657152473927 0.0461232028901576996
0.466998696327209473 -0.263566434383392334 -0.296288937330245972
0.473380595445632935 -0.304487019777297974 0.114004656672477722
0.510743618011474609 -0.313778579235076904 -0.104633480310440063
0.50877147912979126 -0.2455253005027771 -0.308661907911300659
0.447519838809967041 -0.292646497488021851 -0.292975753545761108
0.465963095426559448 -0.283416718244552612 -0.297497302293777466
0.137868568301200867 0.112586110830307007 0.33658936619758606
-0.65258711576461792 0.285508543252944946 0.0977373570203781128
-0.638788223266601562 0.244648605585098267 -0.038506723940372467
0.135854944586753845 0.0690949708223342896 0.337705135345458984
-0.577584445476531982 0.303597629070281982 -0.0558649785816669464
0.262037038803100586 0.0302149765193462372 -0.0736308321356773376
0.541518509387969971 -0.216925889253616333 0.111328639090061188
-0.360544204711914062 -0.035776529461145401 -0.134552851319313049
-0.575227916240692139 0.327273011207580566 -0.0298707373440265656
-0.362234771251678467 -0.0709283351898193359 -0.0341908149421215057
-0.130985632538795471 -0.267546266317367554 0.118893317878246307
0.494680941104888916 -0.365959793329238892 -0.000621956598479300737
0.373363077640533447 -0.359489977359771729 -0.21026746928691864
-0.378825843334197998 -0.106874570250511169 0.1011180579662323
-0.0674524828791618347 -0.26403886079788208 0.296255171298980713
0.519453108310699463 -0.243478447198867798 -0.309684604406356812
0.509015083312988281 -0.330708146095275879 0.0150259137153625488
-0.59382474422454834 0.368767380714416504 0.120323292911052704
-0.655843555927276611 0.175527393817901611 -0.103347942233085632
-0.223469734191894531 -0.144128561019897461 -0.0539099723100662231
-0.191726759076118469 0.316389292478561401 0.100548923015594482
0.256230294704437256 -0.283616721630096436 0.319441646337509155
0.238693282008171082 0.0320159196853637695 0.318917244672775269
-0.120580844581127167 -0.0461679659783840179 0.00715792318806052208
-0.642026960849761963 0.308448284864425659 0.101602517068386078
0.364246129989624023 -0.374027460813522339 -0.207182750105857849
0.537310421466827393 -0.217950537800788879 0.161609664559364319
-0.553210675716400146 0.382249772548675537 0.157733187079429626
-0.122977420687675476 0.259066462516784668 0.114944219589233398
0.118946544826030731 0.102229535579681396 0.0892891585826873779
-0.375912278890609741 0.265663772821426392 -0.0898273587226867676
0.516438722610473633 -0.349202543497085571 0.0985157191753387451
-0.293984264135360718 -0.107125230133533478 -0.109512865543365479
0.274561762809753418 0.102659076452255249 -0.057843528687953949
-0.575587332248687744 0.219393119215965271 -0.212981656193733215
-0.116017431020736694 0.26835671067237854 0.179632261395454407
0.235585212707519531 -0.2880840003490448 0.314131766557693481
0.30969807505607605 -0.187503382563591003 0.24079623818397522
0.541317343711853027 -0.32598385214805603 -0.0211732611060142517
0.0785645768046379089 -0.337737411260604858 0.281979769468307495
-0.00688385963439941406 -0.171879962086677551 0.00411138636991381645
-0.282726794481277466 0.261532783508300781 0.00682966038584709167
0.512706398963928223 -0.237252995371818542 -0.309678345918655396
-0.647390604019165039 0.278080135583877563 0.0792688801884651184
-0.646775543689727783 0.183035209774971008 -0.0911917984485626221
0.513651192188262939 -0.322671473026275635 0.0240373369306325912
-0.40738224983215332 -0.0636264458298683167 0.113309897482395172
0.516374170780181885 -0.355842173099517822 -0.0208794325590133667
-0.567023694515228271 0.374123185873031616 0.152237027883529663
0.235446512699127197 0.0428238771855831146 0.313467651605606079
-0.665271997451782227 0.226978927850723267 0.0228161774575710297
-0.448531478643417358 -0.0384810678660869598 0.126850008964538574
0.502562046051025391 -0.302410274744033813 -0.179120108485221863
-0.589576840400695801 0.360828012228012085 0.0858162045478820801
-0.194568008184432983 0.314665287733078003 0.104666687548160553
0.246469184756278992 0.0237345341593027115 0.323600560426712036
0.53046870231628418 -0.323945403099060059 -0.0583345852792263031
-0.183316782116889954 0.306771576404571533 0.128284916281700134
0.246718436479568481 0.00681756995618343353 0.323729723691940308
0.0581811070442199707 0.139482349157333374 0.34556269645690918
-0.506105303764343262 0.149284675717353821 0.356687992811203003
0.270291984081268311 -0.311362206935882568 0.325978934764862061
-0.254200458526611328 0.0234991386532783508 -0.0709368810057640076
0.240636751055717468 -0.295397579669952393 0.322231531143188477
0.248498588800430298 0.0436032898724079132 0.314193069934844971
0.467920690774917603 -0.102212212979793549 0.0343822278082370758
-0.125232934951782227 0.194908753037452698 0.11522163450717926
0.239531740546226501 -0.326707184314727783 0.317679136991500854
0.499789059162139893 -0.366738587617874146 0.074390314519405365
0.522981822490692139 -0.324874311685562134 0.0259534753859043121
0.444192498922348022 -0.253463238477706909 0.332085698843002319
0.321038603782653809 -0.131637364625930786 -0.106865867972373962
0.0629018768668174744 -0.0108666177839040756 0.321494847536087036
0.510843396186828613 -0.361038029193878174 0.0472509115934371948
0.135199546813964844 -0.100812233984470367 0.0403486639261245728
0.0490584373474121094 0.0113943889737129211 0.0295460224151611328
0.0203189831227064133 0.0480692796409130096 0.0424089320003986359
0.0876673534512519836 -0.0661654919385910034 0.289421349763870239
-0.162509605288505554 -0.265634924173355103 0.147772401571273804
0.264474958181381226 -0.0203983746469020844 0.0613357014954090118
-0.0293515846133232117 -0.0291186273097991943 0.295358538627624512
0.501773953437805176 -0.240497872233390808 -0.3022594153881073
0.475527673959732056 -0.315093100070953369 -0.30220070481300354
-0.631316542625427246 0.306088954210281372 0.167116686701774597
0.475023627281188965 -0.320996075868606567 0.120764441788196564
0.508655309677124023 -0.301010012626647949 -0.105793043971061707
0.527819514274597168 -0.275055438280105591 -0.317447572946548462
0.493141055107116699 -0.332554161548614502 -0.310960650444030762
0.503067314624786377 -0.320315450429916382 0.0977568104863166809
0.473775267601013184 -0.305930644273757935 -0.29835134744644165
-0.559701144695281982 0.267891079187393188 0.364321470260620117
0.12454686313867569 0.116638869047164917 0.314008474349975586
-0.633983612060546875 0.282050788402557373 0.0539990849792957306
-0.587762653827667236 0.362581163644790649 0.10216047614812851
0.371086359024047852 -0.374181628227233887 -0.21296161413192749
0.438022255897521973 -0.348158776760101318 0.154087767004966736
0.0576669611036777496 0.121115610003471375 0.32093656063079834
-0.574958980083465576 0.368597269058227539 0.215309381484985352
0.264291763305664062 0.0243262816220521927 -0.0588342882692813873
0.3683624267578125 -0.336963385343551636 0.160378456115722656
0.510098874568939209 -0.301728427410125732 -0.112242192029953003
0.133219540119171143 -0.320655137300491333 -0.0979466065764427185
0.516152560710906982 -0.348969757556915283 -0.0205347221344709396
0.388883262872695923 -0.346921682357788086 -0.214319229125976562
-0.577429652214050293 0.318872988224029541 0.0405150540173053741
0.535636782646179199 -0.278023689985275269 -0.320853739976882935
0.467485040426254272 -0.311064571142196655 -0.299487054347991943
0.50677025318145752 -0.347313910722732544 0.0176863744854927063
-0.556313276290893555 0.309517413377761841 0.102010846138000488
0.193486914038658142 -0.339452862739562988 -0.0593504533171653748
0.0697149112820625305 -0.282275289297103882 -0.0780571401119232178
0.252095431089401245 -0.250478684902191162 0.31991267204284668
0.239487603306770325 0.0306582599878311157 0.316694945096969604
-0.121441654860973358 -0.0479652397334575653 0.00801197625696659088
0.178338795900344849 -0.100393697619438171 -0.014960169792175293
0.532046973705291748 -0.332504123449325562 -0.0134143372997641563
0.369954079389572144 -0.349641323089599609 -0.209094494581222534
0.534570872783660889 -0.246102467179298401 0.177018836140632629
0.560763239860534668 -0.31596103310585022 -0.331195622682571411
0.554136216640472412 -0.211995393037796021 0.133677542209625244
-0.54367363452911377 0.380552619695663452 0.164276182651519775
0.122446559369564056 0.116887710988521576 0.132957562804222107
-0.582644224166870117 0.35170629620552063 0.0975535809993743896
-0.481991291046142578 0.18578927218914032 -0.0917926877737045288
0.515224754810333252 -0.339392900466918945 0.038591582328081131
0.2531108558177948 -0.279391676187515259 0.321727275848388672
0.278124332427978516 -0.356106936931610107 -0.126250550150871277
0.507541120052337646 -0.286834716796875 -0.313915908336639404
-0.432518094778060913 -0.057309076189994812 0.116531357169151306
0.201538324356079102 0.0901785567402839661 0.223179325461387634
0.243901118636131287 0.104172103106975555 -0.0574050694704055786
-0.196063786745071411 0.201300159096717834 0.349149316549301147
0.250050842761993408 0.0246197041124105453 0.323124289512634277
0.239410221576690674 0.0187191851437091827 0.320817500352859497
-0.0318215414881706238 0.162464156746864319 0.382514595985412598
-0.482868403196334839 -0.0157705862075090408 0.180013537406921387
0.483420878648757935 -0.369301795959472656 0.0458378903567790985
-0.643912017345428467 0.286889106035232544 0.085986405611038208
0.275569766759872437 -0.166073322296142578 -0.0706559494137763977
-0.412190288305282593 -0.0569787882268428802 0.0787481218576431274
-0.643433332443237305 0.175508782267570496 -0.0822687745094299316
-0.226311013102531433 -0.134028658270835876 -0.0523690618574619293
0.254610538482666016 -0.265808463096618652 0.320891380310058594
-0.345727592706680298 0.0171710792928934097 -0.117101594805717468
-0.287506431341171265 -0.0916429981589317322 -0.106675855815410614
-0.585486888885498047 0.209611237049102783 -0.218291029334068298
0.267272055149078369 -0.297263920307159424 0.314961493015289307
-0.0259758476167917252 -0.187408477067947388 -0.0435917861759662628
-0.618468284606933594 0.276691555976867676 0.0311724040657281876
-0.609237730503082275 0.298000931739807129 0.0922693684697151184
-0.397924363613128662 -0.0629798248410224915 0.118731066584587097
-0.452069550752639771 -0.0383101776242256165 0.119333431124687195
0.430773377418518066 -0.27208399772644043 0.328959375619888306
-0.0528354644775390625 0.140501782298088074 0.0915854722261428833
-0.503371775150299072 0.150908291339874268 0.355303496122360229
0.240492925047874451 -0.31953468918800354 0.322577565908432007
