ply
format ascii 1.0
element vertex 738
property float x
property float y
property float z
end_header
-0.136477738618850708 -0.264967590570449829 -0.000692885136231780052
-0.243650585412979126 0.0634325295686721802 0.245409607887268066
-0.542151212692260742 0.21083638072013855 0.163208261132240295
-0.590757548809051514 0.287176042795181274 -0.0069208354689180851
0.307112604379653931 0.0173518024384975433 0.0433932803571224213
0.478718370199203491 -0.314991176128387451 -0.304903924465179443
0.50394904613494873 -0.34576791524887085 -0.0632176026701927185
0.471867531538009644 -0.305393308401107788 0.115666843950748444
0.52728646993637085 -0.303129076957702637 -0.108802147209644318
-0.402954518795013428 0.311483263969421387 0.135243892669677734
0.518110156059265137 -0.251492559909820557 -0.30687946081161499
0.507811903953552246 -0.329266250133514404 -0.314260512590408325
0.519007980823516846 -0.331599533557891846 0.0922140404582023621
0.477602571249008179 -0.304463684558868408 -0.302540063858032227
0.527739763259887695 -0.28587186336517334 -0.107415139675140381
-0.559919893741607666 0.267218977212905884 0.366120040416717529
-0.64016801118850708 0.28959578275680542 0.0855517163872718811
0.371736794710159302 -0.401374518871307373 -0.21702854335308075
-0.449705809354782104 -0.00112569495104253292 0.175627470016479492
0.176592379808425903 0.0727014318108558655 0.00717209652066230774
-0.453489184379577637 0.134615182876586914 -0.213230878114700317
0.403411120176315308 -0.336107105016708374 0.12957550585269928
-0.598890304565429688 0.207365229725837708 0.00119089207146316767
0.247833415865898132 -0.114764414727687836 -0.0702835544943809509
-0.483102381229400635 0.182679414749145508 -0.209656387567520142
-0.375989139080047607 -0.0631736889481544495 0.0922315493226051331
0.523104012012481689 -0.32119402289390564 0.0364922136068344116
0.542545437812805176 -0.217641770839691162 0.108906880021095276
0.525900661945343018 -0.273767560720443726 0.0559410639107227325
0.111407861113548279 0.0838446691632270813 0.317883014678955078
-0.350751310586929321 -0.047990262508392334 0.0455318950116634369
0.105328448116779327 0.0719846412539482117 0.296119421720504761
-0.165189191699028015 0.13289014995098114 0.15193648636341095
0.502975821495056152 -0.256717026233673096 -0.101890623569488525
0.429213583469390869 -0.304100304841995239 0.136561125516891479
-0.355525225400924683 -0.101495265960693359 0.15960247814655304
0.498825728893280029 -0.201864883303642273 -0.107352517545223236
-0.578463435173034668 0.348096549510955811 0.152583613991737366
0.105277739465236664 -0.0117506710812449455 0.0217076968401670456
-0.341005831956863403 -0.123436957597732544 0.105139560997486115
-0.120307423174381256 -0.275741755962371826 0.174625232815742493
-0.160989701747894287 0.167164698243141174 0.32580101490020752
0.515229463577270508 -0.358824312686920166 0.0274135097861289978
0.521248817443847656 -0.287811756134033203 -0.0110639622434973717
0.47906002402305603 -0.140232563018798828 0.108275167644023895
-0.180683255195617676 0.0291542243212461472 0.0264562498778104782
-0.34172329306602478 -0.121658377349376678 0.104282520711421967
-0.600168466567993164 0.376817822456359863 0.188839316368103027
-0.119288146495819092 -0.266851663589477539 0.218886375427246094
0.523666441440582275 -0.309049069881439209 -0.0741887688636779785
0.516557991504669189 -0.252306282520294189 -0.309003919363021851
0.455275177955627441 -0.308416575193405151 -0.293954908847808838
0.240899920463562012 -0.0962108448147773743 0.159256011247634888
-0.620126485824584961 0.272256582975387573 0.0375682897865772247
-0.429775267839431763 -0.00387061317451298237 0.177875354886054993
-0.250110656023025513 -0.136921390891075134 -0.0705680921673774719
0.317682862281799316 -0.319192171096801758 0.123152114450931549
0.539489507675170898 -0.249955564737319946 0.107286795973777771
0.452925503253936768 -0.140036344528198242 0.0160447843372821808
0.429651916027069092 -0.321248561143875122 0.124343961477279663
0.413622826337814331 -0.331004351377487183 -0.20926821231842041
0.473997801542282104 -0.128813177347183228 0.110159680247306824
-0.548935949802398682 0.378609210252761841 0.173076823353767395
0.190947175025939941 -0.339968591928482056 -0.012758416123688221
-0.20137961208820343 -0.135461360216140747 -0.0679114758968353271
-0.1855182945728302 0.31203112006187439 0.118499450385570526
0.103504739701747894 0.107524946331977844 0.175093263387680054
-0.444116383790969849 -0.0543353669345378876 0.0923717916011810303
-0.489199906587600708 0.0300506018102169037 0.0173338968306779861
0.23165556788444519 0.0107864392921328545 0.315666913986206055
-0.0244747977703809738 0.113021045923233032 0.313105344772338867
0.243517711758613586 -0.03885674849152565 0.205295249819755554
-0.384766221046447754 0.245315462350845337 0.0348568744957447052
-0.653918981552124023 0.216763764619827271 -0.0388665907084941864
0.483168184757232666 -0.116491548717021942 0.0240745674818754196
0.122372806072235107 0.0793105065822601318 0.139194324612617493
-0.381691098213195801 -0.0726028531789779663 0.0961789712309837341
0.319941937923431396 -0.072589680552482605 0.0630255118012428284
-0.440456777811050415 -0.0116651626303792 0.00736918533220887184
-0.502053320407867432 0.233700364828109741 -0.0706418156623840332
-0.547099828720092773 0.20346088707447052 -0.0680790618062019348
0.0887601971626281738 0.0914980843663215637 0.080653749406337738
-0.519740939140319824 0.204558327794075012 -0.0467038117349147797
-0.168001532554626465 0.0722932443022727966 0.233132109045982361
-0.0569438114762306213 -0.186909928917884827 0.0273800976574420929
-0.212450876832008362 0.290730208158493042 0.10974854975938797
0.249867647886276245 -0.00564025342464447021 0.0229634866118431091
-0.555680751800537109 0.204364538192749023 0.118839390575885773
-0.457217961549758911 0.216427728533744812 0.0250585507601499557
-0.462523221969604492 0.266484111547470093 -0.0022147295530885458
-0.575296163558959961 0.247621238231658936 -0.0760282948613166809
-0.389241129159927368 0.275139212608337402 -0.0835845619440078735
0.344114243984222412 -0.134887427091598511 0.319472819566726685
-0.498476743698120117 0.206834152340888977 -0.0111234243959188461
-0.345888078212738037 0.292832136154174805 -0.0495792105793952942
0.526219606399536133 -0.361249774694442749 0.042321912944316864
-0.539850294589996338 0.215130925178527832 0.201589718461036682
-0.569186568260192871 0.29439842700958252 -0.00273280264809727669
0.31677970290184021 0.0234740469604730606 0.0493803247809410095
0.482333570718765259 -0.307137399911880493 -0.303209125995635986
0.479975759983062744 -0.326510429382324219 0.125945627689361572
0.523438096046447754 -0.307182580232620239 -0.0981879904866218567
0.490680515766143799 -0.310903012752532959 -0.306970119476318359
0.516460120677947998 -0.325231969356536865 0.120415061712265015
0.444886714220046997 -0.300337821245193481 -0.290192365646362305
0.523454248905181885 -0.304734081029891968 -0.0968499034643173218
0.134461969137191772 0.11615675687789917 0.337735772132873535
-0.642274618148803711 0.242623642086982727 -0.00904590077698230743
-0.292326748371124268 -0.11388801783323288 -0.105145156383514404
0.539426207542419434 -0.255692362785339355 0.0927808433771133423
0.129335716366767883 0.0973670408129692078 0.318007022142410278
-0.23490239679813385 -0.143565744161605835 -0.0708012506365776062
0.252674698829650879 0.0298190601170063019 -0.0853582769632339478
0.531183004379272461 -0.32333490252494812 0.00737380282953381538
-0.599284350872039795 0.307365685701370239 0.10494212806224823
0.53228527307510376 -0.244868546724319458 0.0871315747499465942
-0.373875260353088379 -0.060871560126543045 0.0928923934698104858
0.526795148849487305 -0.275498151779174805 -0.122730441391468048
-0.501025855541229248 0.148693233728408813 0.353619813919067383
0.385501503944396973 -0.297842830419540405 0.132399260997772217
0.133176594972610474 -0.332106858491897583 -0.0999285876750946045
0.523001611232757568 -0.35505405068397522 -0.0144052505493164062
-0.43634459376335144 0.150487080216407776 -0.0844941884279251099
0.515990138053894043 -0.300310701131820679 0.0652686804533004761
0.393477469682693481 -0.36804160475730896 -0.213232114911079407
0.500719964504241943 -0.171696871519088745 0.130642414093017578
0.533453106880187988 -0.334204018115997314 0.028935873880982399
-0.579857826232910156 0.348879426717758179 0.0407310314476490021
0.520233392715454102 -0.241066232323646545 -0.308244884014129639
-0.600973367691040039 0.370659708976745605 0.105101108551025391
-0.500525951385498047 0.147064030170440674 0.355825036764144897
0.23442356288433075 -0.27803194522857666 0.31795191764831543
-0.181019514799118042 -0.137092962861061096 -0.0550704300403594971
-0.22806800901889801 -0.138031452894210815 -0.0529647544026374817
-0.204259693622589111 0.298333138227462769 0.127336665987968445
0.262975722551345825 -0.289848655462265015 0.324242144823074341
-0.362112671136856079 -0.0305871237069368362 0.120124556124210358
-0.499973714351654053 0.0193944033235311508 0.0323669612407684326
0.243145748972892761 -0.000136377537273801863 0.322905182838439941
0.14183063805103302 -0.290572702884674072 0.312294334173202515
0.308471649885177612 -0.207751959562301636 0.248775392770767212
-0.386080950498580933 0.254842579364776611 0.0349095165729522705
0.531309127807617188 -0.262481927871704102 0.103507496416568756
0.224342584609985352 0.0225071199238300323 0.306068569421768188
0.530807316303253174 -0.14755423367023468 -0.307760655879974365
-0.64477461576461792 0.23140968382358551 -0.0470988340675830841
0.541483640670776367 -0.311127573251724243 -0.0439144894480705261
0.508088350296020508 -0.267884045839309692 -0.311032295227050781
0.51457512378692627 -0.316230237483978271 -0.294628828763961792
0.459169149398803711 -0.29101601243019104 -0.296123772859573364
-0.542991280555725098 0.268202334642410278 -0.188944116234779358
-0.62137526273727417 0.289008259773254395 0.0670936331152915955
0.36387026309967041 -0.384369850158691406 -0.205651715397834778
-0.0924510285258293152 0.267170310020446777 0.189985424280166626
-0.448304623365402222 0.131327837705612183 -0.208330839872360229
-0.575334906578063965 0.203828364610671997 -0.12668958306312561
-0.629975974559783936 0.1917552649974823 -0.0395168513059616089
-0.469604343175888062 0.138984799385070801 -0.230657711625099182
0.25792655348777771 -0.0172579325735569 -0.0715561360120773315
0.230735033750534058 0.0536724664270877838 -0.0446121580898761749
0.113279171288013458 0.109574995934963226 0.302275598049163818
-0.583974897861480713 0.218464642763137817 -0.221085712313652039
-0.598136961460113525 0.235280141234397888 -0.0103695131838321686
-0.366817116737365723 -0.091733299195766449 0.123367816209793091
-0.329765766859054565 -0.125362351536750793 0.137820780277252197
-0.63450777530670166 0.199675515294075012 -0.0379351340234279633
-0.425524920225143433 -0.0549081489443778992 0.0997455194592475891
-0.477940887212753296 0.0201582275331020355 -0.0360884256660938263
0.208945736289024353 0.00837986171245574951 0.301445186138153076
-0.634106755256652832 0.24815116822719574 -0.00561390956863760948
-0.128015920519828796 0.269840836524963379 0.132838964462280273
0.271482318639755249 -0.330422341823577881 0.180641427636146545
0.533232450485229492 -0.210276514291763306 -0.0983369350433349609
-0.126163795590400696 -0.112683005630970001 -0.0542916543781757355
0.454487472772598267 -0.338979005813598633 -0.297654718160629272
-0.212425470352172852 0.0362066887319087982 -0.059153921902179718
-0.553119182586669922 0.175816521048545837 0.0132241835817694664
-0.198416098952293396 0.139596134424209595 0.0216968338936567307
-0.0122351264581084251 -0.102582044899463654 -0.0424470417201519012
0.265151172876358032 -0.275042682886123657 0.203000307083129883
0.349040746688842773 -0.321224570274353027 0.0004676580720115453
-0.155786052346229553 0.069739513099193573 0.0280781704932451248
-0.249088525772094727 0.130784705281257629 -0.0338972657918930054
0.199357941746711731 0.0015061916783452034 0.0196264330297708511
0.0765394717454910278 0.080742955207824707 0.0244970601052045822
-0.283420711755752563 0.288323789834976196 -0.00536908907815814018
0.477232754230499268 -0.289901077747344971 -0.301284253597259521
-0.556826591491699219 0.265831500291824341 -0.016839807853102684
-0.237258508801460266 0.097622990608215332 -0.0319151245057582855
0.138271227478981018 -0.280933946371078491 0.15060502290725708
0.296746760606765747 -0.297500073909759521 0.0574381537735462189
-0.286003470420837402 0.257293552160263062 0.00110025156755000353
-0.0208056308329105377 -0.0404447205364704132 0.089535243809223175
0.204700127243995667 0.0425964444875717163 0.0662663429975509644
-0.143463477492332458 -0.0852220505475997925 0.0922500938177108765
0.372743427753448486 -0.0735499411821365356 0.0320924334228038788
0.521542370319366455 -0.199219509959220886 -0.0980293825268745422
0.487367153167724609 -0.297897517681121826 -0.304941296577453613
0.480693340301513672 -0.314972043037414551 0.122843280434608459
0.513825714588165283 -0.307294577360153198 -0.101939454674720764
0.496283650398254395 -0.309524714946746826 -0.309310823678970337
0.5063895583152771 -0.327944397926330566 -0.00363526702858507633
0.51196521520614624 -0.32466849684715271 0.118877679109573364
0.466170519590377808 -0.288804560899734497 -0.2961387038230896
0.438271611928939819 -0.263522177934646606 -0.19384486973285675
0.13526858389377594 0.11680399626493454 0.337651669979095459
0.396893978118896484 -0.244484081864356995 0.319315880537033081
-0.601632595062255859 0.354421347379684448 0.0659709721803665161
-0.505266964435577393 0.357295125722885132 0.178834155201911926
0.542803823947906494 -0.282639741897583008 0.0984495058655738831
0.256608754396438599 0.0367767363786697388 -0.0715548992156982422
-0.233112409710884094 0.155977845191955566 -0.00474196486175060272
0.506381034851074219 -0.332111626863479614 -0.00205849809572100639
0.44507133960723877 -0.250103890895843506 -0.227571859955787659
-0.639127671718597412 0.254632264375686646 0.0549708232283592224
0.532784581184387207 -0.262815773487091064 0.0937647596001625061
-0.393059998750686646 -0.0592412874102592468 0.100946061313152313
0.524109542369842529 -0.289761990308761597 -0.0916281342506408691
0.0283698346465826035 -0.274196475744247437 -0.0348324589431285858
0.385467648506164551 -0.306176453828811646 0.119320414960384369
-0.582335174083709717 0.366961359977722168 0.132183685898780823
0.240398705005645752 0.00279637100175023079 0.181693866848945618
-0.112938880920410156 0.165458261966705322 0.348136723041534424
0.482438355684280396 -0.368479430675506592 -0.0215968713164329529
0.412546098232269287 -0.321247637271881104 -0.210602283477783203
0.507428109645843506 -0.155663579702377319 0.124558985233306885
0.529009759426116943 -0.334836453199386597 0.0133036617189645767
-0.584252595901489258 0.336559206247329712 0.0345504209399223328
-0.590911924839019775 0.382064640522003174 0.131738513708114624
0.526521503925323486 -0.24442271888256073 -0.31022036075592041
0.474705159664154053 -0.290823519229888916 -0.299036115407943726
-0.597371816635131836 0.353838026523590088 0.170147046446800232
-0.587498486042022705 0.371603250503540039 0.101566627621650696
-0.211881920695304871 -0.129549115896224976 -0.0571900494396686554
0.23475860059261322 -0.293123453855514526 0.315518230199813843
0.238199397921562195 0.0670055672526359558 0.320668637752532959
0.542041361331939697 -0.313963919878005981 -0.0576397068798542023
-0.444671988487243652 -0.0483643487095832825 0.127579540014266968
0.359909981489181519 -0.388444721698760986 -0.20859856903553009
-0.556619942188262939 0.211287006735801697 -0.113246537744998932
0.521026551723480225 -0.279653578996658325 -0.176663711667060852
0.242086559534072876 0.0346449390053749084 0.315139263868331909
0.242922693490982056 0.000346678891219198704 0.0241949427872896194
0.380777418613433838 0.0387453176081180573 0.0124275684356689453
0.526989161968231201 -0.230722516775131226 -0.309724956750869751
0.327074557542800903 0.0961128398776054382 -0.0353800952434539795
-0.374162942171096802 -0.0602148883044719696 -0.132424727082252502
0.513057112693786621 -0.167661309242248535 0.136454477906227112
-0.574628710746765137 0.32215416431427002 0.0499291680753231049
-0.559108257293701172 0.283537536859512329 0.364657580852508545
0.22458958625793457 0.0318853482604026794 -0.0576715171337127686
-0.574360907077789307 0.214778169989585876 -0.220715448260307312
-0.0442919358611106873 0.156573027372360229 0.0817732512950897217
0.114153511822223663 0.110012292861938477 0.0260052066296339035
0.343044102191925049 -0.247072860598564148 -0.0964113399386405945
-0.285207837820053101 0.300533890724182129 -0.00227266503497958183
0.153466120362281799 -0.00443809898570179939 -0.00303888600319623947
0.069087103009223938 0.138808608055114746 0.0762308612465858459
-0.270189613103866577 0.280272692441940308 0.00225767586380243301
0.503583848476409912 -0.292706519365310669 -0.1589030921459198
0.137147217988967896 -0.0258608758449554443 0.0136467134580016136
-0.339008837938308716 -0.0319639742374420166 0.0233179405331611633
0.373567134141921997 -0.0919426903128623962 0.0448074229061603546
0.200001955032348633 0.101184852421283722 -0.00126052799168974161
-0.297239154577255249 -0.025005832314491272 0.0364651642739772797
0.131952270865440369 -0.0178487468510866165 -0.0255686827003955841
0.101524762809276581 0.0159951075911521912 0.0917822569608688354
0.175727128982543945 0.119314432144165039 0.0385951809585094452
-0.230416685342788696 -0.0636589229106903076 0.105196200311183929
0.486351996660232544 -0.29676133394241333 -0.303169280290603638
-0.603325247764587402 0.289636433124542236 0.185600548982620239
0.467423766851425171 -0.308851420879364014 0.120599135756492615
0.378388047218322754 -0.0145685961470007896 0.00689143501222133636
0.514570713043212891 -0.295429438352584839 -0.103029228746891022
0.519066989421844482 -0.23981495201587677 -0.307226270437240601
0.478195428848266602 -0.309828400611877441 -0.299925684928894043
0.483653336763381958 -0.274615377187728882 -0.299547106027603149
0.117314368486404419 0.118702039122581482 0.2982216477394104
-0.584341049194335938 0.356484830379486084 0.0661981180310249329
0.384029179811477661 -0.337462723255157471 0.126007303595542908
-0.574584424495697021 0.317823886871337891 -0.0261902511119842529
-0.604509472846984863 0.217258438467979431 -0.0865651890635490417
0.267881721258163452 0.039173029363155365 -0.0857544019818305969
-0.356357753276824951 -0.0221318546682596207 -0.130704045295715332
-0.564399361610412598 0.314449459314346313 -0.00753761734813451767
0.191021665930747986 -0.340892493724822998 -0.0743218213319778442
0.404491186141967773 -0.357733488082885742 -0.223668664693832397
-0.500274240970611572 0.145647764205932617 0.355168551206588745
0.509724318981170654 -0.151624873280525208 0.115529835224151611
0.497100561857223511 -0.264020621776580811 -0.304026424884796143
0.458255738019943237 -0.280980437994003296 -0.289384245872497559
0.441221743822097778 -0.265063285827636719 -0.283334434032440186
-0.588156044483184814 0.357590019702911377 0.0621089935302734375
0.505319356918334961 -0.126949787139892578 0.124954350292682648
-0.206367582082748413 0.312502413988113403 0.109314955770969391
0.268559873104095459 -0.284164279699325562 0.319701433181762695
0.232742518186569214 0.00340514746494591236 0.31843152642250061
0.513457655906677246 -0.175775587558746338 -0.281371206045150757
-0.11512688547372818 0.00986093003302812576 0.00640403805300593376
0.404223859310150146 -0.35976216197013855 -0.224292770028114319
0.417885333299636841 -0.313403040170669556 0.144276142120361328
-0.555668652057647705 0.376611411571502686 0.187225937843322754
-0.175781369209289551 0.309163719415664673 0.118999980390071869
-0.389837771654129028 0.276111692190170288 -0.084585927426815033
0.365333884954452515 0.051683720201253891 0.0251399781554937363
0.129292070865631104 0.115594841539859772 0.319448918104171753
-0.286370366811752319 -0.100548870861530304 -0.0915549322962760925
0.258213192224502563 0.100799135863780975 -0.0615090914070606232
-0.361169546842575073 -0.0597735531628131866 -0.143685907125473022
0.13425050675868988 0.113554872572422028 0.338394522666931152
-0.563123166561126709 0.199429810047149658 -0.228689208626747131
-0.276531368494033813 0.288048535585403442 -0.000366449501598253846
0.455162554979324341 -0.246554285287857056 -0.287919878959655762
0.460516214370727539 -0.275511801242828369 -0.290450513362884521
-0.634977102279663086 0.30827409029006958 0.170786798000335693
0.512692630290985107 -0.317603051662445068 -0.0381113439798355103
0.469212383031845093 -0.265908420085906982 -0.297578752040863037
0.478429555892944336 -0.295123428106307983 -0.299861669540405273
0.458417654037475586 -0.246337369084358215 -0.289491742849349976
0.381473571062088013 -0.361098736524581909 -0.213479876518249512
-0.479422718286514282 -0.0125342756509780884 0.186339899897575378
-0.516638278961181641 0.365872442722320557 0.174526408314704895
-0.618586122989654541 0.202150344848632812 -0.0868341997265815735
-0.237216278910636902 0.0188124105334281921 -0.0720573067665100098
-0.382519185543060303 -0.0590156726539134979 0.0241862870752811432
0.475120723247528076 -0.368480265140533447 0.0222844257950782776
-0.64933466911315918 0.236874192953109741 0.0325885750353336334
0.412907630205154419 -0.346832305192947388 -0.221261695027351379
0.52625960111618042 -0.337284684181213379 0.0805706903338432312
0.506273031234741211 -0.239118486642837524 -0.307687997817993164
0.249919012188911438 -0.282342284917831421 0.318758904933929443
0.23935292661190033 0.0664352327585220337 0.315213292837142944
0.539761722087860107 -0.301956146955490112 -0.0932049751281738281
-0.447832345962524414 -0.0413672327995300293 0.127011224627494812
-0.0437214858829975128 0.104401178658008575 0.31838640570640564
0.248154953122138977 0.0208873450756072998 0.32276451587677002
-0.284693449735641479 -0.0996824800968170166 -0.0985762849450111389
-0.137620419263839722 -0.015123915858566761 -0.0483245402574539185
-0.278007924556732178 0.337928146123886108 0.0475304573774337769
-0.254807502031326294 0.289948493242263794 -0.0027082876767963171
-0.21902957558631897 0.321931004524230957 0.0703969821333885193
-0.573283374309539795 0.152356773614883423 -0.0741229131817817688
-0.290060847997665405 0.292757332324981689 0.0165728386491537094
0.525824904441833496 -0.32079353928565979 0.0276718456298112869
0.346283197402954102 -0.0306405536830425262 -0.0339749008417129517
0.522456824779510498 -0.363047212362289429 0.0899023786187171936
-0.083089679479598999 -0.111874684691429138 0.0789825841784477234
-0.404130220413208008 0.326123148202896118 0.121745675802230835
0.504991650581359863 -0.367203056812286377 -0.00401340052485466003
-0.118793673813343048 0.266089528799057007 0.121523447334766388
0.51893383264541626 -0.343087106943130493 0.0363381765782833099
0.13069094717502594 -0.334731578826904297 0.301753520965576172
0.466868191957473755 -0.311192512512207031 0.0729659274220466614
0.483115434646606445 -0.374138981103897095 0.0528153665363788605
0.42121124267578125 -0.0262162201106548309 0.0653935149312019348
0.494395643472671509 -0.363663285970687866 -0.0150657398626208305
-0.233068287372589111 0.287187874317169189 0.0846907943487167358
0.531420707702636719 -0.331885725259780884 -0.00674098683521151543
-0.272083640098571777 0.315452665090560913 0.114521816372871399
0.308387786149978638 0.00244198390282690525 0.0468287467956542969
0.467694193124771118 -0.263517558574676514 -0.295649319887161255
0.474060714244842529 -0.304473042488098145 0.114752933382987976
0.511401355266571045 -0.313757508993148804 -0.103930465877056122
0.509420633316040039 -0.24546484649181366 -0.308007597923278809
0.448243319988250732 -0.29261055588722229 -0.292344063520431519
0.466670811176300049 -0.283375054597854614 -0.296861588954925537
0.13848288357257843 0.112672187387943268 0.337334215641021729
-0.652209877967834473 0.285860717296600342 0.0983764901757240295
-0.638356149196624756 0.24495929479598999 -0.0378510504961013794
0.136504501104354858 0.0691507011651992798 0.338445901870727539
-0.577170014381408691 0.303947359323501587 -0.055195976048707962
0.262661457061767578 0.0303524844348430634 -0.0729612186551094055
0.542101144790649414 -0.216874301433563232 0.112105093896389008
-0.359980523586273193 -0.035768561065196991 -0.133886545896530151
-0.574827671051025391 0.327632248401641846 -0.0291992854326963425
-0.361677378416061401 -0.070944957435131073 -0.0335304997861385345
-0.130266517400741577 -0.26763761043548584 0.119558155536651611
0.495365262031555176 -0.365961313247680664 0.000101173944131005555
0.374167263507843018 -0.35949668288230896 -0.209644734859466553
-0.378294318914413452 -0.10691564530134201 0.101794630289077759
-0.0667207986116409302 -0.264098197221755981 0.296981185674667358
0.520091533660888672 -0.243416458368301392 -0.309026449918746948
0.509670913219451904 -0.33069726824760437 0.0157583560794591904
-0.59347832202911377 0.36913648247718811 0.120991192758083344
-0.655377864837646484 0.175801903009414673 -0.102700993418693542
-0.222820013761520386 -0.144181400537490845 -0.0532716922461986542
-0.191363170742988586 0.316681742668151855 0.101269006729125977
0.257021427154541016 -0.283634781837463379 0.320192426443099976
0.239355549216270447 0.0320759378373622894 0.319675177335739136
-0.119958274066448212 -0.046156127005815506 0.00778939435258507729
-0.641651928424835205 0.308792918920516968 0.102256208658218384
0.365063190460205078 -0.374040901660919189 -0.206563279032707214
0.537903904914855957 -0.217899024486541748 0.162398546934127808
-0.552884221076965332 0.38261181116104126 0.158416688442230225
-0.122571773827075958 0.259305179119110107 0.115654341876506805
0.119521729648113251 0.102353520691394806 0.0899895578622817993
-0.375499039888381958 0.265949994325637817 -0.0891201198101043701
0.517092108726501465 -0.34919971227645874 0.0992728173732757568
-0.293364763259887695 -0.107165932655334473 -0.108856126666069031
0.275122255086898804 0.102847784757614136 -0.0571486279368400574
-0.575098991394042969 0.219686582684516907 -0.212307900190353394
-0.115613706409931183 0.268589615821838379 0.180357605218887329
0.236380681395530701 -0.288109272718429565 0.31487882137298584
0.310448408126831055 -0.187487050890922546 0.241540282964706421
0.541942059993743896 -0.325967848300933838 -0.020438656210899353
0.0793722942471504211 -0.337814062833786011 0.282701492309570312
-0.00613702693954110146 -0.171926528215408325 0.00471825338900089264
-0.282330304384231567 0.26179814338684082 0.00754171703010797501
0.513348639011383057 -0.237188965082168579 -0.309022068977355957
-0.647002458572387695 0.278412222862243652 0.0799166113138198853
-0.646315813064575195 0.183313101530075073 -0.0905436277389526367
0.514299333095550537 -0.32265782356262207 0.024774014949798584
-0.406871646642684937 -0.0636364147067070007 0.113986261188983917
0.517033159732818604 -0.355837643146514893 -0.0201543308794498444
-0.56669163703918457 0.374485671520233154 0.152914136648178101
0.236100345849990845 0.0428900159895420074 0.314225763082504272
-0.664848744869232178 0.227272480726242065 0.0234650168567895889
-0.448042631149291992 -0.0384692251682281494 0.127520471811294556
0.50323110818862915 -0.30238381028175354 -0.178438663482666016
-0.589220702648162842 0.361197948455810547 0.0864804387092590332
-0.194204315543174744 0.314955711364746094 0.105387642979621887
0.247136861085891724 0.0237915422767400742 0.324359148740768433
0.53110659122467041 -0.32392805814743042 -0.0576131716370582581
-0.18294796347618103 0.307050138711929321 0.129008442163467407
0.247398346662521362 0.00686546182259917259 0.324486881494522095
0.0587688200175762177 0.139577284455299377 0.346291720867156982
-0.505700111389160156 0.149450972676277161 0.357368737459182739
0.271087020635604858 -0.311383306980133057 0.326732099056243896
-0.253656327724456787 0.0235540810972452164 -0.070269368588924408
0.241433188319206238 -0.295422881841659546 0.322980105876922607
0.249149173498153687 0.0436735451221466064 0.314953416585922241
0.468514561653137207 -0.102122291922569275 0.0351181253790855408
-0.124782398343086243 0.195088699460029602 0.1159239262342453
0.240334883332252502 -0.326740682125091553 0.318426370620727539
0.500464081764221191 -0.366742312908172607 0.0751349478960037231
0.523621439933776855 -0.324860751628875732 0.0266938414424657822
0.44489586353302002 -0.253435105085372925 0.332876533269882202
0.321757853031158447 -0.13157065212726593 -0.106215491890907288
0.0635976195335388184 -0.0108649823814630508 0.322212100028991699
0.511505603790283203 -0.361037909984588623 0.0479917004704475403
0.135923519730567932 -0.100797183811664581 0.0410053357481956482
0.0496945418417453766 0.0114559894427657127 0.0301924105733633041
0.020920928567647934 0.0481498278677463531 0.0430620349943637848
0.0883990228176116943 -0.0661843866109848022 0.290142029523849487
-0.161812305450439453 -0.265722006559371948 0.148451954126358032
0.265127658843994141 -0.0203113537281751633 0.0620362907648086548
-0.0286797508597373962 -0.0291244983673095703 0.296058475971221924
0.502427279949188232 -0.240436658263206482 -0.301605701446533203
0.476235359907150269 -0.31506076455116272 -0.301561832427978516
-0.630957543849945068 0.306423097848892212 0.16777193546295166
0.475707799196243286 -0.320987731218338013 0.121515348553657532
0.509310603141784668 -0.300984650850296021 -0.105090662837028503
0.528462409973144531 -0.275004059076309204 -0.316790580749511719
0.493838578462600708 -0.332524746656417847 -0.310317188501358032
0.503724455833435059 -0.320303738117218018 0.0985101908445358276
0.474482238292694092 -0.305895835161209106 -0.297712653875350952
-0.559338629245758057 0.268184036016464233 0.364984363317489624
0.125154256820678711 0.116727128624916077 0.314750522375106812
-0.633589088916778564 0.282379269599914551 0.0546535439789295197
-0.58741229772567749 0.362951457500457764 0.102823324501514435
0.37189897894859314 -0.374193072319030762 -0.21234130859375
0.438747972249984741 -0.34816509485244751 0.15483604371547699
0.05826539546251297 0.121198594570159912 0.321663796901702881
-0.574634313583374023 0.368957877159118652 0.21598227322101593
0.264917880296707153 0.0244586504995822906 -0.0581623539328575134
0.369133442640304565 -0.336976945400238037 0.161108285188674927
0.510753452777862549 -0.301703035831451416 -0.111540839076042175
0.134063437581062317 -0.320729702711105347 -0.097346082329750061
0.516809582710266113 -0.348963052034378052 -0.0198094714432954788
0.389670014381408691 -0.346920609474182129 -0.213691204786300659
-0.577049195766448975 0.319216609001159668 0.0411814823746681213
0.536273598670959473 -0.277972608804702759 -0.320194929838180542
0.468198627233505249 -0.311031997203826904 -0.298850566148757935
0.507433712482452393 -0.34730878472328186 0.018418382853269577
-0.555955886840820312 0.309847533702850342 0.1026759073138237
0.194326356053352356 -0.339512944221496582 -0.058727756142616272
0.0705421864986419678 -0.282355517148971558 -0.07746075838804245
0.252879679203033447 -0.250491559505462646 0.32066190242767334
0.240150362253189087 0.0307178813964128494 0.317452818155288696
-0.120818272233009338 -0.0479545667767524719 0.00864367466419935226
0.179068341851234436 -0.10036313533782959 -0.0143117215484380722
0.532682299613952637 -0.332491219043731689 -0.0126812085509300232
0.370754599571228027 -0.34964558482170105 -0.208471730351448059
0.535178542137145996 -0.246060386300086975 0.177809476852416992
0.56139218807220459 -0.315920054912567139 -0.330532282590866089
0.554708957672119141 -0.211941033601760864 0.13446412980556488
-0.543349564075469971 0.380910217761993408 0.164963230490684509
0.123013123869895935 0.117013908922672272 0.133673548698425293
-0.582290410995483398 0.352068156003952026 0.0982178673148155212
-0.481545686721801758 0.186009258031845093 -0.0910899937152862549
0.515876352787017822 -0.339385151863098145 0.039332125335931778
0.253901660442352295 -0.279409795999526978 0.32247769832611084
0.27896040678024292 -0.356141984462738037 -0.125631406903266907
0.508208155632019043 -0.286789000034332275 -0.313266456127166748
-0.432014763355255127 -0.0573112331330776215 0.117202490568161011
0.202143102884292603 0.0902800634503364563 0.223927393555641174
0.244466587901115417 0.104354843497276306 -0.0567157194018363953
-0.195601344108581543 0.201463833451271057 0.349871009588241577
0.250717014074325562 0.0246782414615154266 0.323883503675460815
0.240082591772079468 0.0187715459614992142 0.321574509143829346
-0.0312663242220878601 0.162573128938674927 0.383228987455368042
-0.482408672571182251 -0.0157439354807138443 0.180687278509140015
0.484112054109573364 -0.369306564331054688 0.0465691164135932922
-0.643528997898101807 0.287227362394332886 0.0866345539689064026
0.276321619749069214 -0.166037097573280334 -0.070011042058467865
-0.411678105592727661 -0.05698365718126297 0.0794173777103424072
-0.642972409725189209 0.175773888826370239 -0.081619851291179657
-0.225667789578437805 -0.134075835347175598 -0.0517290011048316956
0.255397886037826538 -0.265823423862457275 0.321641623973846436
-0.34519493579864502 0.0172187648713588715 -0.116424329578876495
-0.28689122200012207 -0.0916754007339477539 -0.106011770665645599
-0.584993124008178711 0.209898114204406738 -0.217619791626930237
0.268064260482788086 -0.297281801700592041 0.315713882446289062
-0.0252252742648124695 -0.187463775277137756 -0.0429928340017795563
-0.618067324161529541 0.277016311883926392 0.0318289808928966522
-0.608864009380340576 0.298334509134292603 0.0929250940680503845
-0.397413164377212524 -0.0629908815026283264 0.119410745799541473
-0.451580524444580078 -0.0382974259555339813 0.120001398026943207
0.431491851806640625 -0.272063553333282471 0.329745769500732422
-0.0523242652416229248 0.140639141201972961 0.0922687500715255737
-0.502967298030853271 0.151074916124343872 0.355985283851623535
0.241294577717781067 -0.319565922021865845 0.323325663805007935
0.497479438781738281 -0.3711281418800354 0.0578916072845458984
0.399699479341506958 -0.25718262791633606 0.323017120361328125
-0.157953083515167236 -0.263711929321289062 0.182091355323791504
-0.499088257551193237 0.0139184743165969849 0.158598318696022034
0.417992740869522095 -0.297689914703369141 0.32928737998008728
0.53560715913772583 -0.340479850769042969 -0.0179136060178279877
0.344714850187301636 -0.267671346664428711 -0.127375856041908264
-0.496418416500091553 0.0718847736716270447 0.204512178897857666
0.444027215242385864 -0.272508680820465088 0.333976209163665771
0.522348940372467041 -0.335698068141937256 0.0333351306617259979
0.453773468732833862 -0.320168167352676392 -0.292593538761138916
0.474584817886352539 -0.312000513076782227 0.11725500226020813
0.517576813697814941 -0.278676986694335938 -0.312375515699386597
0.503039777278900146 -0.326207727193832397 -0.313881814479827881
0.518437027931213379 -0.327427774667739868 0.102474771440029144
0.479709357023239136 -0.311696231365203857 -0.301731318235397339
0.114744201302528381 0.118332415819168091 0.289611071348190308
-0.12192661315202713 0.268533438444137573 0.159367635846138
-0.614818990230560303 0.265484213829040527 0.052539583295583725
-0.47931903600692749 0.00292075355537235737 0.181872010231018066
0.427096188068389893 -0.355356842279434204 0.159114107489585876
-0.29205930233001709 -0.110750019550323486 -0.105279989540576935
0.130752280354499817 0.0652286261320114136 0.321810215711593628
0.253983080387115479 0.0383863560855388641 -0.0772764012217521667
0.235698282718658447 0.0935810133814811707 -0.0525398701429367065
0.418090850114822388 -0.26184380054473877 -0.201877385377883911
0.522017717361450195 -0.354961246252059937 -0.0189355630427598953
-0.608931422233581543 0.381140142679214478 0.181727677583694458
0.51792830228805542 -0.279577106237411499 -0.3142985999584198
0.499464541673660278 -0.350320786237716675 0.0246103014796972275
-0.58789902925491333 0.369325250387191772 0.113512225449085236
0.506200909614562988 -0.105076916515827179 0.147863715887069702
-0.19806283712387085 0.311489403247833252 0.113507688045501709
0.264510571956634521 -0.286868780851364136 0.320304512977600098
0.237154021859169006 0.061831597238779068 0.311122894287109375
-0.144268825650215149 -0.0436893589794635773 0.00471051642671227455
-0.657739520072937012 0.214683637022972107 -0.0457716584205627441
-0.288377910852432251 -0.0761376619338989258 -0.0681116878986358643
0.227491497993469238 0.0418649911880493164 -0.0476219542324542999
0.55175250768661499 -0.144831687211990356 0.132616192102432251
0.520067870616912842 -0.295693248510360718 0.0754469931125640869
0.517920970916748047 -0.284358322620391846 -0.180697336792945862
-0.357932358980178833 -0.017262682318687439 -0.0274348538368940353
0.0916406810283660889 0.087931118905544281 0.0863438472151756287
0.467023789882659912 -0.362218856811523438 -0.0101547846570611
-0.432880878448486328 0.157651618123054504 -0.0659891068935394287
0.524109780788421631 -0.33597177267074585 0.0694440603256225586
0.263370215892791748 -0.286237508058547974 0.319027841091156006
0.00966658443212509155 -0.0912216827273368835 -0.0256170909851789474
0.0328763388097286224 -0.130632057785987854 0.0223762001842260361
-0.630722641944885254 0.26500210165977478 0.0294874235987663269
0.242347970604896545 0.0740027651190757751 0.319393157958984375
0.240459859371185303 0.0292426198720932007 0.319465577602386475
-0.174848839640617371 0.300756454467773438 0.116886749863624573
0.305005788803100586 -0.151629582047462463 0.308344185352325439
0.262407034635543823 -0.291037917137145996 0.321512579917907715
-0.476120471954345703 -0.00834171194583177567 0.166740730404853821
0.242974534630775452 0.0814411714673042297 0.312753617763519287
0.520540118217468262 -0.351626664400100708 0.0824785530567169189
-0.0345323160290718079 -0.237834542989730835 0.124600872397422791
-0.638347029685974121 0.290006369352340698 0.0992686301469802856
-0.233985617756843567 -0.133046656847000122 -0.0575152374804019928
-0.379134923219680786 -0.108998425304889679 0.106058917939662933
-0.236186504364013672 -0.148068889975547791 -0.057364732027053833
-0.65795433521270752 0.214376598596572876 -0.0334740392863750458
0.529171168804168701 -0.352957814931869507 0.0784211456775665283
-0.621176660060882568 0.270262807607650757 0.0529336333274841309
-0.404033899307250977 -0.0645331144332885742 0.112581364810466766
-0.446236908435821533 -0.0416860096156597137 0.122508183121681213
0.268472462892532349 -0.285931408405303955 0.323988556861877441
0.128111004829406738 -0.326888740062713623 0.31308746337890625
0.152773290872573853 -0.34338340163230896 0.318358719348907471
0.448110789060592651 -0.33592793345451355 -0.292570263147354126
0.516051709651947021 -0.303281515836715698 -0.107459709048271179
0.515551507472991943 -0.280548959970474243 -0.312394380569458008
0.485221028327941895 -0.32797694206237793 -0.309365302324295044
0.464718163013458252 -0.346189349889755249 -0.302244484424591064
0.549864768981933594 -0.210514172911643982 -0.315535455942153931
0.52441638708114624 -0.300332337617874146 -0.322049468755722046
0.518286526203155518 -0.301144868135452271 -0.317945390939712524
0.247081965208053589 0.0567184016108512878 0.31698271632194519
0.241538465023040771 0.0871961414813995361 0.313322335481643677
-0.29151347279548645 -0.100751966238021851 -0.101399451494216919
-0.453488469123840332 -0.052166622132062912 0.117598056793212891
0.405173778533935547 -0.272603511810302734 0.323060214519500732
-0.502342045307159424 0.00361186312511563301 0.189645901322364807
0.40147516131401062 -0.287581145763397217 0.325372874736785889
0.399618476629257202 -0.273898512125015259 0.323854237794876099
0.342603743076324463 -0.259285241365432739 0.0906275510787963867
-0.0184265356510877609 -0.244630113244056702 0.129173398017883301
-0.464458614587783813 0.0358199290931224823 0.190084129571914673
-0.194402247667312622 0.221456453204154968 0.1726418137550354
0.367232799530029297 -0.329584419727325439 -0.0230223368853330612
0.323853254318237305 -0.390392094850540161 -0.158438578248023987
0.535695970058441162 -0.323935449123382568 -0.0577138997614383698
-0.44169732928276062 -0.00490689836442470551 0.153230324387550354
-0.0188856981694698334 -0.0597700066864490509 0.142271921038627625
0.000124393700389191508 -0.236366510391235352 0.106893211603164673
0.526444911956787109 -0.202113792300224304 -0.0795126631855964661
0.450160324573516846 -0.30861237645149231 -0.29244956374168396
0.52713543176651001 -0.275706946849822998 -0.315245240926742554
0.500236988067626953 -0.325158119201660156 -0.31225132942199707
0.475561052560806274 -0.305325478315353394 -0.296964854001998901
-0.127476587891578674 0.246489331126213074 0.13954693078994751
-0.649049580097198486 0.282034873962402344 0.0946413278579711914
-0.198958799242973328 0.286552101373672485 0.336498379707336426
0.498175948858261108 -0.0870930850505828857 0.13723069429397583
0.201197266578674316 -0.359432250261306763 -0.090357460081577301
0.505710840225219727 -0.367985576391220093 -0.0221998933702707291
0.527501046657562256 -0.243006765842437744 0.173511907458305359
-0.586059927940368652 0.37935715913772583 0.171118393540382385
0.445381462574005127 -0.315206170082092285 -0.287324756383895874
0.498765408992767334 -0.111452296376228333 0.112736999988555908
-0.655756175518035889 0.175485894083976746 -0.10339789092540741
-0.202034235000610352 0.308687299489974976 0.0897173583507537842
0.201588436961174011 -0.0139189716428518295 0.295826852321624756
0.160315334796905518 -0.0624304302036762238 -0.0435432083904743195
-0.5795784592628479 0.302244722843170166 0.369186967611312866
0.275212287902832031 0.098077721893787384 -0.0285703036934137344
-0.435244441032409668 0.155356854200363159 -0.0855175331234931946
0.534704148769378662 -0.333350807428359985 0.0132674053311347961
-0.568701982498168945 0.19734567403793335 -0.228701680898666382
-0.497572869062423706 0.0449243709444999695 -0.0863865241408348083
0.0317169651389122009 -0.104239538311958313 0.033534124493598938
0.534379243850708008 -0.26474568247795105 -0.315888792276382446
0.00983991287648677826 0.197471752762794495 0.0281420014798641205
0.302377045154571533 0.0385842248797416687 -0.0839524716138839722
-0.332011550664901733 -0.0161028988659381866 -0.107185795903205872
0.236748754978179932 0.0141289094462990761 0.322378605604171753
0.125332549214363098 0.0127041591331362724 0.299528032541275024
0.527791798114776611 -0.355474382638931274 0.066864989697933197
0.467438459396362305 -0.310109913349151611 -0.232674494385719299
-0.652031123638153076 0.285376131534576416 0.104749135673046112
0.546811044216156006 -0.220283731818199158 0.164076998829841614
0.528309345245361328 -0.32367292046546936 -0.01552579365670681
-0.382851541042327881 -0.0565253421664237976 0.0767607986927032471
0.457277148962020874 -0.311093807220458984 -0.292146682739257812
0.505313873291015625 -0.340079158544540405 -0.317491054534912109
0.479178637266159058 -0.314572393894195557 -0.299090206623077393
0.520691812038421631 -0.301549583673477173 -0.316909343004226685
-0.0019276720704510808 -0.140195757150650024 -0.0242949556559324265
0.397953331470489502 -0.273456424474716187 0.324028998613357544
0.401620954275131226 -0.271883785724639893 0.324335068464279175
0.506393611431121826 -0.332286596298217773 0.106400199234485626
-0.467459350824356079 0.0423607714474201202 0.171193778514862061
0.410436421632766724 -0.346175223588943481 0.157133191823959351
-0.360589414834976196 -0.0353755317628383636 -0.147592097520828247
-0.127800524234771729 -0.267876535654067993 0.112920209765434265
0.512921631336212158 -0.36932411789894104 -0.0141414208337664604
-0.213659495115280151 0.312493562698364258 0.098250173032283783
0.251077026128768921 -0.287376761436462402 0.323451429605484009
0.209226295351982117 0.00915946997702121735 -0.0455590374767780304
0.0703646615147590637 -0.151738464832305908 -0.0167039688676595688
-0.16969047486782074 0.304709494113922119 0.119450993835926056
0.471472829580307007 -0.364640474319458008 0.00757247861474752426
-0.290633648633956909 -0.0995423644781112671 -0.102656550705432892
0.0368514508008956909 -0.149890139698982239 -0.0211739428341388702
0.232456013560295105 0.0559486933052539825 0.309805989265441895
0.253882944583892822 -0.288938909769058228 0.321233004331588745
-0.471544653177261353 0.00105093012098222971 0.169208511710166931
0.241268858313560486 0.0624042078852653503 0.313706308603286743
0.509286761283874512 -0.352317929267883301 0.0645122453570365906
0.227923199534416199 -0.315077006816864014 0.315131872892379761
-0.37514767050743103 -0.0932543501257896423 0.0867449864745140076
-0.0622164607048034668 -0.241822779178619385 0.303101211786270142
-0.222336500883102417 -0.127789899706840515 -0.0525739006698131561
-0.409650087356567383 -0.0655452907085418701 0.0990709066390991211
-0.444777965545654297 -0.0448094606399536133 0.133283689618110657
0.239473119378089905 -0.294317781925201416 0.315007507801055908
0.154439151287078857 -0.324590951204299927 0.32067418098449707
0.425736963748931885 -0.256370782852172852 0.329188555479049683
0.438672780990600586 -0.343154639005661011 -0.292225927114486694
0.506730258464813232 -0.334780871868133545 -0.317634999752044678
0.445519983768463135 -0.352502912282943726 -0.286282986402511597
0.238532692193984985 0.0654685646295547485 0.312986314296722412
0.403701424598693848 -0.287809908390045166 0.326497584581375122
-0.494569092988967896 0.00664205104112625122 0.188934847712516785
0.486017554998397827 -0.0635289996862411499 0.132359787821769714
0.0129782771691679955 -0.170924842357635498 0.0103927748277783394
0.531893551349639893 -0.307869166135787964 -0.0616775229573249817
0.315305411815643311 -0.302497118711471558 -0.126315072178840637
0.446342319250106812 -0.291546255350112915 -0.285180985927581787
-0.3367442786693573 0.224652647972106934 0.126326695084571838
-0.400579452514648438 -0.0282486490905284882 -0.00135482812765985727
0.40360558032989502 -0.272026717662811279 0.32471880316734314
-0.133077889680862427 0.195673003792762756 0.168383583426475525
0.399657696485519409 -0.271963268518447876 0.324531316757202148
-0.446247279644012451 -0.025013873353600502 0.0219543017446994781
-0.137785360217094421 0.24475511908531189 0.192342028021812439
-0.612597942352294922 0.294087886810302734 0.184252366423606873
0.124869652092456818 0.115859128534793854 0.317339241504669189
-0.120731577277183533 0.250490963459014893 0.162473976612091064
-0.583109080791473389 0.348234504461288452 0.0586283095180988312
0.427334100008010864 -0.348348647356033325 0.153619334101676941
-0.566494226455688477 0.295157492160797119 -0.0685176998376846313
0.252252280712127686 0.0265153292566537857 -0.0790046975016593933
0.247987419366836548 0.100198715925216675 -0.0477568097412586212
-0.357053577899932861 -0.0557278655469417572 -0.141329720616340637
0.199005722999572754 0.120029360055923462 0.0363805033266544342
0.545873641967773438 -0.131773814558982849 0.112613297998905182
-0.581398725509643555 0.321853071451187134 -0.0223709773272275925
0.20652461051940918 0.0244528762996196747 0.177477225661277771
-0.595143616199493408 0.375232338905334473 0.172530263662338257
0.445281177759170532 -0.319435387849807739 0.127957165241241455
0.255680382251739502 -0.278905749320983887 0.317079097032546997
0.235956296324729919 0.0235670916736125946 0.3172263503074646
-0.362527221441268921 -0.0497676804661750793 -0.0232138093560934067
-0.182328373193740845 0.118083424866199493 0.0429207980632781982
0.255399078130722046 -0.288343697786331177 0.319893717765808105
0.242384076118469238 0.0329429470002651215 0.322492599487304688
0.400169074535369873 0.0231310166418552399 0.115801498293876648
-0.340078204870223999 -0.0660826563835144043 -0.146774917840957642
0.0764324590563774109 -0.333061665296554565 0.29953920841217041
-0.386375695466995239 -0.0607767105102539062 0.0943950414657592773
-0.44781377911567688 -0.0412829406559467316 0.128291875123977661
0.439885139465332031 -0.279494374990463257 0.334260940551757812
