ply
format ascii 1.0
element vertex 738
property float x
property float y
property float z
end_header
-0.237088069319725037 0.0192248132079839706 -0.0721023157238960266
-0.382357656955718994 -0.0586222931742668152 0.0241834875196218491
0.47515416145324707 -0.368079572916030884 0.022113090381026268
-0.64911043643951416 0.237139523029327393 0.0327532403171062469
0.412891805171966553 -0.346448719501495361 -0.22136293351650238
0.526327908039093018 -0.336883127689361572 0.0803786739706993103
0.506311893463134766 -0.238741219043731689 -0.307789713144302368
0.249933570623397827 -0.281966567039489746 0.318539798259735107
0.239455804228782654 0.0668524801731109619 0.315006732940673828
0.539829850196838379 -0.30156630277633667 -0.0933601334691047668
-0.447643250226974487 -0.0409963242709636688 0.127032682299613953
-0.0435937792062759399 0.104785822331905365 0.318258225917816162
0.248241260647773743 0.021304398775100708 0.322554826736450195
-0.28460201621055603 -0.0992790162563323975 -0.0986475870013237
-0.137525156140327454 -0.0147086037322878838 -0.0483794547617435455
-0.277761876583099365 0.338240057229995728 0.0475167334079742432
-0.254587888717651367 0.290290921926498413 -0.0027375686913728714
-0.218788310885429382 0.322252124547958374 0.0703636854887008667
-0.573087394237518311 0.152670562267303467 -0.0739972516894340515
-0.289830237627029419 0.293097585439682007 0.0165477637201547623
0.525892257690429688 -0.320393830537796021 0.027490861713886261
0.346348553895950317 -0.0301999989897012711 -0.0341406352818012238
0.522520720958709717 -0.362647116184234619 0.0897116288542747498
-0.0830315649509429932 -0.111461587250232697 0.0788858532905578613
-0.403860479593276978 0.326418548822402954 0.121781326830387115
0.505038976669311523 -0.366807043552398682 -0.00417866837233304977
-0.118574216961860657 0.266442537307739258 0.121451780200004578
0.518995106220245361 -0.342688083648681641 0.0361588373780250549
0.130698487162590027 -0.334375232458114624 0.301560401916503906
0.466909080743789673 -0.310785055160522461 0.0727737843990325928
0.483155488967895508 -0.373738259077072144 0.0526368841528892517
0.421308636665344238 -0.0257650446146726608 0.0651941373944282532
0.494436502456665039 -0.363267004489898682 -0.0152286170050501823
-0.232832610607147217 0.287524551153182983 0.0846502184867858887
0.531487107276916504 -0.331490010023117065 -0.00691163958981633186
-0.271830946207046509 0.315769106149673462 0.114494740962982178
0.308473378419876099 0.00288858218118548393 0.0466487966477870941
0.467707902193069458 -0.263138771057128906 -0.295748442411422729
0.474107086658477783 -0.304062902927398682 0.114547818899154663
0.511449515819549561 -0.313368052244186401 -0.104079805314540863
0.50946044921875 -0.245088398456573486 -0.308108538389205933
0.448243856430053711 -0.292232036590576172 -0.292437702417373657
0.466678917407989502 -0.28299829363822937 -0.296958029270172119
0.138596504926681519 0.113075882196426392 0.337151408195495605
-0.651958107948303223 0.286094725131988525 0.098580479621887207
-0.638145864009857178 0.2452278733253479 -0.0376889295876026154
0.136602222919464111 0.0695568323135375977 0.338261812925338745
-0.576952934265136719 0.304213762283325195 -0.0550488568842411041
0.262732177972793579 0.0307937320321798325 -0.073114052414894104
0.542196869850158691 -0.216457247734069824 0.111888065934181213
-0.359845668077468872 -0.0353677719831466675 -0.133883759379386902
-0.574600100517272949 0.327889412641525269 -0.0290490128099918365
-0.361534208059310913 -0.0705480501055717468 -0.0335368812084197998
-0.130233556032180786 -0.267253339290618896 0.11945776641368866
0.495407313108444214 -0.365563392639160156 -6.56504198559559882e-05
0.374134302139282227 -0.359111756086349487 -0.20974317193031311
-0.378130704164505005 -0.106526747345924377 0.101770468056201935
-0.066690690815448761 -0.263740479946136475 0.296828269958496094
0.520137965679168701 -0.243040844798088074 -0.309128046035766602
0.509727299213409424 -0.330298006534576416 0.0155821898952126503
-0.593210101127624512 0.369360804557800293 0.121157467365264893
-0.655188441276550293 0.17608216404914856 -0.102531641721725464
-0.222745537757873535 -0.143782496452331543 -0.0533178038895130157
-0.191119730472564697 0.317005127668380737 0.101223468780517578
0.257036119699478149 -0.283258527517318726 0.319971948862075806
0.239445552229881287 0.0324929766356945038 0.319467514753341675
-0.119869992136955261 -0.0457408018410205841 0.0077223251573741436
-0.641401112079620361 0.309030354022979736 0.102433539927005768
0.365024656057357788 -0.373656213283538818 -0.206659287214279175
0.537995576858520508 -0.217479586601257324 0.162170246243476868
-0.552603065967559814 0.382838547229766846 0.158557653427124023
-0.12235528975725174 0.259661704301834106 0.115582883358001709
0.119640327990055084 0.102791242301464081 0.0898405015468597412
-0.375290095806121826 0.266299217939376831 -0.08910408616065979
0.5171547532081604 -0.348797589540481567 0.099077373743057251
-0.293267995119094849 -0.106766223907470703 -0.10888826847076416
0.275222837924957275 0.103293329477310181 -0.0573084168136119843
-0.574931502342224121 0.219985485076904297 -0.212171599268913269
-0.11539170891046524 0.268933296203613281 0.180276036262512207
0.236394226551055908 -0.287735909223556519 0.314662247896194458
0.31047511100769043 -0.187072426080703735 0.241325438022613525
0.542013764381408691 -0.325573623180389404 -0.0206070244312286377
0.0793793871998786926 -0.337458521127700806 0.282522380352020264
-0.00612449925392866135 -0.171516448259353638 0.00462789321318268776
-0.282111853361129761 0.262152522802352905 0.00751050282269716263
0.513391852378845215 -0.236812278628349304 -0.309124112129211426
-0.646759510040283203 0.278658211231231689 0.0800978392362594604
-0.64612269401550293 0.183593958616256714 -0.0903774425387382507
0.514359951019287109 -0.322257578372955322 0.0245941970497369766
-0.406696289777755737 -0.0632560700178146362 0.113982759416103363
0.517087340354919434 -0.355443775653839111 -0.0203172769397497177
-0.566413938999176025 0.374712169170379639 0.153063133358955383
0.236194387078285217 0.0433077886700630188 0.314019292593002319
-0.664629101753234863 0.227537646889686584 0.023632485419511795
-0.447852462530136108 -0.0380984395742416382 0.127542302012443542
0.503268718719482422 -0.301998436450958252 -0.178569093346595764
-0.588959455490112305 0.361427396535873413 0.0866504386067390442
-0.193960562348365784 0.315279394388198853 0.105341523885726929
0.247224092483520508 0.0242082066833972931 0.324149668216705322
0.531168937683105469 -0.323536217212677002 -0.0577725470066070557
-0.182706177234649658 0.307375937700271606 0.128955140709877014
0.24747931957244873 0.00728180073201656342 0.324276894330978394
0.0588940642774105072 0.139968156814575195 0.34613335132598877
-0.505473434925079346 0.149755537509918213 0.357400625944137573
0.271099478006362915 -0.31101071834564209 0.326509296894073486
-0.253521621227264404 0.0239662639796733856 -0.0703126862645149231
0.24144628643989563 -0.295051455497741699 0.322762101888656616
0.249244436621665955 0.0440921112895011902 0.314744561910629272
0.468598663806915283 -0.101684264838695526 0.0349178425967693329
-0.124593734741210938 0.195474624633789062 0.115839608013629913
0.240345090627670288 -0.326373696327209473 0.318210095167160034
0.500514745712280273 -0.366340696811676025 0.0749481022357940674
0.523687005043029785 -0.324461281299591064 0.0265138167887926102
0.444941431283950806 -0.253031164407730103 0.332627475261688232
0.321769267320632935 -0.131153762340545654 -0.106362737715244293
0.0636697262525558472 -0.0104625029489398003 0.322047561407089233
0.51156163215637207 -0.360638976097106934 0.0478122569620609283
0.135958090424537659 -0.100369125604629517 0.0408600866794586182
0.0497794747352600098 0.0118883922696113586 0.030081557109951973
0.0210235286504030228 0.0485800169408321381 0.0429575741291046143
0.0884502902626991272 -0.0657777860760688782 0.289967775344848633
-0.161765545606613159 -0.265344977378845215 0.148348897695541382
0.265201807022094727 -0.0198690537363290787 0.0618586763739585876
-0.0286003518849611282 -0.0287298541516065598 0.295922309160232544
0.502464175224304199 -0.240058481693267822 -0.301708757877349854
0.476246953010559082 -0.314685285091400146 -0.301651924848556519
-0.630696535110473633 0.306659668684005737 0.167935535311698914
0.475753694772720337 -0.320579439401626587 0.121311105787754059
0.509359240531921387 -0.30059438943862915 -0.105242110788822174
0.528509318828582764 -0.274632304906845093 -0.31688612699508667
0.493857651948928833 -0.332151502370834351 -0.310403287410736084
0.503783464431762695 -0.319897919893264771 0.0983108431100845337
0.474493354558944702 -0.305519968271255493 -0.297805488109588623
-0.559091150760650635 0.268434196710586548 0.365072965621948242
0.12527051568031311 0.11713399738073349 0.314572840929031372
-0.633352100849151611 0.282632023096084595 0.0548217222094535828
-0.587146997451782227 0.363178521394729614 0.102994412183761597
0.371862351894378662 -0.373808830976486206 -0.21243622899055481
0.43877604603767395 -0.34775775671005249 0.154629454016685486
0.0583856217563152313 0.121596358716487885 0.321506142616271973
-0.57435232400894165 0.369177013635635376 0.216130003333091736
0.264989912509918213 0.0249003767967224121 -0.0583177804946899414
0.369140207767486572 -0.336568981409072876 0.160907551646232605
0.510802268981933594 -0.301313310861587524 -0.111690305173397064
0.134022161364555359 -0.320328950881958008 -0.0974469929933547974
0.516864538192749023 -0.348568618297576904 -0.0199736710637807846
0.38964495062828064 -0.346535831689834595 -0.213792160153388977
-0.576805412769317627 0.319472819566726685 0.0413315854966640472
0.536324620246887207 -0.277602165937423706 -0.320289552211761475
0.46820637583732605 -0.310655772686004639 -0.298941433429718018
0.507486939430236816 -0.346910327672958374 0.018244350329041481
-0.555696308612823486 0.310108780860900879 0.102814123034477234
0.194290876388549805 -0.339113205671310425 -0.0588501393795013428
0.0705088376998901367 -0.281952202320098877 -0.0775544419884681702
0.252897858619689941 -0.250109881162643433 0.320442765951156616
0.240240007638931274 0.0311354305595159531 0.317245066165924072
-0.120730452239513397 -0.0475394614040851593 0.00857644807547330856
0.179095476865768433 -0.0999335944652557373 -0.0144617082551121712
0.532748818397521973 -0.332096129655838013 -0.0128502752631902695
0.370722949504852295 -0.349260002374649048 -0.208571657538414001
0.535264313220977783 -0.245645686984062195 0.177580267190933228
0.561451852321624756 -0.315555006265640259 -0.330619573593139648
0.554810881614685059 -0.211522936820983887 0.134241506457328796
-0.543067097663879395 0.381139755249023438 0.165096849203109741
0.123139053583145142 0.117445386946201324 0.133517473936080933
-0.582027673721313477 0.352302432060241699 0.0983816832304000854
-0.481343746185302734 0.186364218592643738 -0.0910406336188316345
0.515936672687530518 -0.338985413312911987 0.0391514338552951813
0.253916680812835693 -0.2790336012840271 0.322257578372955322
0.278919011354446411 -0.355749249458312988 -0.12574470043182373
0.508241117000579834 -0.286415815353393555 -0.313360095024108887
-0.431833833456039429 -0.0569358281791210175 0.117214120924472809
0.202257916331291199 0.0907095223665237427 0.223736777901649475
0.244565576314926147 0.104797989130020142 -0.0568697862327098846
-0.19541439414024353 0.201808616518974304 0.349773645401000977
0.250804871320724487 0.0250952951610088348 0.323673397302627563
0.240167632699012756 0.0191882103681564331 0.321366220712661743
-0.0311262421309947968 0.162942573428153992 0.383094727993011475
-0.482199400663375854 -0.0153845855966210365 0.180723726749420166
0.484152764081954956 -0.368906021118164062 0.046391710638999939
-0.643282711505889893 0.287470251321792603 0.0868173614144325256
0.27632102370262146 -0.165623053908348083 -0.0701596066355705261
-0.411503344774246216 -0.0566001087427139282 0.079423166811466217
-0.642778396606445312 0.176058858633041382 -0.08145943284034729
-0.225589275360107422 -0.133675947785377502 -0.051775030791759491
0.255414426326751709 -0.265444397926330566 0.321421563625335693
-0.345046311616897583 0.0176240261644124985 -0.116433091461658478
-0.286793142557144165 -0.0912730023264884949 -0.106055572628974915
-0.584828019142150879 0.210195988416671753 -0.217478811740875244
0.26807790994644165 -0.296905636787414551 0.315491855144500732
-0.0252171438187360764 -0.187057137489318848 -0.0430697686970233917
-0.617835581302642822 0.277276664972305298 0.0319900475442409515
-0.60861361026763916 0.298585474491119385 0.0930868163704872131
-0.397238761186599731 -0.0626095980405807495 0.119400955736637115
-0.451390117406845093 -0.0379263497889041901 0.120026886463165283
0.431530922651290894 -0.271662741899490356 0.329499185085296631
-0.0521720536053180695 0.14104972779750824 0.0921719148755073547
-0.502740263938903809 0.15138031542301178 0.35601574182510376
0.241305485367774963 -0.319198548793792725 0.323108404874801636
0.497527450323104858 -0.370728015899658203 0.0577109046280384064
0.399731308221817017 -0.256779581308364868 0.32277640700340271
-0.157904341816902161 -0.263339757919311523 0.181977599859237671
-0.498876094818115234 0.014268714003264904 0.158654570579528809
0.418024569749832153 -0.297293871641159058 0.329043447971343994
0.535673737525939941 -0.340086042881011963 -0.0180799774825572968
0.344696909189224243 -0.267274469137191772 -0.127508625388145447
-0.49619138240814209 0.0722238644957542419 0.204564899206161499
0.44407007098197937 -0.272108167409896851 0.333727091550827026
0.52241283655166626 -0.335298895835876465 0.0331552997231483459
0.453773856163024902 -0.319790571928024292 -0.292682945728302002
0.474630892276763916 -0.311591267585754395 0.117050588130950928
0.517616808414459229 -0.278304010629653931 -0.312471151351928711
0.503064870834350586 -0.325835496187210083 -0.313968688249588013
0.518503010272979736 -0.327023744583129883 0.102275356650352478
0.479723036289215088 -0.311320960521697998 -0.301822274923324585
0.114862047135829926 0.118744201958179474 0.289437383413314819
-0.121705338358879089 0.268879890441894531 0.159290596842765808
-0.614583432674407959 0.265748381614685059 0.0526970848441123962
-0.479095637798309326 0.00328706181608140469 0.181906774640083313
0.427119016647338867 -0.354950040578842163 0.158908501267433167
-0.291963428258895874 -0.110350608825683594 -0.105313226580619812
0.130849450826644897 0.0656378790736198425 0.321628451347351074
0.254055052995681763 0.0388274677097797394 -0.0774272456765174866
0.235793739557266235 0.0940240323543548584 -0.0526930540800094604
0.418090015649795532 -0.26145404577255249 -0.201998859643936157
0.522074997425079346 -0.354567557573318481 -0.0190990325063467026
-0.608654558658599854 0.381353050470352173 0.181891635060310364
0.517968237400054932 -0.279204428195953369 -0.314393579959869385
0.499513596296310425 -0.349921435117721558 0.0244353171437978745
-0.587630867958068848 0.369549602270126343 0.113681718707084656
0.506303966045379639 -0.104634642601013184 0.147633656859397888
-0.197818964719772339 0.311813652515411377 0.113460339605808258
0.26452520489692688 -0.286492049694061279 0.320082664489746094
0.237255245447158813 0.0622496120631694794 0.310916900634765625
-0.144173368811607361 -0.043275393545627594 0.00464637205004692078
-0.657535314559936523 0.21495644748210907 -0.0456074066460132599
-0.288265109062194824 -0.0757346227765083313 -0.0681470856070518494
0.227569594979286194 0.042306605726480484 -0.0477736219763755798
0.551867127418518066 -0.144400537014007568 0.132389605045318604
0.520138263702392578 -0.295287340879440308 0.075249895453453064
0.517970383167266846 -0.283972591161727905 -0.180830761790275574
-0.357770442962646484 -0.0168593693524599075 -0.0274447835981845856
0.0917547047138214111 0.0883736908435821533 0.0862010940909385681
0.467050909996032715 -0.36181977391242981 -0.0103182969614863396
-0.43268275260925293 0.1580180823802948 -0.0659516677260398865
0.524176537990570068 -0.33557051420211792 0.0692548453807830811
0.263384848833084106 -0.285860627889633179 0.318806290626525879
0.00970312952995300293 -0.0908016636967658997 -0.0257010404020547867
0.0329028144478797913 -0.13021397590637207 0.0222686491906642914
-0.63049393892288208 0.265262961387634277 0.0296513494104146957
0.242453664541244507 0.0744191482663154602 0.319185942411422729
0.240548908710479736 0.0296597909182310104 0.319257646799087524
-0.174609974026679993 0.301087915897369385 0.116831697523593903
0.305042117834091187 -0.151221856474876404 0.308122485876083374
0.262421160936355591 -0.290662407875061035 0.321291089057922363
-0.475912272930145264 -0.00798096135258674622 0.166776582598686218
0.243083372712135315 0.0818585604429244995 0.312546819448471069
0.520603835582733154 -0.351225763559341431 0.0822881236672401428
-0.0345175303518772125 -0.237437725067138672 0.124481044709682465
-0.638098180294036865 0.29024970531463623 0.0994465649127960205
-0.233905106782913208 -0.132647126913070679 -0.0575591586530208588
-0.378974705934524536 -0.108612686395645142 0.10603611171245575
-0.236109435558319092 -0.14767126739025116 -0.0574077963829040527
-0.657747507095336914 0.214648991823196411 -0.0333093702793121338
0.529239356517791748 -0.352558046579360962 0.07823219895362854
-0.620940864086151123 0.270523428916931152 0.0530946329236030579
-0.40385928750038147 -0.064152054488658905 0.112576335668563843
-0.446048349142074585 -0.0413141250610351562 0.122529394924640656
0.268487334251403809 -0.285554498434066772 0.323765754699707031
0.128119364380836487 -0.326534003019332886 0.312893033027648926
0.152780935168266296 -0.343029975891113281 0.318159282207489014
0.448106616735458374 -0.335550159215927124 -0.292656213045120239
0.516103863716125488 -0.302891761064529419 -0.10761009156703949
0.515590012073516846 -0.280175894498825073 -0.312489628791809082
0.485235869884490967 -0.327602863311767578 -0.309451699256896973
0.464719802141189575 -0.345813184976577759 -0.302327752113342285
0.549933373928070068 -0.210139721632003784 -0.315641194581985474
0.524457037448883057 -0.299962103366851807 -0.322139590978622437
0.518323659896850586 -0.30077362060546875 -0.318036168813705444
0.247181802988052368 0.0571361370384693146 0.3167743980884552
0.241649255156517029 0.0876130163669586182 0.313115894794464111
-0.291416257619857788 -0.100350677967071533 -0.101444810628890991
-0.453302979469299316 -0.0517954081296920776 0.117623545229434967
0.405204981565475464 -0.272202670574188232 0.32281842827796936
-0.50212937593460083 0.00395970745012164116 0.189697936177253723
0.401503503322601318 -0.287183374166488647 0.325131446123123169
0.399648010730743408 -0.273498237133026123 0.323613137006759644
0.34261089563369751 -0.258871555328369141 0.0904410108923912048
-0.0184159465134143829 -0.244233548641204834 0.129049226641654968
-0.464241951704025269 0.036175798624753952 0.190113231539726257
-0.194187864661216736 0.221816465258598328 0.172566428780555725
0.367224216461181641 -0.329184204339981079 -0.0231767743825912476
0.323812216520309448 -0.390004605054855347 -0.158541128039360046
0.535760879516601562 -0.323543906211853027 -0.057873312383890152
-0.441495776176452637 -0.00453807879239320755 0.153246656060218811
-0.0188156086951494217 -0.0593509823083877563 0.142149642109870911
0.000131036838865838945 -0.235965266823768616 0.106770120561122894
0.526523292064666748 -0.201709792017936707 -0.0796850249171257019
0.45016014575958252 -0.30823439359664917 -0.292540669441223145
0.527181565761566162 -0.275334924459457397 -0.315341055393218994
0.500260651111602783 -0.324785500764846802 -0.31233862042427063
0.475572675466537476 -0.30494961142539978 -0.297058135271072388
-0.127264752984046936 0.246848419308662415 0.139469444751739502
-0.648800671100616455 0.282273948192596436 0.0948356017470359802
-0.198739349842071533 0.286861121654510498 0.336421459913253784
0.498280972242355347 -0.0866472646594047546 0.137003034353256226
0.2011546790599823 -0.35903504490852356 -0.0904731005430221558
0.505757033824920654 -0.367591649293899536 -0.022360118106007576
0.527583479881286621 -0.242590904235839844 0.173283666372299194
-0.585779309272766113 0.379573702812194824 0.171280160546302795
0.445378810167312622 -0.314827591180801392 -0.287415564060211182
0.498862564563751221 -0.111010834574699402 0.112514860928058624
-0.655566990375518799 0.175766274333000183 -0.10322871059179306
-0.201793089509010315 0.309015363454818726 0.0896733105182647705
0.201659291982650757 -0.0134980902075767517 0.295622646808624268
0.160352826118469238 -0.0619998089969158173 -0.0436784476041793823
-0.579326331615447998 0.302476167678833008 0.369292587041854858
0.275317728519439697 0.0985258892178535461 -0.028735307976603508
-0.435051113367080688 0.155723929405212402 -0.0854783952236175537
0.534773766994476318 -0.332953900098800659 0.0130920456722378731
-0.568541109561920166 0.197652474045753479 -0.228568986058235168
-0.497391343116760254 0.0452883243560791016 -0.0863057374954223633
0.0317546986043453217 -0.103818260133266449 0.0334253162145614624
0.534431099891662598 -0.264373719692230225 -0.315986335277557373
0.00999932363629341125 0.197883486747741699 0.0280494820326566696
0.302452117204666138 0.0390273667871952057 -0.0841085687279701233
-0.331873178482055664 -0.0156970042735338211 -0.107200436294078827
0.236831799149513245 0.0145450960844755173 0.32217070460319519
0.125411882996559143 0.0131193147972226143 0.299346268177032471
0.527858316898345947 -0.355075299739837646 0.0666796192526817322
0.467451781034469604 -0.309727638959884644 -0.232784464955329895
-0.651780009269714355 0.285612523555755615 0.104945145547389984
0.546906650066375732 -0.219865322113037109 0.163848266005516052
0.528374433517456055 -0.323277115821838379 -0.0156956631690263748
-0.382681667804718018 -0.0561363063752651215 0.0767504647374153137
0.457279980182647705 -0.310716301202774048 -0.2922382652759552
0.505338311195373535 -0.339707732200622559 -0.317574858665466309
0.479191899299621582 -0.314196914434432983 -0.299181371927261353
0.520730495452880859 -0.301178455352783203 -0.317000538110733032
-0.00190622336231172085 -0.139782071113586426 -0.0243803933262825012
0.397982567548751831 -0.273056238889694214 0.323788166046142578
0.401651322841644287 -0.271483182907104492 0.324093639850616455
0.506452739238739014 -0.331881850957870483 0.106200464069843292
-0.467242002487182617 0.0427169576287269592 0.171228662133216858
0.410453945398330688 -0.345767378807067871 0.156929194927215576
-0.360457003116607666 -0.0349748171865940094 -0.14758726954460144
-0.127769231796264648 -0.267491340637207031 0.112821139395236969
0.512972474098205566 -0.368930190801620483 -0.0143035920336842537
-0.213416039943695068 0.312817573547363281 0.0982088521122932434
0.251091182231903076 -0.287002593278884888 0.323231726884841919
0.209292620420455933 0.00959885027259588242 -0.0457078255712985992
0.0703746378421783447 -0.151321068406105042 -0.0168164744973182678
-0.169451445341110229 0.305038928985595703 0.119396090507507324
0.471502542495727539 -0.364239215850830078 0.00740367546677589417
-0.290536642074584961 -0.0991408675909042358 -0.10270228236913681
0.0368649326264858246 -0.149474844336509705 -0.0212731678038835526
0.232554793357849121 0.0563668012619018555 0.309600800275802612
0.253897011280059814 -0.288564234972000122 0.321013003587722778
-0.471332669258117676 0.00141330074984580278 0.169241622090339661
0.241370484232902527 0.062821999192237854 0.313499391078948975
0.509343445301055908 -0.351917058229446411 0.0643268376588821411
0.227934092283248901 -0.314709305763244629 0.31491735577583313
-0.37498009204864502 -0.0928608551621437073 0.0867215022444725037
-0.0621846653521060944 -0.241462111473083496 0.302947431802749634
-0.222257420420646667 -0.127389073371887207 -0.0526204854249954224
-0.409476011991500854 -0.0651635453104972839 0.0990713387727737427
-0.444590151309967041 -0.0444387905299663544 0.133301705121994019
0.239486128091812134 -0.293945014476776123 0.314790576696395874
0.154448091983795166 -0.324234843254089355 0.320473223924636841
0.425776273012161255 -0.255967319011688232 0.328943103551864624
0.438663333654403687 -0.34277641773223877 -0.29230964183807373
0.506756246089935303 -0.334409505128860474 -0.317719727754592896
0.445512592792510986 -0.352124512195587158 -0.286367505788803101
0.238635271787643433 0.0658862069249153137 0.312780022621154785
0.403730392456054688 -0.287412256002426147 0.326255738735198975
-0.49435347318649292 0.0069944281131029129 0.188981235027313232
0.486125558614730835 -0.0630791783332824707 0.13213406503200531
0.0129898758605122566 -0.170513257384300232 0.0102947559207677841
0.531958460807800293 -0.307476401329040527 -0.0618387572467327118
0.315275579690933228 -0.302102118730545044 -0.126439854502677917
0.446342557668685913 -0.291166961193084717 -0.285276621580123901
-0.33650633692741394 0.225003600120544434 0.126308038830757141
-0.400406897068023682 -0.0278532169759273529 -0.00134406343568116426
0.403636455535888672 -0.271626114845275879 0.324477076530456543
-0.13288600742816925 0.196049228310585022 0.168292582035064697
0.399687528610229492 -0.271562814712524414 0.324290186166763306
-0.446064531803131104 -0.0246323440223932266 0.0219947304576635361
-0.137572333216667175 0.245106428861618042 0.19225822389125824
-0.612334728240966797 0.294331014156341553 0.184405297040939331
0.124985434114933014 0.116265550255775452 0.317161411046981812
-0.12051837146282196 0.250845760107040405 0.162392348051071167
-0.582856655120849609 0.348475337028503418 0.0587870366871356964
0.427357614040374756 -0.347941190004348755 0.153414502739906311
-0.566281735897064209 0.295430034399032593 -0.0683755204081535339
0.252319633960723877 0.0269555449485778809 -0.0791548341512680054
0.248087212443351746 0.100642628967761993 -0.0479130856692790985
-0.356926918029785156 -0.055328764021396637 -0.141326144337654114
0.199125781655311584 0.120470628142356873 0.0362196154892444611
0.545989930629730225 -0.131339848041534424 0.112390071153640747
-0.581171095371246338 0.32211032509803772 -0.0222180895507335663
0.206617265939712524 0.0248908977955579758 0.177288368344306946
-0.594865858554840088 0.375449657440185547 0.17269212007522583
0.445314258337020874 -0.319025754928588867 0.127753958106040955
0.255695462226867676 -0.278528332710266113 0.316859126091003418
0.236043021082878113 0.0239844042807817459 0.317019104957580566
-0.362374991178512573 -0.0493688322603702545 -0.0232210606336593628
-0.182162359356880188 0.118488214910030365 0.0428536199033260345
0.255413234233856201 -0.287968456745147705 0.319673597812652588
0.242474496364593506 0.0333596318960189819 0.322284281253814697
0.400282531976699829 0.0235867723822593689 0.115593001246452332
-0.339960336685180664 -0.0656828358769416809 -0.146777704358100891
0.0764406919479370117 -0.332709729671478271 0.299357861280441284
-0.386204034090042114 -0.0603899285197257996 0.0943831652402877808
-0.44762459397315979 -0.0409122109413146973 0.1283130943775177
0.439925789833068848 -0.279095172882080078 0.334012538194656372
0.0350087657570838928 -0.122526340186595917 -0.0251765605062246323
0.414899587631225586 -0.280547022819519043 0.327355712652206421
0.433606803417205811 -0.295845478773117065 0.333513349294662476
0.36845850944519043 -0.278406709432601929 -0.129907548427581787
-0.476834774017333984 0.0018692124867811799 0.188938677310943604
-0.29095083475112915 -0.0958499759435653687 -0.104032732546329498
0.242042124271392822 -0.312734067440032959 0.310034960508346558
0.473726481199264526 -0.353960901498794556 0.00741447973996400833
-0.295783072710037231 -0.0960997864603996277 -0.106480956077575684
0.245392531156539917 -0.288316726684570312 0.32042810320854187
0.062974683940410614 -0.329409271478652954 0.297445774078369141
0.158605918288230896 -0.267401754856109619 -0.105133414268493652
0.250665664672851562 0.0636309012770652771 0.315923064947128296
-0.481931984424591064 -0.00749906245619058609 0.178545773029327393
0.236806780099868774 0.0668021738529205322 0.315281987190246582
0.239389091730117798 -0.331543445587158203 0.321760267019271851
-0.381660282611846924 -0.0915425866842269897 0.0372826084494590759
-0.215518087148666382 -0.139626264572143555 -0.0538581050932407379
-0.382107675075531006 -0.0631959140300750732 0.084097348153591156
0.150663554668426514 -0.331347495317459106 0.332261055707931519
0.44644436240196228 -0.279627025127410889 0.333936303853988647
0.408013731241226196 -0.280258029699325562 0.325468242168426514
-0.501440882682800293 0.00697429338470101357 0.189297080039978027
-0.321366876363754272 0.0976813435554504395 -0.0697153806686401367
0.533024013042449951 -0.207245096564292908 -0.0522620901465415955
0.451534867286682129 -0.29360547661781311 -0.290165543556213379
0.487995237112045288 -0.324955016374588013 -0.310581743717193604
0.446982860565185547 -0.309448778629302979 -0.290529727935791016
-0.57717519998550415 0.269485414028167725 0.366478115320205688
-0.460873961448669434 0.106261089444160461 -0.230445757508277893
0.375434696674346924 -0.318426132202148438 0.199435800313949585
-0.589238822460174561 0.367213845252990723 0.131904244422912598
0.393147796392440796 -0.353156805038452148 -0.217163935303688049
0.441680550575256348 -0.309991031885147095 -0.288739025592803955
-0.20017629861831665 0.305741757154464722 0.095533125102519989
-0.155018851161003113 0.268221020698547363 0.152215853333473206
0.530336380004882812 -0.338201642036437988 0.0721716582775115967
0.464375495910644531 -0.265861153602600098 -0.217350244522094727
-0.632959723472595215 0.276019036769866943 0.107694193720817566
0.439002335071563721 -0.308283358812332153 -0.286909878253936768
0.516031742095947266 -0.276919156312942505 -0.316540658473968506
0.517158567905426025 -0.340062856674194336 -0.320455074310302734
0.454943031072616577 -0.306764453649520874 -0.29296526312828064
0.491438299417495728 -0.321684598922729492 0.0947284847497940063
0.0212265364825725555 -0.275458097457885742 -0.0181542560458183289
-0.65349811315536499 0.172304838895797729 -0.107509121298789978
-0.224208980798721313 0.318837016820907593 0.121937505900859833
0.465901046991348267 -0.363844573497772217 0.00624193763360381126
0.481616377830505371 -0.336565673351287842 0.0506172254681587219
0.512061953544616699 -0.339122474193572998 -0.319114565849304199
0.440774351358413696 -0.356275051832199097 -0.297321230173110962
-0.269517302513122559 0.322330951690673828 0.0424649305641651154
0.424727827310562134 -0.313004344701766968 -0.281604021787643433
0.416103661060333252 -0.295004487037658691 0.328800171613693237
-0.32550385594367981 -0.0750234797596931458 0.124011412262916565
-0.366287052631378174 -0.0663481205701828003 0.15523211658000946
-0.337756752967834473 0.215169534087181091 0.133443757891654968
0.0105551537126302719 0.119684688746929169 0.105642035603523254
0.542557835578918457 -0.308947980403900146 -0.0458699129521846771
0.0142501117661595345 -0.261453390121459961 0.039929460734128952
-0.002937723184004426 -0.23623792827129364 0.0946826711297035217
0.000814182683825492859 -0.21927429735660553 0.0819452628493309021
0.465480983257293701 -0.360701888799667358 0.0306442324072122574
-0.268769413232803345 -0.137670814990997314 0.177993744611740112
-0.34449303150177002 -0.0655199810862541199 0.141815140843391418
0.124081462621688843 -0.27639317512512207 0.129362747073173523
-0.133346512913703918 0.0791194066405296326 0.0908061042428016663
0.463965535163879395 -0.0541746057569980621 0.0179355405271053314
-0.0135231306776404381 -0.216584563255310059 0.0807897225022315979
-0.554220080375671387 0.391914188861846924 0.148422122001647949
0.497159183025360107 -0.366574138402938843 0.00557505851611495018
-0.610163092613220215 0.294328570365905762 0.187209263443946838
0.530561864376068115 -0.274984151124954224 -0.317376881837844849
0.370922833681106567 -0.264382898807525635 0.181862279772758484
0.420912712812423706 -0.344256341457366943 0.151181355118751526
0.25245329737663269 0.0394538193941116333 -0.0662835836410522461
0.54989778995513916 -0.149732992053031921 0.124576836824417114
-0.570019006729125977 0.284392595291137695 -0.00571861676871776581
0.501427173614501953 -0.362425774335861206 -0.00095491035608574748
0.2086590975522995 0.115930616855621338 -0.0100313164293766022
-0.288609355688095093 -0.0852420330047607422 -0.0658743530511856079
0.159741386771202087 -0.0829647183418273926 -0.0357650183141231537
-0.339349091053009033 -0.105090424418449402 0.141845405101776123
0.511573672294616699 -0.2811470627784729 -0.312894046306610107
-0.338693290948867798 -0.0792557299137115479 0.0391744934022426605
-0.368850052356719971 0.281117171049118042 -0.0619767308235168457
0.510365068912506104 -0.340770810842514038 0.0654517859220504761
0.302846282720565796 -0.205712735652923584 0.248242184519767761
0.543300092220306396 -0.311833173036575317 -0.0604190602898597717
0.142017737030982971 0.0697001069784164429 0.336796790361404419
-0.594340085983276367 0.267861068248748779 0.0128494370728731155
0.222481608390808105 -0.00690129678696393967 0.295956730842590332
0.231317892670631409 0.0345191247761249542 0.313156664371490479
0.534008204936981201 -0.319442540407180786 -0.012463076040148735
-0.388734757900238037 -0.0636035799980163574 0.106348216533660889
-0.446968108415603638 -0.0397640950977802277 0.127164840698242188
0.49638935923576355 -0.09115610271692276 0.154795870184898376
0.25133320689201355 0.0633076950907707214 0.317040681838989258
-0.290686756372451782 -0.0924400314688682556 0.308226108551025391
-0.365948110818862915 -0.114377513527870178 0.104626521468162537
-0.562863767147064209 0.127668485045433044 -0.077801235020160675
-0.500909328460693359 0.0238194558769464493 0.187345921993255615
0.518632054328918457 -0.297168374061584473 -0.313730239868164062
0.473102658987045288 -0.32806694507598877 -0.299586027860641479
-0.573708951473236084 0.269152313470840454 0.363403558731079102
-0.570646107196807861 0.355201363563537598 0.167762115597724915
-0.191259577870368958 0.304990142583847046 0.101892188191413879
-0.661522805690765381 0.240112930536270142 0.0423486679792404175
-0.504314184188842773 0.144723251461982727 0.354002118110656738
0.507647156715393066 -0.346990227699279785 -0.318011879920959473
-0.200085997581481934 0.30532422661781311 0.102553963661193848
0.475625485181808472 -0.357488483190536499 0.00500039802864193916
0.510249614715576172 -0.330587953329086304 0.0667277723550796509
-0.610186100006103516 0.367899864912033081 0.088502347469329834
-0.561980187892913818 0.288650751113891602 -0.0552742034196853638
0.220409870147705078 0.0104582635685801506 0.309487730264663696
0.240974858403205872 0.00528699345886707306 0.321943193674087524
-0.358977735042572021 -0.0564740113914012909 -0.137321397662162781
0.399813026189804077 -0.252631634473800659 0.322222322225570679
0.40011933445930481 -0.263004988431930542 0.324972361326217651
0.224660158157348633 -0.323998689651489258 0.320992946624755859
0.41160091757774353 -0.267746537923812866 0.325391888618469238
-0.508550822734832764 0.0497828125953674316 0.195944830775260925
-0.630663812160491943 0.156865835189819336 -0.0519737526774406433
-0.501287877559661865 0.147290825843811035 0.3459758460521698
0.521448671817779541 -0.350551217794418335 -0.322754412889480591
0.495798498392105103 -0.348214149475097656 0.000522671674843877554
-0.197351962327957153 0.0164927225559949875 -0.0494296848773956299
-0.557231783866882324 0.342122822999954224 -0.00503335008397698402
0.489013969898223877 -0.360346883535385132 0.0413439050316810608
0.449579119682312012 -0.0740966349840164185 0.00225259759463369846
-0.555747389793395996 0.385520845651626587 0.158545434474945068
0.375049948692321777 -0.0810419395565986633 -0.119624897837638855
-0.389187783002853394 0.319917827844619751 0.169469162821769714
-0.384146034717559814 0.328473687171936035 0.198165655136108398
-0.363639563322067261 0.238391652703285217 -0.0828915014863014221
-0.406772762537002563 0.199878409504890442 0.0415334701538085938
-0.643909692764282227 0.287146866321563721 0.0943401381373405457
0.409078896045684814 -0.347127676010131836 0.136703535914421082
0.222752079367637634 0.0830815806984901428 -0.0331754758954048157
0.498989284038543701 -0.161172404885292053 0.124104365706443787
0.50072246789932251 -0.0927651599049568176 0.135029211640357971
0.215824425220489502 0.00201450707390904427 0.299819350242614746
-0.352564334869384766 -0.0677859559655189514 -0.00852283462882041931
-0.384883761405944824 0.266379117965698242 -0.0710629373788833618
0.506933391094207764 -0.346991449594497681 0.0552042536437511444
-0.356398403644561768 -0.0559363812208175659 -0.144914001226425171
0.132643043994903564 0.0727650150656700134 0.322528094053268433
-0.098994426429271698 -0.265301257371902466 0.00654158322140574455
0.242877557873725891 0.0234281793236732483 0.322253257036209106
-0.479793459177017212 -0.0114230187609791756 0.185926750302314758
0.242899596691131592 0.0484181977808475494 0.317441016435623169
-0.277683347463607788 0.333002805709838867 0.0412520244717597961
0.370239287614822388 -0.0307477246969938278 -0.0396564006805419922
0.520624220371246338 -0.347902089357376099 -0.0360431000590324402
0.293714731931686401 -0.0118394438177347183 0.037326522171497345
-0.643596649169921875 0.285065889358520508 0.0931869372725486755
0.0361387282609939575 0.136905744671821594 0.0855471417307853699
-0.396859049797058105 -0.0573165528476238251 0.12644997239112854
-0.440825670957565308 -0.0379180572926998138 0.131905302405357361
0.524291932582855225 -0.317489683628082275 -0.0651872679591178894
0.42295759916305542 -0.279937922954559326 0.331455409526824951
0.510096907615661621 -0.344886809587478638 0.0573724508285522461
0.404371559619903564 -0.258809447288513184 0.323868125677108765
-0.479710847139358521 0.018329450860619545 0.17731940746307373
0.235933095216751099 0.0686049982905387878 0.314844578504562378
-0.478861510753631592 -0.00807789340615272522 0.167959168553352356
0.239557549357414246 0.0676134750247001648 0.315245449542999268
0.388529121875762939 0.0260532647371292114 0.106279671192169189
0.220180004835128784 -0.315995991230010986 0.310652941465377808
0.38334888219833374 0.0429682657122612 0.0693245232105255127
0.463043659925460815 0.0107801593840122223 0.17532271146774292
0.399998188018798828 -0.258601576089859009 0.327441662549972534
-0.499021023511886597 0.0214003510773181915 0.181547164916992188
-0.572902441024780273 0.266428500413894653 0.360625088214874268
-0.663987040519714355 0.230179652571678162 0.0224897321313619614
-0.148794680833816528 0.275573790073394775 0.0795749351382255554
0.522487282752990723 -0.334973961114883423 -0.322369873523712158
-0.219899356365203857 0.315888881683349609 0.097284950315952301
0.500323832035064697 -0.346480011940002441 0.0672611445188522339
-0.189253345131874084 0.302966535091400146 0.115291915833950043
0.314119786024093628 -0.130124211311340332 0.300978571176528931
0.225565418601036072 -0.0351906120777130127 0.305451512336730957
0.0580229498445987701 -0.330680012702941895 0.291693925857543945
0.435747742652893066 -0.279973834753036499 0.332968056201934814
0.409482628107070923 -0.285770446062088013 0.331133246421813965
0.386190474033355713 -0.265799224376678467 0.319015949964523315
0.397897601127624512 -0.384600281715393066 -0.225457996129989624
-0.161770150065422058 0.278590291738510132 0.129127740859985352
0.380989193916320801 0.0439902059733867645 0.0772668346762657166
0.391311109066009521 -0.255757063627243042 0.319025546312332153
-0.499740302562713623 0.0246809273958206177 0.186384916305541992
0.500043153762817383 -0.325854450464248657 -0.313000351190567017
0.38107714056968689 -0.375891208648681641 -0.216070353984832764
0.521555185317993164 -0.349197357892990112 -0.324770659208297729
0.521114528179168701 -0.348336637020111084 -0.321709811687469482
0.513733088970184326 -0.319583028554916382 -0.318338513374328613
0.255442321300506592 -0.222291469573974609 0.0577271394431591034
0.186442837119102478 -0.142183899879455566 -0.105356112122535706
0.508213043212890625 -0.320176035165786743 0.0294201113283634186
-0.468889683485031128 -0.0116762826219201088 0.181616634130477905
0.496636450290679932 -0.348892927169799805 -0.309668779373168945
0.521892905235290527 -0.327457785606384277 -0.321843355894088745
0.476442277431488037 -0.320174753665924072 -0.302951663732528687
-0.340668708086013794 0.230157181620597839 -0.0437959879636764526
0.202040165662765503 0.132907018065452576 0.112516306340694427
-0.172082573175430298 0.0224346350878477097 0.026033252477645874
0.266039252281188965 -0.165740743279457092 0.00626180181279778481
0.545110046863555908 -0.328259676694869995 -0.0476717576384544373
-0.455727130174636841 -0.0528712347149848938 0.162714555859565735
0.470142990350723267 -0.355987906455993652 -0.30700606107711792
0.478874295949935913 -0.269732058048248291 -0.301437348127365112
0.467757105827331543 -0.361795932054519653 -0.308095574378967285
-0.31968158483505249 0.266928583383560181 0.0120240645483136177
0.0335367880761623383 0.0987143293023109436 0.128874316811561584
-0.284013420343399048 -0.0997920036315917969 -0.0869223177433013916
-0.616218447685241699 0.217281237244606018 -0.104197956621646881
0.244731619954109192 0.104601286351680756 -0.0294876452535390854
0.46667894721031189 -0.23504224419593811 -0.228399068117141724
-0.293267875909805298 -0.0882482379674911499 -0.0954637154936790466
0.24965280294418335 -0.275874882936477661 0.322765052318572998
0.222379788756370544 0.0669740438461303711 -0.0276440735906362534
-0.250281363725662231 -0.129951685667037964 -0.0550581440329551697
-0.21112455427646637 0.302211463451385498 0.149206504225730896
0.34026065468788147 -0.140571385622024536 0.318521559238433838
0.530094802379608154 -0.356526881456375122 0.0698472335934638977
-0.599315524101257324 0.356875628232955933 0.0610724203288555145
-0.34571373462677002 -0.0554643459618091583 -0.143155559897422791
-0.432216018438339233 0.157884269952774048 -0.0840852558612823486
0.526985228061676025 -0.331649422645568848 0.0205525755882263184
0.528557002544403076 -0.287895649671554565 -0.0699859559535980225
-0.498285174369812012 0.143009066581726074 -0.253331214189529419
0.146828904747962952 0.156882330775260925 0.0591186806559562683
0.253658175468444824 -0.00763291167095303535 0.327912509441375732
0.350404322147369385 -0.147156521677970886 0.3207550048828125
0.442714482545852661 -0.322408616542816162 -0.229209080338478088
-0.223509326577186584 -0.139769956469535828 -0.053380817174911499
0.522920548915863037 -0.350165069103240967 0.0971131995320320129
-0.64549708366394043 0.253738194704055786 0.0245267748832702637
0.393685251474380493 -0.280070006847381592 0.322464585304260254
-0.474069476127624512 -0.00962172076106071472 0.165402427315711975
0.224948137998580933 -0.325000554323196411 0.319249719381332397
-0.363035500049591064 -0.120947033166885376 0.130856633186340332
-0.237954214215278625 -0.140392765402793884 -0.053506854921579361
-0.113474190235137939 -0.00894624833017587662 -0.0162508208304643631
0.389911442995071411 -0.278340697288513184 0.320795595645904541
-0.50637739896774292 0.0114984763786196709 0.202506676316261292
0.463054448366165161 -0.296777784824371338 -0.294156432151794434
0.351747989654541016 -0.148114606738090515 0.321610838174819946
0.458303362131118774 -0.303581148386001587 -0.228676155209541321
0.0249706637114286423 -0.143573373556137085 -0.0198234152048826218
0.369485199451446533 -0.32772788405418396 0.318937301635742188
0.392137080430984497 -0.281492918729782104 0.317057043313980103
0.129080250859260559 -0.318998575210571289 -0.0968189164996147156
-0.134062707424163818 0.27865302562713623 0.117983274161815643
-0.332761913537979126 0.0948353037238121033 -0.101885035634040833
0.374514311552047729 -0.375753909349441528 -0.214623361825942993
0.520331978797912598 -0.345586210489273071 -0.322387814521789551
0.523899495601654053 -0.357850044965744019 -0.326245516538619995
-0.0677739381790161133 -0.254607409238815308 0.0992619097232818604
0.326199233531951904 -0.130814298987388611 0.314947009086608887
0.424791485071182251 -0.25973355770111084 0.32847103476524353
-0.479327946901321411 0.0321481786668300629 0.197253182530403137
0.527071297168731689 -0.299450069665908813 -0.321853369474411011
0.538504242897033691 -0.292300492525100708 -0.324266254901885986
0.378308594226837158 -0.373992651700973511 -0.213334619998931885
0.371813058853149414 -0.356929570436477661 -0.213338389992713928
0.524520814418792725 -0.351449131965637207 -0.324627935886383057
0.525828361511230469 -0.363225877285003662 -0.322715312242507935
0.515991032123565674 -0.326999187469482422 -0.319710075855255127
0.479946285486221313 -0.352146148681640625 -0.311847686767578125
0.478914260864257812 -0.365415245294570923 -0.312563091516494751
-0.361317753791809082 0.310687631368637085 0.240343764424324036
-0.3203125 0.10441434383392334 0.0227418597787618637
-0.447098076343536377 0.204612880945205688 -0.0397693440318107605
-0.377250999212265015 0.279713898897171021 -0.00670638959854841232
-0.0220199152827262878 -0.260542392730712891 0.144207879900932312
-0.591422915458679199 0.361745595932006836 0.0648714005947113037
0.368015706539154053 -0.373319149017333984 -0.212126031517982483
-0.123612523078918457 -0.0103960782289505005 0.0084422919899225235
0.39707830548286438 -0.353206932544708252 -0.217947393655776978
0.507746398448944092 -0.159429997205734253 0.125491976737976074
0.195779144763946533 0.124946579337120056 0.00677829049527645111
-0.0264925695955753326 0.167031288146972656 0.383452534675598145
-0.333527237176895142 -0.120785124599933624 0.100845061242580414
-0.32477182149887085 0.303252458572387695 -0.0361548326909542084
0.534526646137237549 -0.346684306859970093 0.0381370261311531067
0.525774776935577393 -0.331715852022171021 0.0348076038062572479
-0.595246016979217529 0.382378190755844116 0.114064082503318787
-0.0106206964701414108 -0.143985137343406677 -0.0264343656599521637
-0.234812363982200623 0.172363817691802979 -0.00113419292028993368
-0.484955161809921265 -0.0103110568597912788 0.177827551960945129
-0.277604460716247559 0.336413741111755371 0.0428027771413326263
0.513876020908355713 -0.348952621221542358 0.0973744168877601624
-0.448074162006378174 -0.0354463830590248108 0.118007823824882507
0.434867590665817261 -0.253181725740432739 0.332071781158447266
0.415366619825363159 -0.278292268514633179 0.327539801597595215
-0.468371301889419556 0.0347640849649906158 0.194186389446258545
0.502707242965698242 -0.339436918497085571 0.00826285313814878464
-0.480921506881713867 -0.00247016409412026405 0.178158313035964966
-0.376926183700561523 -0.106347374618053436 0.093465074896812439
-0.500488400459289551 0.0225332751870155334 0.184946298599243164
0.361107915639877319 -0.286750435829162598 -0.141472995281219482
0.00206874101422727108 -0.23114149272441864 0.090466134250164032
-0.139844164252281189 0.265368789434432983 0.0889565274119377136
-0.12915937602519989 0.254690766334533691 0.0719452574849128723
0.313073784112930298 -0.29310646653175354 -0.130826160311698914
0.428703486919403076 -0.255421102046966553 0.330570906400680542
-0.614852726459503174 0.306877255439758301 0.392910987138748169
0.411233782768249512 -0.35779234766960144 -0.226017683744430542
0.505587756633758545 -0.346312016248703003 -0.319485276937484741
0.508283853530883789 -0.352347880601882935 -0.322192549705505371
0.524054527282714844 -0.298311203718185425 -0.318275034427642822
0.510242998600006104 -0.346658766269683838 -0.319810211658477783
0.270475268363952637 -0.169221207499504089 -0.079197414219379425
0.134170964360237122 0.12051285058259964 0.329544275999069214
0.252385407686233521 -0.284901410341262817 0.328503698110580444
0.324947774410247803 -0.120107434689998627 0.310984522104263306
0.30293118953704834 -0.204284891486167908 0.251509010791778564
0.250539034605026245 -0.00364441820420324802 0.325469493865966797
0.507727921009063721 -0.342988014221191406 0.0879119113087654114
0.242153480648994446 0.0900395289063453674 0.310406506061553955
0.463349074125289917 -0.2838897705078125 -0.230795294046401978
