ply
format ascii 1.0
element vertex 739
property float x
property float y
property float z
end_header
0.0270779207348823547 -0.273800492286682129 -0.0353630408644676208
0.384267270565032959 -0.305847376585006714 0.118698291480541229
-0.582943320274353027 0.36704409122467041 0.13149668276309967
0.239350095391273499 0.00314715947024524212 0.180960893630981445
-0.113801971077919006 0.165844455361366272 0.347408384084701538
0.481295526027679443 -0.368202805519104004 -0.0221741925925016403
0.41133803129196167 -0.32103380560874939 -0.211119934916496277
0.506438851356506348 -0.155386358499526978 0.123878106474876404
0.527942121028900146 -0.334562450647354126 0.01270271185785532
-0.584906220436096191 0.336620092391967773 0.0338637121021747589
-0.591518580913543701 0.382139027118682861 0.131048604846000671
0.52547752857208252 -0.244283348321914673 -0.310744315385818481
0.473575353622436523 -0.290665298700332642 -0.299536615610122681
-0.597979545593261719 0.353934496641159058 0.169464319944381714
-0.588106870651245117 0.371663898229598999 0.100885495543479919
-0.212974399328231812 -0.129201680421829224 -0.0577704794704914093
0.233502432703971863 -0.29269072413444519 0.314863055944442749
0.237195894122123718 0.0673805847764015198 0.319908022880554199
0.540991306304931641 -0.313718587160110474 -0.0582256987690925598
-0.445537596940994263 -0.0480192787945270538 0.12696307897567749
0.358619540929794312 -0.38820117712020874 -0.209092944860458374
-0.557375907897949219 0.211366727948188782 -0.113913394510746002
0.519960463047027588 -0.2794533371925354 -0.17721925675868988
0.24105091392993927 0.0350317172706127167 0.314389139413833618
0.241871625185012817 0.000619943311903625727 0.0235002860426902771
0.379823952913284302 0.0389395765960216522 0.0117052318528294563
0.525952339172363281 -0.230587184429168701 -0.3102530837059021
0.326141625642776489 0.0962736010551452637 -0.0361142382025718689
-0.375132888555526733 -0.0599327050149440765 -0.133012041449546814
0.512064576148986816 -0.167377471923828125 0.135774359107017517
-0.575279176235198975 0.322230756282806396 0.0492454171180725098
-0.559743285179138184 0.283729016780853271 0.363979160785675049
0.223551884293556213 0.0321153327822685242 -0.0583540461957454681
-0.575157225131988525 0.214811161160469055 -0.221378892660140991
-0.0451593846082687378 0.156865194439888 0.0810477584600448608
0.113208800554275513 0.110282734036445618 0.0252848640084266663
0.341827213764190674 -0.24681738018989563 -0.0969759300351142883
-0.28591957688331604 0.300666570663452148 -0.00300719402730464935
0.15239308774471283 -0.00413560261949896812 -0.00370857072994112968
0.0681831240653991699 0.139095604419708252 0.0754962190985679626
-0.270913302898406982 0.280420660972595215 0.0015256217448040843
0.502491176128387451 -0.292495071887969971 -0.159457653760910034
0.136055886745452881 -0.0255376119166612625 0.0129855247214436531
-0.339924871921539307 -0.0316333696246147156 0.0226941592991352081
0.37249484658241272 -0.0916863530874252319 0.0441356152296066284
0.199042737483978271 0.101423755288124084 -0.00199158233590424061
-0.298166185617446899 -0.02466619573533535 0.0358307026326656342
0.130860984325408936 -0.0175447333604097366 -0.0262205861508846283
0.100483767688274384 0.016358301043510437 0.0910820662975311279
0.174797996878623962 0.119561739265918732 0.0378552079200744629
-0.231404289603233337 -0.0632773041725158691 0.104561515152454376
0.48523557186126709 -0.296602755784988403 -0.303672075271606445
-0.603952586650848389 0.289764404296875 0.184929504990577698
0.466305524110794067 -0.308538109064102173 0.119967862963676453
0.377370506525039673 -0.0143587412312626839 0.00620059669017791748
0.513494193553924561 -0.295200467109680176 -0.103601656854152679
0.518017113208770752 -0.239675477147102356 -0.307751297950744629
0.477064430713653564 -0.309663861989974976 -0.300425887107849121
0.482543498277664185 -0.274461716413497925 -0.300055354833602905
0.116355486214160919 0.119091123342514038 0.297467797994613647
-0.58497387170791626 0.356547623872756958 0.0655107945203781128
0.38281404972076416 -0.337123900651931763 0.125390231609344482
-0.575266599655151367 0.317871153354644775 -0.0268767997622489929
-0.605257272720336914 0.217331469058990479 -0.0872296690940856934
0.266853839159011841 0.039366547018289566 -0.0864384621381759644
-0.357303708791732788 -0.0218622945249080658 -0.13131105899810791
-0.565073132514953613 0.314507961273193359 -0.00822298787534236908
0.189689859747886658 -0.340542912483215332 -0.0748442485928535461
0.403256863355636597 -0.357514053583145142 -0.22417236864566803
-0.500995099544525146 0.145955100655555725 0.354497700929641724
0.508740901947021484 -0.151352792978286743 0.114849559962749481
0.496013760566711426 -0.263871669769287109 -0.304541051387786865
0.457114428281784058 -0.280818432569503784 -0.289889484643936157
0.440074235200881958 -0.264899313449859619 -0.283847600221633911
-0.588791549205780029 0.357650190591812134 0.0614210106432437897
0.504347443580627441 -0.126678690314292908 0.124263115227222443
-0.207061618566513062 0.312693804502487183 0.108563169836997986
0.267314255237579346 -0.283742457628250122 0.319042623043060303
0.23167341947555542 0.00381054193712770939 0.317694216966629028
0.512434005737304688 -0.175645872950553894 -0.281923353672027588
-0.116128809750080109 0.010198839008808136 0.00575693836435675621
0.402988255023956299 -0.359542489051818848 -0.224795788526535034
0.416712313890457153 -0.313068687915802002 0.143645107746124268
-0.556235671043395996 0.376708060503005981 0.18654295802116394
-0.176483228802680969 0.309364736080169678 0.118243619799613953
-0.390563726425170898 0.276202738285064697 -0.0852842405438423157
0.36438596248626709 0.0518825910985469818 0.0244083311408758163
0.128329187631607056 0.115986250340938568 0.318695098161697388
-0.287427246570587158 -0.100220926105976105 -0.0921561047434806824
0.257255196571350098 0.10097309947013855 -0.0622294135391712189
-0.36214756965637207 -0.0594938024878501892 -0.144273191690444946
0.133283719420433044 0.11395099014043808 0.337641745805740356
-0.563929438591003418 0.199472725391387939 -0.229348927736282349
-0.277242422103881836 0.288184791803359985 -0.0011014037299901247
0.454039841890335083 -0.246399521827697754 -0.288439244031906128
0.459380358457565308 -0.275351941585540771 -0.290957540273666382
-0.635612010955810547 0.308379054069519043 0.170116409659385681
0.511609435081481934 -0.317347139120101929 -0.0386985018849372864
0.46809270977973938 -0.265754401683807373 -0.298089116811752319
0.477303117513656616 -0.294964104890823364 -0.300362706184387207
0.457298398017883301 -0.24618375301361084 -0.290011048316955566
0.380211800336837769 -0.360868781805038452 -0.213981986045837402
-0.480224668979644775 -0.0121811199933290482 0.185710176825523376
-0.51722949743270874 0.366000354290008545 0.173824518918991089
-0.61934208869934082 0.202229082584381104 -0.0874946340918540955
-0.238172471523284912 0.0190990399569272995 -0.0727004185318946838
-0.383439332246780396 -0.0586836598813533783 0.0235802363604307175
0.473973661661148071 -0.368188709020614624 0.0216943752020597458
-0.650041699409484863 0.236968502402305603 0.0319252647459506989
0.411687582731246948 -0.34661632776260376 -0.221770092844963074
0.525192022323608398 -0.336989223957061768 0.0799502581357955933
0.505209565162658691 -0.238978654146194458 -0.308211088180541992
0.248670518398284912 -0.281914234161376953 0.318101108074188232
0.238349512219429016 0.0668084621429443359 0.314452320337295532
0.53871387243270874 -0.301724791526794434 -0.0937824547290802002
-0.448690921068191528 -0.041025109589099884 0.126393184065818787
-0.0446668490767478943 0.104818850755691528 0.317664891481399536
0.247105732560157776 0.0212794635444879532 0.322018533945083618
-0.285750687122344971 -0.0993574336171150208 -0.0991756916046142578
-0.138650014996528625 -0.0148044321686029434 -0.0489523634314537048
-0.278689742088317871 0.338069677352905273 0.046784471720457077
-0.255538254976272583 0.290092587471008301 -0.00344372657127678394
-0.219727352261543274 0.322097718715667725 0.0696459934115409851
-0.574053943157196045 0.152486085891723633 -0.0747754201292991638
-0.29076799750328064 0.292904704809188843 0.0158412996679544449
0.524761557579040527 -0.320517897605895996 0.0270637553185224533
0.345235049724578857 -0.0304264817386865616 -0.034647870808839798
0.521374285221099854 -0.362743258476257324 0.089284941554069519
-0.0842080935835838318 -0.111470945179462433 0.0783655643463134766
-0.404757499694824219 0.326288223266601562 0.12102895975112915
0.503878474235534668 -0.36692434549331665 -0.00459937611594796181
-0.119537137448787689 0.26632419228553772 0.120769359171390533
0.517852544784545898 -0.342802941799163818 0.0357331112027168274
0.129404440522193909 -0.334269106388092041 0.301116675138473511
0.465747922658920288 -0.310895413160324097 0.0723490491509437561
0.481980890035629272 -0.373838484287261963 0.0522154718637466431
0.420237302780151367 -0.0259816925972700119 0.0646819770336151123
0.493269950151443481 -0.363387256860733032 -0.0156476516276597977
-0.233775630593299866 0.287380874156951904 0.0839513987302780151
0.530355453491210938 -0.331618934869766235 -0.00733683817088603973
-0.272754460573196411 0.315637648105621338 0.113781340420246124
0.307362884283065796 0.00269461190328001976 0.0461187586188316345
0.466574281454086304 -0.263363182544708252 -0.296161025762557983
0.472952574491500854 -0.304164499044418335 0.114121891558170319
0.510311722755432129 -0.313523918390274048 -0.104498028755187988
0.508357465267181396 -0.245323419570922852 -0.308529138565063477
0.447088479995727539 -0.29244387149810791 -0.292846530675888062
0.465536206960678101 -0.283217042684555054 -0.297363609075546265
0.137515425682067871 0.113067120313644409 0.336580753326416016
-0.652862131595611572 0.285924196243286133 0.0977171286940574646
-0.639081776142120361 0.245026201009750366 -0.038518901914358139
0.135489761829376221 0.0695690512657165527 0.337706714868545532
-0.57786858081817627 0.303987354040145874 -0.0558803454041481018
0.261625945568084717 0.0305585898458957672 -0.0736439302563667297
0.541113138198852539 -0.216596275568008423 0.111443214118480682
-0.360936969518661499 -0.0354950539767742157 -0.13448651134967804
-0.575507760047912598 0.327674120664596558 -0.0298883374780416489
-0.362633883953094482 -0.0706242918968200684 -0.0341267324984073639
-0.131461814045906067 -0.26720312237739563 0.118983559310436249
0.494240045547485352 -0.365680098533630371 -0.000484943884657695889
0.372899621725082397 -0.35926353931427002 -0.210147187113761902
-0.379226386547088623 -0.106544651091098785 0.101194113492965698
-0.0679227560758590698 -0.263634294271469116 0.296346873044967651
0.519041061401367188 -0.243276596069335938 -0.309550017118453979
0.50858306884765625 -0.330420821905136108 0.0151580916717648506
-0.594090938568115234 0.369209885597229004 0.120305448770523071
-0.656152009963989258 0.175876274704933167 -0.103354126214981079
-0.223915517330169678 -0.143829867243766785 -0.0538459643721580505
-0.192059785127639771 0.316868335008621216 0.100514017045497894
0.255773693323135376 -0.283209025859832764 0.319534391164779663
0.238316312432289124 0.0324663743376731873 0.318926751613616943
-0.121011734008789062 -0.0458014905452728271 0.00716445827856659889
-0.642304003238677979 0.308870553970336914 0.10158519446849823
0.363777995109558105 -0.373800843954086304 -0.207061812281608582
0.53690415620803833 -0.217600166797637939 0.16172538697719574
-0.553475081920623779 0.382709652185440063 0.157720848917961121
-0.123320885002613068 0.259541422128677368 0.114903204143047333
0.118574611842632294 0.102659419178962708 0.0892557054758071899
-0.376237481832504272 0.266048461198806763 -0.0898190587759017944
0.51600879430770874 -0.348894685506820679 0.0986503735184669495
-0.294409304857254028 -0.106848672032356262 -0.109437279403209686
0.274171322584152222 0.10301496833562851 -0.057873845100402832
-0.575889825820922852 0.219718962907791138 -0.212973266839981079
-0.116352342069149017 0.268849551677703857 0.179598629474639893
0.235127091407775879 -0.287677109241485596 0.31422269344329834
0.309266835451126099 -0.187098443508148193 0.240867272019386292
0.540890216827392578 -0.32570803165435791 -0.0210330318659543991
0.0780849754810333252 -0.3373432457447052 0.28207358717918396
-0.00734981894493103027 -0.171532794833183289 0.0041442112997174263
-0.283062160015106201 0.261962473392486572 0.00681727379560470581
0.51229393482208252 -0.237050637602806091 -0.309546440839767456
-0.647671222686767578 0.278491467237472534 0.0792518705129623413
-0.647081673145294189 0.18338891863822937 -0.0911990106105804443
0.513221621513366699 -0.322380959987640381 0.0241686347872018814
-0.407764136791229248 -0.063281521201133728 0.113370761275291443
0.515938699245452881 -0.355567991733551025 -0.0207393206655979156
-0.567288219928741455 0.374578714370727539 0.152223095297813416
0.235072106122970581 0.0432755462825298309 0.31347385048866272
-0.665566623210906982 0.227366238832473755 0.0228036511689424515
-0.448898464441299438 -0.0381277985870838165 0.126901492476463318
0.502131521701812744 -0.302176564931869507 -0.178984373807907104
-0.589842557907104492 0.361261367797851562 0.0857967659831047058
-0.194900259375572205 0.315144956111907959 0.104633383452892303
0.246090233325958252 0.0241832844913005829 0.323612421751022339
0.530039191246032715 -0.323679178953170776 -0.0581955313682556152
-0.183648228645324707 0.30725628137588501 0.128253281116485596
0.246334880590438843 0.00726404273882508278 0.323746144771575928
0.0578333698213100433 0.139976933598518372 0.345546811819076538
-0.506418287754058838 0.149754077196121216 0.356698095798492432
0.269829869270324707 -0.310961633920669556 0.326078206300735474
-0.254598945379257202 0.0238377656787633896 -0.0709148049354553223
0.240177109837532043 -0.29499170184135437 0.322324931621551514
0.24812433123588562 0.0440528541803359985 0.314198732376098633
0.467523008584976196 -0.101887956261634827 0.0344440266489982605
-0.125586763024330139 0.195370689034461975 0.115190006792545319
0.239064976572990417 -0.326310038566589355 0.317777097225189209
0.499353289604187012 -0.36643904447555542 0.0745248496532440186
0.522553503513336182 -0.32458418607711792 0.0260872263461351395
0.443762630224227905 -0.253058880567550659 0.332200378179550171
0.320600450038909912 -0.131343573331832886 -0.106817357242107391
0.0625103414058685303 -0.0104041500017046928 0.321510970592498779
0.510408878326416016 -0.360745549201965332 0.047387588769197464
0.1347675621509552 -0.10043758898973465 0.0403688549995422363
0.0486483313143253326 0.0117928618565201759 0.0295257475227117538
0.0199199672788381577 0.0484797842800617218 0.0423803403973579407
0.087261788547039032 -0.0657170861959457397 0.289451748132705688
-0.162981614470481873 -0.265289813280105591 0.147867664694786072
0.264067023992538452 -0.0200231131166219711 0.0613371096551418304
-0.0297544617205858231 -0.02866385318338871 0.295375317335128784
0.501358568668365479 -0.240293875336647034 -0.302129507064819336
0.475100547075271606 -0.314894944429397583 -0.302060723304748535
-0.631592690944671631 0.306529462337493896 0.167101263999938965
0.474591821432113647 -0.320673257112503052 0.120885320007801056
0.508224844932556152 -0.30075448751449585 -0.10566025972366333
0.527406871318817139 -0.274858385324478149 -0.317304402589797974
0.492716848850250244 -0.332359015941619873 -0.31081390380859375
0.502639949321746826 -0.320002526044845581 0.0978834331035614014
0.473348021507263184 -0.305731534957885742 -0.298212945461273193
-0.559984207153320312 0.268386512994766235 0.364306867122650146
0.124192766845226288 0.11711815744638443 0.313996821641921997
-0.634265720844268799 0.282458484172821045 0.0539827942848205566
-0.588026344776153564 0.363019078969955444 0.102141238749027252
0.370620161294937134 -0.373957246541976929 -0.21283915638923645
0.437578290700912476 -0.347826510667800903 0.154206335544586182
0.0573123469948768616 0.121602810919284821 0.320922315120697021
-0.575221538543701172 0.36906769871711731 0.215296074748039246
0.263880699872970581 0.0246731620281934738 -0.058846842497587204
0.367906898260116577 -0.33662000298500061 0.160483509302139282
0.509668529033660889 -0.301474839448928833 -0.112108714878559113
0.132730782032012939 -0.320372164249420166 -0.0978563874959945679
0.515717983245849609 -0.348694741725921631 -0.0203959550708532333
0.388425767421722412 -0.346696168184280396 -0.214198023080825806
-0.577704727649688721 0.319290280342102051 0.0404980815947055817
0.535225629806518555 -0.277827739715576172 -0.320708304643630981
0.467056423425674438 -0.310865491628646851 -0.299349427223205566
0.506335437297821045 -0.347027629613876343 0.0178210921585559845
-0.556584060192108154 0.309953689575195312 0.101995311677455902
0.192999392747879028 -0.339159876108169556 -0.0592566654086112976
0.0692287981510162354 -0.2819804847240448 -0.0779787451028823853
0.251646995544433594 -0.250063121318817139 0.319998741149902344
0.239110067486763 0.0311079751700162888 0.31670457124710083
-0.121872887015342712 -0.0475991480052471161 0.0080192936584353447
0.177901819348335266 -0.100038915872573853 -0.0149381589144468307
0.531617641448974609 -0.332226306200027466 -0.0132753103971481323
0.369491845369338989 -0.349413216114044189 -0.208976417779922485
0.534159064292907715 -0.245750918984413147 0.177140653133392334
0.56035459041595459 -0.3157692551612854 -0.331039160490036011
0.55373305082321167 -0.211657971143722534 0.133794263005256653
-0.54393845796585083 0.381015241146087646 0.164265543222427368
0.122081048786640167 0.117328383028507233 0.132926806807518005
-0.582910299301147461 0.352142393589019775 0.0975353792309761047
-0.482295721769332886 0.186144605278968811 -0.0917683914303779602
0.514793515205383301 -0.339100420475006104 0.0387257002294063568
0.252655267715454102 -0.27898252010345459 0.321819126605987549
0.277642309665679932 -0.355844795703887939 -0.12614595890045166
0.507123827934265137 -0.286637783050537109 -0.313774555921554565
-0.432893574237823486 -0.0569634027779102325 0.116588488221168518
0.201171755790710449 0.0906256511807441711 0.223164573311805725
0.24351152777671814 0.104535356163978577 -0.0574367530643939972
-0.196399390697479248 0.201815992593765259 0.349144548177719116
0.249672055244445801 0.0250678621232509613 0.32313576340675354
0.239029780030250549 0.0191679801791906357 0.320830702781677246
-0.0321664251387119293 0.162974894046783447 0.382496118545532227
-0.483221322298049927 -0.0153980311006307602 0.180060014128684998
0.482980072498321533 -0.369008958339691162 0.0459701754152774811
-0.644190549850463867 0.287303894758224487 0.0859687402844429016
0.275122135877609253 -0.165766611695289612 -0.0706032067537307739
-0.41257062554359436 -0.0566420592367649078 0.0788060426712036133
-0.643740296363830566 0.175862595438957214 -0.0822735801339149475
-0.226753875613212585 -0.133727014064788818 -0.0523078963160514832
0.254158318042755127 -0.265396326780319214 0.320980817079544067
-0.346111059188842773 0.0174768827855587006 -0.117051534354686737
-0.287930846214294434 -0.0913603529334068298 -0.106604009866714478
-0.585790336132049561 0.209933295845985413 -0.218281954526901245
0.266812443733215332 -0.296860665082931519 0.31505739688873291
-0.0264460928738117218 -0.187086045742034912 -0.0435482263565063477
-0.618750929832458496 0.277094453573226929 0.0311564020812511444
-0.60951310396194458 0.298424988985061646 0.0922521501779556274
-0.398307502269744873 -0.0626323074102401733 0.118792548775672913
-0.45243602991104126 -0.0379592366516590118 0.119384132325649261
0.430337816476821899 -0.271683007478713989 0.329075276851654053
-0.0532054901123046875 0.14094659686088562 0.0915476679801940918
-0.503684520721435547 0.151378139853477478 0.355313986539840698
0.24002780020236969 -0.319135099649429321 0.322674840688705444
0.496362924575805664 -0.370828866958618164 0.057287946343421936
0.398526966571807861 -0.256794601678848267 0.322347760200500488
-0.15911845862865448 -0.263274520635604858 0.181494474411010742
-0.499884158372879028 0.0142344199120998383 0.15796971321105957
0.416814416646957397 -0.29730495810508728 0.328623354434967041
0.534541547298431396 -0.340215057134628296 -0.0185047667473554611
0.343483507633209229 -0.267422080039978027 -0.127924308180809021
-0.497165173292160034 0.0721947029232978821 0.20386505126953125
0.442883491516113281 -0.27213093638420105 0.333304017782211304
0.521274805068969727 -0.335416883230209351 0.0327290110290050507
0.452611953020095825 -0.31999439001083374 -0.293091028928756714
0.473472744226455688 -0.311689317226409912 0.116624586284160614
0.516506969928741455 -0.278528153896331787 -0.312887728214263916
0.501931905746459961 -0.326045602560043335 -0.314380526542663574
0.51736527681350708 -0.327126204967498779 0.101846687495708466
0.47857964038848877 -0.311531871557235718 -0.302231192588806152
0.113785184919834137 0.118720784783363342 0.288857370615005493
-0.122666411101818085 0.268783658742904663 0.15861096978187561
-0.615498542785644531 0.265577763319015503 0.0518703609704971313
-0.480103284120559692 0.00327097228728234768 0.181238770484924316
0.425911247730255127 -0.35501331090927124 0.158486112952232361
-0.293106585741043091 -0.110430255532264709 -0.105860337615013123
0.12973494827747345 0.0656463354825973511 0.32107234001159668
0.252953469753265381 0.0385903492569923401 -0.0779605880379676819
0.234730541706085205 0.0937741771340370178 -0.0532554201781749725
0.416919916868209839 -0.261643677949905396 -0.202414780855178833
0.520929813385009766 -0.354691982269287109 -0.0195217151194810867
-0.60953223705291748 0.3812255859375 0.181040480732917786
0.51685863733291626 -0.279428750276565552 -0.314810127019882202
0.498356074094772339 -0.350035935640335083 0.0240126792341470718
-0.588509202003479004 0.369395047426223755 0.112828187644481659
0.505242586135864258 -0.104801483452320099 0.147158622741699219
-0.198758408427238464 0.311684101819992065 0.112754620611667633
0.263262838125228882 -0.286445587873458862 0.319646477699279785
0.236145749688148499 0.0622068904340267181 0.310363799333572388
-0.145308315753936768 -0.0433389432728290558 0.00408435333520174026
-0.658483445644378662 0.214762657880783081 -0.0464324094355106354
-0.289388298988342285 -0.075817890465259552 -0.0687117278575897217
0.226467356085777283 0.0420929007232189178 -0.0483126528561115265
0.550813853740692139 -0.144562304019927979 0.131926611065864563
0.519014120101928711 -0.295407235622406006 0.0748192518949508667
0.516848444938659668 -0.28415796160697937 -0.181249767541885376
-0.358841061592102051 -0.0169569719582796097 -0.0280557535588741302
0.0906776487827301025 0.0882592648267745972 0.0856192111968994141
0.465866625308990479 -0.361937284469604492 -0.0107348011806607246
-0.43365854024887085 0.157828927040100098 -0.0666563361883163452
0.523039817810058594 -0.335679709911346436 0.0688268691301345825
0.262122511863708496 -0.285814106464385986 0.318369746208190918
0.00851242337375879288 -0.0908669158816337585 -0.0262153781950473785
0.0316972993314266205 -0.130250439047813416 0.0217743348330259323
-0.63141477108001709 0.265082359313964844 0.0288175847381353378
0.241352707147598267 0.0743720829486846924 0.318629056215286255
0.239417925477027893 0.029633762314915657 0.318717896938323975
-0.175555244088172913 0.300961464643478394 0.116132728755474091
0.303839296102523804 -0.151224076747894287 0.307654649019241333
0.261156976222991943 -0.290613949298858643 0.320855468511581421
-0.476933032274246216 -0.00800260342657566071 0.166112333536148071
0.241987660527229309 0.081804618239402771 0.311986267566680908
0.519459724426269531 -0.351326882839202881 0.0818611830472946167
-0.035754866898059845 -0.237392812967300415 0.12400992214679718
-0.639003634452819824 0.290089517831802368 0.0986017584800720215
-0.235067471861839294 -0.132700815796852112 -0.0580934248864650726
-0.380071014165878296 -0.108627527952194214 0.10545755922794342
-0.237277790904045105 -0.147719025611877441 -0.0579361915588378906
-0.658694267272949219 0.214459478855133057 -0.034134838730096817
0.528100252151489258 -0.352660268545150757 0.0778043866157531738
-0.621855676174163818 0.270351886749267578 0.0522640347480773926
-0.404928237199783325 -0.0641776919364929199 0.11196599155664444
-0.447096854448318481 -0.0413446724414825439 0.12189067155122757
0.267226040363311768 -0.285508930683135986 0.323330163955688477
0.126827657222747803 -0.326425373554229736 0.312448322772979736
0.151484757661819458 -0.342926025390625 0.317719310522079468
0.446935892105102539 -0.335749059915542603 -0.293063730001449585
0.51497262716293335 -0.303052127361297607 -0.1080293208360672
0.514478504657745361 -0.280399501323699951 -0.312905728816986084
0.484091609716415405 -0.327811241149902344 -0.309861540794372559
0.463556051254272461 -0.346014231443405151 -0.302735328674316406
0.548862278461456299 -0.210388496518135071 -0.316070586442947388
0.52334517240524292 -0.300181388854980469 -0.32255515456199646
0.517207682132720947 -0.300991863012313843 -0.318450927734375
0.246069997549057007 0.0570931360125541687 0.316223829984664917
0.240557357668876648 0.0875574424862861633 0.312553256750106812
-0.292557656764984131 -0.100432313978672028 -0.101988926529884338
-0.454356282949447632 -0.0518258512020111084 0.116985999047756195
0.403997331857681274 -0.272216349840164185 0.322393298149108887
-0.503139913082122803 0.0039423634298145771 0.189016997814178467
0.400287985801696777 -0.287192106246948242 0.324709087610244751
0.398436784744262695 -0.273509502410888672 0.323188126087188721
0.341400712728500366 -0.258959859609603882 0.0900066718459129333
-0.0196588858962059021 -0.244185864925384521 0.128581628203392029
-0.465240687131881714 0.0361527055501937866 0.189440026879310608
-0.195156410336494446 0.221738487482070923 0.171906650066375732
0.365994662046432495 -0.329291880130767822 -0.0235918201506137848
0.322545111179351807 -0.390117347240447998 -0.158943101763725281
0.534633755683898926 -0.323687106370925903 -0.0582968480885028839
-0.442522555589675903 -0.0045649348758161068 0.152596533298492432
-0.0199774336069822311 -0.0593530647456645966 0.141611993312835693
-0.00111195375211536884 -0.23592965304851532 0.106305092573165894
0.525436162948608398 -0.201902195811271667 -0.0801213905215263367
0.449000239372253418 -0.308441311120986938 -0.292948871850967407
0.52607804536819458 -0.275560468435287476 -0.315759092569351196
0.499126225709915161 -0.324995517730712891 -0.312750190496444702
0.474427938461303711 -0.305161267518997192 -0.29746544361114502
-0.12823486328125 0.246745139360427856 0.138798221945762634
-0.649707317352294922 0.282106637954711914 0.0939800739288330078
-0.199688777327537537 0.286838948726654053 0.335755109786987305
0.497224241495132446 -0.0868251249194145203 0.136521637439727783
0.199850663542747498 -0.35908624529838562 -0.0908707529306411743
0.504597187042236328 -0.367712616920471191 -0.0227803625166416168
0.526475429534912109 -0.24269731342792511 0.172844067215919495
-0.586650192737579346 0.379444301128387451 0.170432001352310181
0.444213151931762695 -0.315030366182327271 -0.28782382607460022
0.497799396514892578 -0.111189350485801697 0.112043097615242004
-0.656530857086181641 0.175560519099235535 -0.104050889611244202
-0.202734649181365967 0.308872103691101074 0.0889668986201286316
0.200493216514587402 -0.0134891960769891739 0.295097440481185913
0.159179329872131348 -0.0621285624802112579 -0.0441743284463882446
-0.580210208892822266 0.302419185638427734 0.368507206439971924
0.274261802434921265 0.098260924220085144 -0.0293015968054533005
-0.436030387878417969 0.155526518821716309 -0.0861833468079566956
0.533643782138824463 -0.333077937364578247 0.0126654896885156631
-0.569508910179138184 0.197388678789138794 -0.229360789060592651
-0.498415350914001465 0.0451437532901763916 -0.0870123505592346191
0.0305618792772293091 -0.103860042989253998 0.0329185947775840759
0.533334851264953613 -0.264602839946746826 -0.316406548023223877
0.00900100823491811752 0.197707921266555786 0.0274060014635324478
0.301360964775085449 0.0387641787528991699 -0.0846410840749740601
-0.332957595586776733 -0.0158241987228393555 -0.107802204787731171
0.235690578818321228 0.0145290615037083626 0.321637064218521118
0.124263003468513489 0.0131434211507439613 0.298806518316268921
0.526717543601989746 -0.355179667472839355 0.0662523210048675537
0.466294229030609131 -0.309916853904724121 -0.233195781707763672
-0.652685225009918213 0.285448163747787476 0.104088246822357178
0.545818924903869629 -0.219985872507095337 0.16340327262878418
0.527243673801422119 -0.32341042160987854 -0.0161204617470502853
-0.383754312992095947 -0.0561780743300914764 0.0761452987790107727
0.45612296462059021 -0.310923129320144653 -0.292646169662475586
0.504202842712402344 -0.339915096759796143 -0.317986547946929932
0.478046804666519165 -0.31440618634223938 -0.299590259790420532
0.519615471363067627 -0.30139625072479248 -0.317415565252304077
-0.00311640091240406036 -0.139826029539108276 -0.0248750876635313034
0.396770596504211426 -0.273066937923431396 0.323363006114959717
0.400441974401473999 -0.271495401859283447 0.323668360710144043
0.505305826663970947 -0.331980764865875244 0.105773352086544037
-0.468237638473510742 0.0426828078925609589 0.17055065929889679
0.409239619970321655 -0.345829784870147705 0.156506255269050598
-0.361548960208892822 -0.0351072661578655243 -0.148190274834632874
-0.12899896502494812 -0.267442673444747925 0.112348020076751709
0.511817038059234619 -0.369049280881881714 -0.0147249801084399223
-0.214354336261749268 0.3126792311668396 0.0975000560283660889
0.249826401472091675 -0.286948651075363159 0.32279437780380249
0.208164632320404053 0.00941349100321531296 -0.0462321639060974121
0.0691560879349708557 -0.151372671127319336 -0.0172902550548315048
-0.170396432280540466 0.30491405725479126 0.11869484931230545
0.470319002866744995 -0.364353448152542114 0.00698705669492483139
-0.291677772998809814 -0.0992233902215957642 -0.103246517479419708
0.0356481596827507019 -0.149521246552467346 -0.0217553563416004181
0.23144085705280304 0.0563286244869232178 0.309049904346466064
0.252632170915603638 -0.288512080907821655 0.320576071739196777
-0.472348123788833618 0.00139076088089495897 0.168576434254646301
0.240261808037757874 0.0627780258655548096 0.312946319580078125
0.508192300796508789 -0.352021932601928711 0.0639015734195709229
0.226656168699264526 -0.314642280340194702 0.314481109380722046
-0.376071423292160034 -0.0928890034556388855 0.0861427336931228638
-0.063409753143787384 -0.241357177495956421 0.302463263273239136
-0.223420217633247375 -0.127442732453346252 -0.0531555637717247009
-0.410545855760574341 -0.0651948973536491394 0.0984591543674468994
-0.445639699697494507 -0.0444636903703212738 0.132665187120437622
0.238217279314994812 -0.293886810541152954 0.314352422952651978
0.153158485889434814 -0.324133902788162231 0.320031076669692993
0.424585968255996704 -0.255989432334899902 0.328515738248825073
0.437484651803970337 -0.342972248792648315 -0.292716473340988159
0.505623281002044678 -0.334618210792541504 -0.318131744861602783
0.444333076477050781 -0.352317392826080322 -0.286774128675460815
0.237528294324874878 0.0658420100808143616 0.31222572922706604
0.402515977621078491 -0.287421375513076782 0.325833588838577271
-0.495362043380737305 0.00697717629373073578 0.188303545117378235
0.485072582960128784 -0.0632667094469070435 0.13164307177066803
0.0117647275328636169 -0.170532315969467163 0.00981404352933168411
0.530834853649139404 -0.307625472545623779 -0.0622623153030872345
0.314034581184387207 -0.302227765321731567 -0.126848816871643066
0.445185452699661255 -0.291376799345016479 -0.285685718059539795
-0.337444156408309937 0.224892482161521912 0.125619962811470032
-0.401471763849258423 -0.0279374271631240845 -0.00196764850988984108
0.402428120374679565 -0.271638870239257812 0.324051886796951294
-0.133878722786903381 0.195977136492729187 0.167645916342735291
0.398477077484130859 -0.271574258804321289 0.323864847421646118
-0.447117030620574951 -0.0247087534517049789 0.0213457699865102768
-0.13854198157787323 0.245034173130989075 0.191592484712600708
-0.613228201866149902 0.294210731983184814 0.18358178436756134
0.123906947672367096 0.116251431405544281 0.316586047410964966
-0.121487237513065338 0.250754863023757935 0.161721616983413696
-0.583748400211334229 0.34829944372177124 0.0579411499202251434
0.426153033971786499 -0.348008066415786743 0.152991518378257751
-0.567198395729064941 0.295195251703262329 -0.0692008808255195618
0.251208961009979248 0.0267254859209060669 -0.0796822980046272278
0.247030466794967651 0.100384242832660675 -0.0484789013862609863
-0.358029663562774658 -0.0554485246539115906 -0.14191967248916626
0.198079347610473633 0.120265655219554901 0.0356361530721187592
0.544941842555999756 -0.131513923406600952 0.111924335360527039
-0.582079052925109863 0.321898132562637329 -0.0230577308684587479
0.20549166202545166 0.0248104967176914215 0.176741078495979309
-0.595740616321563721 0.375320136547088623 0.171844303607940674
0.444133549928665161 -0.319112509489059448 0.127328440546989441
0.254434585571289062 -0.278479844331741333 0.31642034649848938
0.234907880425453186 0.0239623226225376129 0.316481351852416992
-0.363461911678314209 -0.0494506582617759705 -0.0238205473870038986
-0.183190494775772095 0.118375644087791443 0.0422247573733329773
0.25414884090423584 -0.287917524576187134 0.319236606359481812
0.241346076130867004 0.033332332968711853 0.321743428707122803
0.399220556020736694 0.0233752857893705368 0.115055263042449951
-0.341071873903274536 -0.0657991394400596619 -0.147361114621162415
0.075148165225982666 -0.332590460777282715 0.298908084630966187
-0.387276142835617065 -0.0604234188795089722 0.0937788337469100952
-0.448672175407409668 -0.040940459817647934 0.127673596143722534
0.438734203577041626 -0.279115140438079834 0.333590656518936157
0.0338037237524986267 -0.122584529221057892 -0.0256705638021230698
0.413693845272064209 -0.280560851097106934 0.326932728290557861
0.432405591011047363 -0.295860350131988525 0.333093822002410889
0.367250949144363403 -0.278558522462844849 -0.13032136857509613
-0.477828621864318848 0.00186215643770992756 0.188275396823883057
-0.292090028524398804 -0.0959345772862434387 -0.104579344391822815
0.240767329931259155 -0.312675744295120239 0.309599727392196655
0.472549885511398315 -0.354076772928237915 0.00699589448049664497
-0.296919554471969604 -0.0961859822273254395 -0.107032947242259979
0.244126424193382263 -0.28826063871383667 0.319990098476409912
0.0616853386163711548 -0.329289615154266357 0.296993821859359741
0.157338887453079224 -0.267472565174102783 -0.105549581348896027
0.249558597803115845 0.0635827556252479553 0.315369844436645508
-0.482948541641235352 -0.00751516083255410194 0.177879408001899719
0.235700100660324097 0.0667597502470016479 0.314727634191513062
0.238106831908226013 -0.331477522850036621 0.321328014135360718
-0.382757335901260376 -0.0915869548916816711 0.0366937033832073212
-0.216688245534896851 -0.1396750807762146 -0.0543870069086551666
-0.383183300495147705 -0.0632325485348701477 0.0834959074854850769
0.149370640516281128 -0.331241250038146973 0.331820189952850342
0.445256322622299194 -0.279648751020431519 0.333514690399169922
0.406804382801055908 -0.280270218849182129 0.325044900178909302
-0.502449870109558105 0.00695600034669041634 0.188615426421165466
-0.322388559579849243 0.0975157618522644043 -0.0703566372394561768
0.531938016414642334 -0.207429066300392151 -0.0527000464498996735
0.450380265712738037 -0.293816655874252319 -0.290573686361312866
0.486853659152984619 -0.325164496898651123 -0.310991913080215454
0.445820510387420654 -0.309654325246810913 -0.290938049554824829
-0.578067243099212646 0.269435375928878784 0.365703433752059937
-0.461887866258621216 0.106027036905288696 -0.231147482991218567
0.374206513166427612 -0.31846916675567627 0.199010536074638367
-0.590119302272796631 0.36706840991973877 0.131056517362594604
0.391928225755691528 -0.353317230939865112 -0.217569544911384583
0.440514832735061646 -0.310195237398147583 -0.289147496223449707
-0.201117873191833496 0.305601537227630615 0.0948298275470733643
-0.155976742506027222 0.268121212720870972 0.151535302400588989
0.529202461242675781 -0.338309705257415771 0.0717430636286735535
0.463231414556503296 -0.266060054302215576 -0.217765778303146362
-0.633867502212524414 0.27586674690246582 0.1068592369556427
0.437835365533828735 -0.308487176895141602 -0.287318497896194458
0.514922201633453369 -0.277144849300384521 -0.316957294940948486
0.516030013561248779 -0.340270429849624634 -0.320868164300918579
0.453786224126815796 -0.306972503662109375 -0.293373227119445801
0.490287125110626221 -0.321788668632507324 0.0943025574088096619
0.0199529286473989487 -0.275454014539718628 -0.0185955055058002472
-0.654464840888977051 0.172101214528083801 -0.108326628804206848
-0.225142106413841248 0.318711787462234497 0.121226795017719269
0.464714765548706055 -0.363958120346069336 0.00582524016499519348
0.480453342199325562 -0.336675703525543213 0.0501939579844474792
0.510930657386779785 -0.339330196380615234 -0.31952705979347229
0.439592868089675903 -0.356469690799713135 -0.297727376222610474
-0.270450949668884277 0.322158306837081909 0.0417416505515575409
0.423550218343734741 -0.313203245401382446 -0.282012373208999634
0.414893209934234619 -0.295015484094619751 0.328379660844802856
-0.326593607664108276 -0.0750363990664482117 0.123432524502277374
-0.36736103892326355 -0.0663515105843544006 0.154635712504386902
-0.338697254657745361 0.215064823627471924 0.132759392261505127
0.00950162578374147415 0.11958678811788559 0.105033881962299347
0.54143977165222168 -0.309093475341796875 -0.0462956540286540985
0.0129892835393548012 -0.261435210704803467 0.0394777990877628326
-0.0041810343973338604 -0.236206278204917908 0.0942182838916778564
-0.000422909186454489827 -0.219252333045005798 0.0814779996871948242
0.464298427104949951 -0.36080893874168396 0.0302244517952203751
-0.269899874925613403 -0.137641027569770813 0.177451387047767639
-0.345572352409362793 -0.0655285865068435669 0.141225889325141907
0.122815638780593872 -0.276365488767623901 0.128919750452041626
-0.134404182434082031 0.0790485814213752747 0.0901970416307449341
0.462907463312149048 -0.0544044002890586853 0.0174418296664953232
-0.0147572793066501617 -0.216562345623970032 0.080319426953792572
-0.555093467235565186 0.391781151294708252 0.147580996155738831
0.49599301815032959 -0.36668926477432251 0.00515518942847847939
-0.61105579137802124 0.294209599494934082 0.18638668954372406
0.529460430145263672 -0.275210201740264893 -0.317795306444168091
0.369713664054870605 -0.26444581151008606 0.181428417563438416
0.419705748558044434 -0.344323426485061646 0.150758117437362671
0.251352280378341675 0.039221540093421936 -0.0668185874819755554
0.548842310905456543 -0.149895057082176208 0.124115578830242157
-0.570909976959228516 0.284164756536483765 -0.00656015705317258835
0.500265657901763916 -0.362543404102325439 -0.001375434803776443
0.207609355449676514 0.115701593458652496 -0.0106081198900938034
-0.289737164974212646 -0.085320301353931427 -0.0664346292614936829
0.158557236194610596 -0.083080582320690155 -0.0362519435584545135
-0.340449243783950806 -0.10508766770362854 0.141272872686386108
0.510459780693054199 -0.281370550394058228 -0.31330949068069458
-0.339792490005493164 -0.0793021544814109802 0.0385944172739982605
-0.369791597127914429 0.280883550643920898 -0.0626995936036109924
0.509218215942382812 -0.340878516435623169 0.0650257319211959839
0.301627516746520996 -0.205726876854896545 0.247789308428764343
0.542181491851806641 -0.311981022357940674 -0.0608438104391098022
0.14090554416179657 0.0697095468640327454 0.336241781711578369
-0.595255613327026367 0.267670482397079468 0.0120251886546611786
0.221325889229774475 -0.00691103516146540642 0.295428961515426636
0.23018917441368103 0.0344931036233901978 0.312614500522613525
0.532882332801818848 -0.319576621055603027 -0.0128887901082634926
-0.389806836843490601 -0.0636312440037727356 0.105744242668151855
-0.4480152428150177 -0.039793107658624649 0.126525118947029114
0.495327562093734741 -0.0913243815302848816 0.154315873980522156
0.250225991010665894 0.0632598698139190674 0.316487669944763184
-0.291796505451202393 -0.0923662260174751282 0.307666033506393433
-0.3670501708984375 -0.114389650523662567 0.104052260518074036
-0.563841462135314941 0.127493768930435181 -0.0785681977868080139
-0.501910209655761719 0.0237952843308448792 0.186658501625061035
0.517516672611236572 -0.297386676073074341 -0.31414523720741272
0.47194969654083252 -0.328272014856338501 -0.299994796514511108
-0.574601471424102783 0.269102245569229126 0.362630277872085571
-0.571521461009979248 0.355073720216751099 0.166928842663764954
-0.192201659083366394 0.304853230714797974 0.101190872490406036
-0.662454307079315186 0.239945843815803528 0.0415183380246162415
-0.505261242389678955 0.144722998142242432 0.353300541639328003
0.506510734558105469 -0.34719577431678772 -0.318423599004745483
-0.201027065515518188 0.305188089609146118 0.10185154527425766
0.474448144435882568 -0.357604622840881348 0.00458240881562232971
0.509106338024139404 -0.330698311328887939 0.0663010701537132263
-0.611074268817901611 0.36773371696472168 0.0876425355672836304
-0.562898457050323486 0.288425594568252563 -0.0560934506356716156
0.219263866543769836 0.0104480404406785965 0.308954477310180664
0.239828512072563171 0.00527249043807387352 0.321413010358810425
-0.360080450773239136 -0.0565918125212192535 -0.137915194034576416
0.398610442876815796 -0.252647757530212402 0.321792691946029663
0.398912519216537476 -0.263018161058425903 0.324545294046401978
0.223378211259841919 -0.323927044868469238 0.320558011531829834
0.410398423671722412 -0.267762482166290283 0.324966222047805786
-0.509537220001220703 0.0497540906071662903 0.195245295763015747
-0.631630003452301025 0.1566895991563797 -0.0527745522558689117
-0.502233564853668213 0.147287636995315552 0.345273613929748535
0.520319879055023193 -0.350756525993347168 -0.323167681694030762
0.494638532400131226 -0.348334699869155884 0.000101858473499305546
-0.198445901274681091 0.0163804292678833008 -0.050022713840007782
-0.55813145637512207 0.341918677091598511 -0.00587185518816113472
0.487846910953521729 -0.360453695058822632 0.0409217961132526398
0.448503553867340088 -0.0743201896548271179 0.00176803581416606903
-0.556619107723236084 0.385391473770141602 0.157706320285797119
0.373923897743225098 -0.0812816619873046875 -0.120099127292633057
-0.39008447527885437 0.319812566041946411 0.168728843331336975
-0.385040819644927979 0.328381896018981934 0.197426319122314453
-0.364598482847213745 0.23815879225730896 -0.0835959315299987793
-0.407717287540435791 0.199726209044456482 0.0408283621072769165
-0.644816219806671143 0.286982238292694092 0.093490011990070343
0.407865017652511597 -0.347197026014328003 0.136280640959739685
0.22167910635471344 0.082853272557258606 -0.033734932541847229
0.497903048992156982 -0.161322861909866333 0.12364756315946579
0.499664753675460815 -0.09294167160987854 0.134550169110298157
0.214671730995178223 0.00200779223814606667 0.299288570880889893
-0.353661388158798218 -0.0678545683622360229 -0.00911064073443412781
-0.385828197002410889 0.266143232583999634 -0.0717843472957611084
0.505782246589660645 -0.347099721431732178 0.0547792129218578339
-0.357501804828643799 -0.0560570694506168365 -0.145507052540779114
0.131533339619636536 0.0727702304720878601 0.321969687938690186
-0.100244097411632538 -0.265277624130249023 0.00607704836875200272
0.241742745041847229 0.0234050396829843521 0.321716189384460449
-0.480810463428497314 -0.0114339413121342659 0.185263559222221375
0.241781413555145264 0.0483816862106323242 0.316893875598907471
-0.278613358736038208 0.332828819751739502 0.0405221059918403625
0.369136005640029907 -0.0309852026402950287 -0.0401628352701663971
0.51948016881942749 -0.348032236099243164 -0.0364651009440422058
0.292590290307998657 -0.0120233185589313507 0.0368033237755298615
-0.64450383186340332 0.284901350736618042 0.0923377647995948792
0.0350979790091514587 0.136781364679336548 0.0849364250898361206
-0.397924453020095825 -0.0573376193642616272 0.125839248299598694
-0.441872477531433105 -0.037945084273815155 0.131267771124839783
0.523160219192504883 -0.317635864019393921 -0.0656092017889022827
0.421756327152252197 -0.279953271150588989 0.331032902002334595
0.508948445320129395 -0.344995349645614624 0.0569468960165977478
0.403168767690658569 -0.258825331926345825 0.32344016432762146
-0.480716049671173096 0.0183049049228429794 0.176644474267959595
0.234827503561973572 0.068562045693397522 0.314289510250091553
-0.479881763458251953 -0.00809918437153100967 0.167293578386306763
0.238451734185218811 0.0675691813230514526 0.314690768718719482
0.387462079524993896 0.0258388537913560867 0.105738967657089233
0.218900561332702637 -0.315926134586334229 0.31021571159362793
0.382293254137039185 0.0427318960428237915 0.0687786862254142761
0.462006688117980957 0.0105843488126993179 0.174798965454101562
0.398793011903762817 -0.258614838123321533 0.32701382040977478
-0.500023424625396729 0.0213744975626468658 0.18086126446723938
-0.573797106742858887 0.266378939151763916 0.359853476285934448
-0.66492384672164917 0.230007052421569824 0.0216601714491844177
-0.149754598736763 0.275430381298065186 0.0788840577006340027
0.521363556385040283 -0.335183113813400269 -0.322783738374710083
-0.220836043357849121 0.315749853849411011 0.0965738147497177124
0.499168843030929565 -0.34658503532409668 0.0668364986777305603
-0.190195828676223755 0.302838385105133057 0.114591993391513824
0.312927991151809692 -0.130139753222465515 0.300502270460128784
0.224396243691444397 -0.0351887531578540802 0.304935216903686523
0.0567339956760406494 -0.330561220645904541 0.291241437196731567
0.434553593397140503 -0.279992669820785522 0.332546085119247437
0.408271729946136475 -0.285780340433120728 0.33071136474609375
0.384975522756576538 -0.265808731317520142 0.318588465452194214
0.396671712398529053 -0.384757041931152344 -0.225862890481948853
-0.162724122405052185 0.278474926948547363 0.128440320491790771
0.379932612180709839 0.0437575653195381165 0.0767200812697410583
0.390103012323379517 -0.25577053427696228 0.318596005439758301
-0.50074082612991333 0.0246562007814645767 0.185697764158248901
0.498908340930938721 -0.326064348220825195 -0.313411831855773926
0.379840046167373657 -0.376042723655700684 -0.216473817825317383
0.520427167415618896 -0.349403500556945801 -0.325183957815170288
0.519985973834991455 -0.348542243242263794 -0.322123140096664429
0.512608647346496582 -0.319795817136764526 -0.318751871585845947
0.254218310117721558 -0.222362682223320007 0.0572855882346630096
0.185233980417251587 -0.142310574650764465 -0.105807788670063019
0.507071793079376221 -0.320298433303833008 0.0289947837591171265
-0.469909727573394775 -0.0116885611787438393 0.18095843493938446
0.495491445064544678 -0.349096208810806274 -0.310079127550125122
0.520771026611328125 -0.327668905258178711 -0.322257429361343384
0.475294440984725952 -0.320383131504058838 -0.303360670804977417
-0.341628491878509521 0.229949697852134705 -0.0444913692772388458
0.201000437140464783 0.13273446261882782 0.111924096941947937
-0.173171564936637878 0.0223536156117916107 0.0254401527345180511
0.264838695526123047 -0.165854141116142273 0.00580991944298148155
0.543986678123474121 -0.328399538993835449 -0.0480968430638313293
-0.456777334213256836 -0.0528816059231758118 0.162077084183692932
0.468979239463806152 -0.35618862509727478 -0.307413280010223389
0.477744698524475098 -0.269956529140472412 -0.301848769187927246
0.466590076684951782 -0.36199575662612915 -0.308502256870269775
-0.320624083280563354 0.266742438077926636 0.0113199101760983467
0.0324659198522567749 0.0986325740814208984 0.128279432654380798
-0.285158395767211914 -0.0998677536845207214 -0.0874580368399620056
-0.61716759204864502 0.217061236500740051 -0.105013385415077209
0.243677318096160889 0.104350097477436066 -0.0300572030246257782
0.465549200773239136 -0.235256552696228027 -0.228820428252220154
