ply
format ascii 1.0
element vertex 737
property float x
property float y
property float z
end_header
-0.0394940190017223358 -0.017461780458688736 0.307014018297195435
0.244905441999435425 0.0415984317660331726 0.0822496861219406128
0.405023634433746338 -0.360028117895126343 -0.128296703100204468
0.467782109975814819 -0.364330589771270752 0.00967629719525575638
0.375694066286087036 -0.0756716504693031311 0.0329467281699180603
0.517560422420501709 -0.202285692095756531 -0.0886660218238830566
-0.571994125843048096 0.216904282569885254 0.17810000479221344
-0.297785699367523193 0.30528596043586731 0.0703704655170440674
-0.406655251979827881 -0.0556027069687843323 0.0555474273860454559
-0.269082814455032349 0.0917480513453483582 0.167127221822738647
-0.586373746395111084 0.283077776432037354 -0.0322787873446941376
0.452016860246658325 -0.31507834792137146 0.0499416738748550415
-0.448246002197265625 0.116838246583938599 -0.229615062475204468
0.30637553334236145 0.029379427433013916 0.037418074905872345
0.341251939535140991 -0.266699790954589844 0.00931127648800611496
0.468427360057830811 -0.31690901517868042 -0.301607102155685425
0.310313910245895386 -0.341921716928482056 0.13845139741897583
-0.0514644533395767212 0.111161887645721436 0.113141611218452454
0.4749184250831604 -0.126031771302223206 -0.0218725409358739853
0.384953826665878296 -0.0641979798674583435 -0.0659635588526725769
-0.447100698947906494 -0.006176795344799757 -0.0219700299203395844
0.470442354679107666 -0.201787874102592468 0.0139112817123532295
0.439150750637054443 -0.251369059085845947 -0.209694921970367432
-0.404249519109725952 0.144751042127609253 -0.0547539331018924713
0.456780165433883667 -0.261207044124603271 -0.211197853088378906
-0.105783902108669281 0.0447679050266742706 0.270388931035995483
0.501143336296081543 -0.261969298124313354 0.020981714129447937
0.323586463928222656 -0.204360693693161011 0.206918284296989441
0.448104977607727051 -0.346305727958679199 -0.228976577520370483
0.482208043336868286 -0.35885465145111084 -0.0707296803593635559
0.500197649002075195 -0.319855779409408569 -0.310663968324661255
-0.112563483417034149 0.144686505198478699 0.367723822593688965
-0.496322214603424072 0.133528992533683777 -0.0520933791995048523
-0.434941619634628296 -0.0296834986656904221 0.166295632719993591
-0.630778908729553223 0.304263651371002197 0.182763978838920593
0.487680315971374512 -0.321880191564559937 0.125665873289108276
-0.250914394855499268 -0.0267126709222793579 0.0658774673938751221
0.389708876609802246 0.046711266040802002 -0.0432182475924491882
0.515045702457427979 -0.309615761041641235 -0.102571636438369751
-0.374872088432312012 0.330301493406295776 0.143604055047035217
-0.365069061517715454 -0.00625320430845022202 -0.126165151596069336
-0.534135699272155762 0.284715652465820312 -0.00415473431348800659
-0.193666726350784302 -0.0196022391319274902 0.173318028450012207
0.357487529516220093 -0.282883822917938232 0.0423486530780792236
-0.214459538459777832 -0.0853960961103439331 0.036006879061460495
0.0782126933336257935 -0.051121104508638382 0.264123320579528809
0.464683830738067627 -0.308538168668746948 -0.218907833099365234
-0.573832571506500244 0.361116081476211548 0.267305135726928711
-0.573390662670135498 0.274297028779983521 0.236231163144111633
-0.551360487937927246 0.270435094833374023 -0.106674976646900177
0.532112360000610352 -0.201705232262611389 -0.0900724455714225769
0.471342563629150391 -0.307101577520370483 -0.0188229847699403763
-0.584463953971862793 0.260893672704696655 -0.042229730635881424
0.420767009258270264 -0.302648723125457764 0.0657099634408950806
-0.457693338394165039 0.116980165243148804 -0.232056200504302979
0.314025312662124634 0.0441378094255924225 0.0268311314284801483
0.495491445064544678 -0.32152065634727478 -0.309403508901596069
0.343136787414550781 -0.186108946800231934 0.163833484053611755
0.449968844652175903 -0.359295427799224854 -0.081490643322467804
-0.294909417629241943 0.214066863059997559 0.0127452248707413673
-0.466424316167831421 0.155180826783180237 -0.0449369661509990692
0.44896245002746582 -0.265132635831832886 -0.144326493144035339
0.512999057769775391 -0.330364525318145752 0.111682407557964325
0.477276027202606201 -0.303257018327713013 -0.302826166152954102
-0.382288098335266113 0.333499908447265625 0.162255853414535522
-0.559861660003662109 0.263535648584365845 0.364434510469436646
0.44573521614074707 -0.331837594509124756 -0.228769421577453613
-0.558309376239776611 0.333089351654052734 0.113193519413471222
0.438187927007675171 -0.250086754560470581 0.0920551493763923645
-0.362674742937088013 0.246297687292098999 -0.0156677402555942535
0.442801117897033691 -0.235407307744026184 -0.226469919085502625
0.13454870879650116 0.120905026793479919 0.337427228689193726
0.285451978445053101 -0.0814190059900283813 0.190843448042869568
0.541288614273071289 -0.221143066883087158 0.112722471356391907
0.160024091601371765 0.0942467004060745239 0.124614924192428589
-0.0485957562923431396 -0.0632975846529006958 0.0491399392485618591
-0.588815867900848389 0.270926296710968018 -0.0073293810710310936
-0.609869420528411865 0.236587449908256531 -0.0561803057789802551
-0.342993885278701782 0.166720554232597351 0.0331426598131656647
-0.581108212471008301 0.190652564167976379 0.0906622707843780518
-0.436055362224578857 0.0521048232913017273 -0.14868590235710144
-0.0904399678111076355 0.26616966724395752 0.177509233355522156
0.249723345041275024 0.104040428996086121 -0.0587292611598968506
0.111717626452445984 0.0956190004944801331 -0.0141601422801613808
0.386369258165359497 -0.264544129371643066 0.19666406512260437
-0.0150566846132278442 0.00311703328043222427 0.222828477621078491
-0.437584072351455688 -0.0140199949964880943 -0.0321564190089702606
-0.135956764221191406 -0.0375236421823501587 0.0952923446893692017
0.0258414354175329208 0.142585039138793945 0.294679909944534302
-0.554693818092346191 0.150773093104362488 -0.113356590270996094
0.0431734435260295868 -0.0584766268730163574 0.153919234871864319
-0.155524313449859619 -0.00246709282509982586 0.156230852007865906
0.0372955463826656342 0.139175787568092346 0.0902241095900535583
-0.461940646171569824 0.00742652453482151031 0.166664034128189087
-0.286675125360488892 -0.0541833490133285522 0.135389164090156555
0.207928434014320374 -0.15354648232460022 0.212922126054763794
0.0323546156287193298 0.118321605026721954 0.0913208127021789551
0.321526408195495605 -0.172099217772483826 0.0109963249415159225
0.301443487405776978 -0.124196313321590424 -0.0411280468106269836
-0.377108067274093628 -0.00808077864348888397 -0.0301349032670259476
0.448462158441543579 -0.272798866033554077 0.0948119834065437317
0.317849487066268921 -0.117479793727397919 0.0140082463622093201
0.157949522137641907 -0.0914385393261909485 0.212983667850494385
-0.162168920040130615 0.146253123879432678 0.0704521834850311279
0.456405460834503174 -0.108620412647724152 -0.230845481157302856
-0.577441155910491943 0.244221717119216919 -0.119952425360679626
-0.571457087993621826 0.294508516788482666 -0.064141981303691864
0.518036425113677979 -0.242432504892349243 -0.158251553773880005
-0.369619011878967285 0.0983128324151039124 -0.074047677218914032
-0.613835930824279785 0.263449758291244507 0.038490593433380127
0.343121498823165894 -0.329043358564376831 -0.105888180434703827
0.340653002262115479 -0.189457178115844727 0.160756692290306091
0.532357573509216309 -0.247517228126525879 0.0931686088442802429
0.143743649125099182 0.0784767419099807739 0.0924372598528862
-0.572186827659606934 0.304843485355377197 -0.0513978339731693268
0.271442383527755737 0.00513673480600118637 0.0712150037288665771
-0.625080108642578125 0.192912384867668152 -0.0883296281099319458
-0.461167722940444946 0.291601479053497314 -0.0618376806378364563
-0.152426064014434814 0.179856196045875549 0.0909001156687736511
-0.549022316932678223 0.17387816309928894 -0.0440983176231384277
-0.54371953010559082 0.277499198913574219 0.171587884426116943
0.401202201843261719 -0.233959302306175232 -0.0231239628046751022
0.286845475435256958 -0.0626327693462371826 -0.0966015681624412537
0.221796482801437378 0.0399047359824180603 -0.069955088198184967
0.103408262133598328 -0.138722538948059082 0.210928186774253845
0.115497186779975891 0.0722620338201522827 0.316586017608642578
-0.37042805552482605 0.118049867451190948 0.236840531229972839
-0.0229552071541547775 -0.0577548518776893616 0.137536346912384033
0.221949055790901184 -0.236243888735771179 0.0977865308523178101
0.0758380740880966187 0.0646602585911750793 0.0343305282294750214
-0.383781999349594116 -0.0584476105868816376 0.104137860238552094
0.104384295642375946 0.0788864195346832275 0.126263454556465149
0.252277761697769165 0.0285318456590175629 -0.0655332580208778381
-0.372216135263442993 0.269107311964035034 0.113528795540332794
0.0325324498116970062 -0.0558952540159225464 0.302264899015426636
-0.0148267261683940887 0.137469619512557983 0.0921959802508354187
-0.501508414745330811 0.095317550003528595 -0.127948388457298279
-0.345689654350280762 0.0120299216359853745 0.150540784001350403
0.526741445064544678 -0.0547643117606639862 -0.308823108673095703
-0.500134706497192383 0.135592147707939148 -0.24095502495765686
0.473048299551010132 -0.26917305588722229 0.113591432571411133
0.377106547355651855 -0.134081631898880005 -0.0475364290177822113
0.23495107889175415 0.0927343517541885376 -0.040094718337059021
0.137571975588798523 0.0126357972621917725 0.284825950860977173
0.520730674266815186 -0.204696059226989746 -0.0879001319408416748
-0.536347329616546631 0.124445430934429169 -0.105851374566555023
-0.579215824604034424 0.2923908531665802 -0.00114778324496001005
0.482759386301040649 -0.325255274772644043 0.100504539906978607
0.499493211507797241 -0.269728779792785645 0.0362991690635681152
0.493127107620239258 -0.330239683389663696 -0.0626259073615074158
-0.483417868614196777 0.119937799870967865 -0.045610625296831131
-0.591496407985687256 0.301178127527236938 0.17552514374256134
0.483544766902923584 -0.323150336742401123 0.134844318032264709
0.505889296531677246 -0.303657591342926025 -0.103599853813648224
-0.381029188632965088 0.316621273756027222 0.158605396747589111
-0.546294212341308594 0.334044277667999268 0.134128928184509277
0.460570275783538818 -0.259585738182067871 0.115318134427070618
0.533950209617614746 -0.207454070448875427 -0.0875330865383148193
0.513420522212982178 -0.231848195195198059 -0.304492294788360596
-0.553943097591400146 0.259245097637176514 -0.0209618508815765381
0.4614676833152771 -0.304789841175079346 0.109355136752128601
-0.451906383037567139 0.112353719770908356 -0.224997088313102722
0.486381947994232178 -0.314269036054611206 -0.30316498875617981
-0.559358716011047363 0.317257106304168701 0.354510784149169922
0.179583758115768433 -0.104390539228916168 -0.0159445274621248245
0.306463390588760376 0.0179606880992650986 -0.111367851495742798
0.506426811218261719 -0.338040053844451904 0.0252831112593412399
0.404885828495025635 0.0224947333335876465 0.00855922792106866837
0.475297987461090088 -0.288300633430480957 -0.299629062414169312
0.010852777399122715 0.153803378343582153 0.0575938671827316284
0.523235440254211426 -0.300575494766235352 -0.0975343286991119385
-0.380690723657608032 0.333551764488220215 0.204854056239128113
-0.550901055335998535 0.337107390165328979 0.12456764280796051
0.418670564889907837 -0.252832412719726562 0.0983541607856750488
-0.580040335655212402 0.208007887005805969 -0.214947551488876343
0.278679460287094116 -0.085378795862197876 0.190812841057777405
-0.129501000046730042 0.224141314625740051 0.126577675342559814
-0.382088065147399902 0.103616051375865936 -0.0632918328046798706
0.551561117172241211 -0.220307454466819763 0.11466023325920105
0.383839994668960571 -0.24272426962852478 0.314184963703155518
-0.552628099918365479 0.162764370441436768 0.0797887519001960754
-0.134174704551696777 0.20105406641960144 0.168476074934005737
0.242574006319046021 0.109721623361110687 -0.0486957952380180359
0.116830110549926758 0.0394669249653816223 0.328360944986343384
-0.559013128280639648 0.277673631906509399 0.00247336528263986111
0.320106565952301025 -0.132946714758872986 -0.0794203206896781921
-0.574890017509460449 0.200036942958831787 -0.225894629955291748
0.208174169063568115 0.117723196744918823 0.0454659648239612579
0.463890820741653442 -0.308449596166610718 0.135122761130332947
-0.585187673568725586 0.319411009550094604 -0.0248314309865236282
0.530543327331542969 -0.253628849983215332 0.0986080467700958252
-0.309585332870483398 0.082135424017906189 -0.0722092986106872559
-0.449383944272994995 0.0081178741529583931 -0.140123277902603149
-0.300917536020278931 0.290329635143280029 0.14635835587978363
-0.526298820972442627 0.181297823786735535 -0.21520194411277771
-0.391478359699249268 -0.0590400658547878265 0.100816071033477783
-0.54517674446105957 0.262469977140426636 -0.164659589529037476
0.313922673463821411 -0.334351658821105957 0.198063299059867859
-0.0594572052359580994 0.0935838669538497925 0.321331024169921875
-0.101343609392642975 0.143411129713058472 0.0936579331755638123
0.499888479709625244 -0.363000631332397461 0.0767346695065498352
0.349129617214202881 -0.283001154661178589 -0.134633705019950867
-0.412123888731002808 0.197689861059188843 0.0364224761724472046
-0.344899564981460571 0.251312255859375 -0.0134014692157506943
-0.267211616039276123 0.07856731116771698 -0.0145478732883930206
-0.180473208427429199 0.0182702001184225082 0.0397303290665149689
-0.553167343139648438 0.212298721075057983 -0.047345966100692749
0.407952278852462769 -0.400960952043533325 -0.215248942375183105
0.517736911773681641 -0.28530043363571167 -0.0998355746269226074
0.395406663417816162 -0.264531493186950684 -0.193272203207015991
0.497958511114120483 -0.274346023797988892 -0.300287544727325439
0.434674322605133057 -0.257396817207336426 -0.00143400102388113737
-0.154164999723434448 -0.244486942887306213 0.148975938558578491
-0.629903972148895264 0.194097936153411865 -0.0476440377533435822
-0.354743450880050659 4.9349731852998957e-05 -0.151066824793815613
-0.500881552696228027 0.145880267024040222 0.34624210000038147
-0.331337392330169678 0.299349963665008545 0.191073834896087646
-0.334366410970687866 -0.0319502130150794983 -0.132208570837974548
0.113479845225811005 0.0951840430498123169 0.0295562315732240677
0.470223367214202881 -0.135082945227622986 0.0999033674597740173
0.399175196886062622 -0.305103868246078491 0.145573616027832031
-0.456988722085952759 0.167221933603286743 0.116845183074474335
-0.536045968532562256 0.286965787410736084 0.0421599783003330231
-0.276039570569992065 -0.128020316362380981 0.0820113420486450195
-0.482765316963195801 0.248764917254447937 -0.102855317294597626
0.171439841389656067 -0.272234022617340088 0.0369244925677776337
-0.344380617141723633 0.103077337145805359 0.00664524640887975693
-0.365677386522293091 0.282557219266891479 0.0870744138956069946
0.386721551418304443 -0.230083316564559937 -0.121289834380149841
-0.352830350399017334 0.00206772447563707829 0.0353820063173770905
-0.51778942346572876 0.201635375618934631 0.0492431856691837311
-0.384669691324234009 0.182410746812820435 0.0922420769929885864
-0.571523427963256836 0.327835112810134888 -0.0115496804937720299
-0.338834285736083984 -0.088108159601688385 -0.0538388676941394806
-0.136636734008789062 -0.269372791051864624 0.13050977885723114
0.275300890207290649 -0.165976002812385559 0.0554078221321105957
0.313367217779159546 -0.302698016166687012 -0.127927333116531372
-0.38094717264175415 0.2499094158411026 0.233462721109390259
0.310989320278167725 -0.217290580272674561 0.20160830020904541
0.496475696563720703 -0.255034953355789185 -0.104942791163921356
-0.118626438081264496 0.0722517594695091248 0.173801138997077942
0.512654542922973633 -0.362077772617340088 -0.0302326586097478867
-0.508879601955413818 0.268673837184906006 -0.00482600042596459389
-0.594924569129943848 0.243596345186233521 -0.00257652578875422478
-0.586050927639007568 0.250670731067657471 0.194390967488288879
-0.547533512115478516 0.120947703719139099 -0.134005829691886902
-0.244642540812492371 0.182365745306015015 0.357060730457305908
0.462574362754821777 -0.264272868633270264 -0.289841175079345703
0.456305116415023804 -0.256029844284057617 -0.186385765671730042
0.519552350044250488 -0.302952587604522705 0.0450126603245735168
-0.625430524349212646 0.199920132756233215 0.045068059116601944
-0.255525261163711548 -0.00501229334622621536 -0.0619647987186908722
0.245825901627540588 0.0988327264785766602 -0.0685324668884277344
0.505116522312164307 -0.160086736083030701 0.131366372108459473
0.343439757823944092 -0.0701617002487182617 0.162512108683586121
0.40009009838104248 -0.237243875861167908 0.13081657886505127
-0.359422296285629272 -0.119207620620727539 0.116641901433467865
-0.478774547576904297 0.189216077327728271 0.0641166195273399353
-0.574410378932952881 0.341665178537368774 0.0254292972385883331
-0.358781039714813232 -0.0637448281049728394 0.0910267755389213562
-0.342529237270355225 0.0112622864544391632 -0.114204540848731995
0.303299158811569214 -0.296044498682022095 0.162509068846702576
-0.504387319087982178 0.22057206928730011 0.142042100429534912
-0.484968066215515137 0.028048226609826088 -0.0466993115842342377
0.0336090736091136932 0.0876643061637878418 0.0881296396255493164
-0.231162086129188538 0.346848130226135254 0.148969560861587524
0.0323004089295864105 0.0102261574938893318 0.0423698835074901581
-0.365495413541793823 -0.0371223762631416321 -0.0325533710420131683
-0.0478386543691158295 -0.234547987580299377 0.301960796117782593
0.186195060610771179 -0.293079346418380737 0.00408851774409413338
0.235065668821334839 -0.0118172736838459969 0.230630412697792053
-0.526234149932861328 0.140286698937416077 0.0681993067264556885
-0.520058214664459229 0.201059877872467041 -0.0671664401888847351
-0.551993846893310547 0.28537064790725708 0.107682742178440094
0.144175067543983459 0.00750765111297369003 0.308094799518585205
0.0682391002774238586 -0.286441534757614136 -0.0811427012085914612
-0.36177024245262146 0.0349025651812553406 -0.16094382107257843
0.307629793882369995 -0.293855935335159302 0.0300033483654260635
-0.338971883058547974 0.213015317916870117 0.159376770257949829
-0.187825888395309448 0.199674338102340698 0.367942839860916138
-0.539827227592468262 0.254531204700469971 -0.083890080451965332
0.522735655307769775 -0.199834644794464111 -0.0921413153409957886
-0.518810153007507324 0.18494752049446106 0.136663287878036499
-0.543422460556030273 0.269637465476989746 -0.00221764226444065571
0.471269011497497559 -0.326482325792312622 0.0450942665338516235
0.289215654134750366 0.0307832788676023483 0.0541989840567111969
0.433415889739990234 -0.306255936622619629 -0.28454175591468811
-0.5184287428855896 0.0896789804100990295 -0.134848624467849731
-0.600368380546569824 0.284978151321411133 0.184140041470527649
0.467810839414596558 -0.321420818567276001 0.127859488129615784
0.467734813690185547 -0.260783076286315918 -0.293104827404022217
-0.40375170111656189 0.300141334533691406 0.142994612455368042
-0.454062342643737793 0.119112119078636169 -0.223664656281471252
0.481649428606033325 -0.312073618173599243 -0.301928102970123291
0.468346238136291504 -0.330955654382705688 -0.00249924557283520699
0.457394301891326904 -0.305506318807601929 -0.291865795850753784
0.524369776248931885 -0.262194424867630005 -0.101523950695991516
-0.408511042594909668 0.318249255418777466 0.162847772240638733
-0.560609936714172363 0.267204999923706055 0.3654002845287323
-0.575977206230163574 0.210259974002838135 -0.200534939765930176
0.447551101446151733 -0.296817302703857422 -0.22250540554523468
0.310713618993759155 -0.0764884650707244873 0.149256765842437744
0.534788727760314941 -0.248537272214889526 0.101654276251792908
-0.562436997890472412 0.119479656219482422 -0.232991710305213928
-0.408006340265274048 0.0762956961989402771 -0.116308353841304779
-0.579488873481750488 0.356041312217712402 0.0828130617737770081
0.0417511910200119019 0.1141543909907341 0.312553137540817261
-0.456495761871337891 0.00845558103173971176 0.1818065345287323
0.409635335206985474 -0.344217747449874878 0.16036359965801239
-0.554528594017028809 0.288164705038070679 -0.0490057617425918579
0.543290436267852783 -0.256198525428771973 0.114086687564849854
0.0242708288133144379 -0.250157535076141357 0.205273717641830444
0.195875898003578186 0.129770606756210327 0.0352423153817653656
0.315716594457626343 -0.370743244886398315 -0.156542092561721802
0.110957175493240356 0.0592103004455566406 0.319296509027481079
-0.314641654491424561 0.306048721075057983 0.284277200698852539
-0.254296422004699707 -0.133085578680038452 -0.0729608908295631409
-0.386366337537765503 -0.060624144971370697 0.106592819094657898
0.453333169221878052 -0.0729488283395767212 -0.115923739969730377
0.316096514463424683 -0.333383321762084961 0.196196019649505615
0.298059463500976562 0.0379287637770175934 0.0505078509449958801
0.476058065891265869 -0.3312416672706604 0.136829450726509094
0.439948141574859619 -0.26769334077835083 -0.281724661588668823
0.461615681648254395 -0.273324877023696899 0.138394474983215332
0.504207968711853027 -0.346644490957260132 0.0179060548543930054
0.519104242324829102 -0.2697867751121521 -0.0866578370332717896
0.498874962329864502 -0.0883148908615112305 0.162255376577377319
0.542441844940185547 -0.215501606464385986 0.111280038952827454
-0.57691347599029541 0.326553136110305786 0.0806247293949127197
0.246968537569046021 0.111074887216091156 -0.0539844892919063568
0.0339427664875984192 0.0680181756615638733 0.272741436958312988
-0.561886072158813477 0.274920284748077393 0.0241610296070575714
-0.613816797733306885 0.271717280149459839 0.0387590788304805756
0.535804331302642822 -0.239482223987579346 0.10331089049577713
-0.575913071632385254 0.2123994380235672 -0.116470582783222198
-0.424928814172744751 0.0303130839020013809 -0.188299372792243958
0.304741024971008301 -0.126633703708648682 -0.107871964573860168
-0.38498002290725708 -0.0561377890408039093 0.100835435092449188
-0.603119254112243652 0.259249687194824219 0.0176636595278978348
-0.460510790348052979 0.305937349796295166 0.081397518515586853
0.505058050155639648 -0.264149725437164307 -0.108765289187431335
0.534788608551025391 -0.192580178380012512 0.0291463788598775864
-0.616066217422485352 0.210175469517707825 -0.0558903887867927551
0.452787876129150391 -0.123818837106227875 0.089816659688949585
0.0338840894401073456 -0.279807686805725098 -0.0355444326996803284
0.402206927537918091 -0.319051295518875122 0.131339475512504578
-0.0935483723878860474 0.0736259222030639648 0.293379545211791992
0.243506163358688354 -0.137005805969238281 0.0115083465352654457
0.161645948886871338 -0.271792352199554443 0.0442166253924369812
-0.590432584285736084 0.368836075067520142 0.0904122292995452881
0.0273760892450809479 -0.0120064634829759598 0.0282344594597816467
0.196129024028778076 0.0337502770125865936 0.178489595651626587
-0.305983394384384155 -0.0918416604399681091 0.305609911680221558
0.493891417980194092 -0.367067694664001465 0.0202883630990982056
0.521781682968139648 -0.311627626419067383 0.0464969761669635773
0.502828657627105713 -0.153709158301353455 0.119423545897006989
0.0811210647225379944 -0.272315084934234619 -0.0592263415455818176
-0.325273126363754272 -0.103648535907268524 0.088595956563949585
-0.586044847965240479 0.334501296281814575 0.0187969636172056198
-0.0736214667558670044 -0.236113429069519043 0.301819503307342529
0.1946135014295578 -0.340117037296295166 -0.0619664900004863739
-0.39868009090423584 0.271688938140869141 -0.0543860457837581635
-0.521622180938720703 0.0437609143555164337 -0.0574997961521148682
-0.257575005292892456 0.141832694411277771 0.0915230438113212585
-0.213339745998382568 -0.136109724640846252 -0.0630348920822143555
0.508707344532012939 -0.104882717132568359 0.144744783639907837
0.214410260319709778 -0.279879122972488403 -0.00890844874083995819
0.238443538546562195 -0.0762914195656776428 0.127249628305435181
-0.140124484896659851 0.296208173036575317 0.148040920495986938
-0.655861496925354004 0.171172842383384705 -0.112222529947757721
0.253650456666946411 -0.00968849658966064453 0.250298261642456055
0.250519156455993652 -0.179075896739959717 0.303019225597381592
-0.262878000736236572 -0.137379691004753113 -0.0674456506967544556
-0.200524047017097473 0.314016908407211304 0.0991776958107948303
0.258020550012588501 -0.278286874294281006 0.323336094617843628
0.17914387583732605 -0.0542761348187923431 -0.050594378262758255
-0.443168491125106812 -0.0670873820781707764 0.129255682229995728
-0.503660142421722412 0.029642891138792038 0.247320935130119324
-0.496902436017990112 0.0361191220581531525 -0.0114559261128306389
0.232970893383026123 0.0225852169096469879 0.314373135566711426
-0.371233999729156494 -0.0461901873350143433 0.143542394042015076
-0.34872785210609436 0.106147222220897675 0.0661977380514144897
0.307843238115310669 -0.199023544788360596 0.243269428610801697
0.308685660362243652 -0.0057256682775914669 0.219954639673233032
-0.442593187093734741 0.266210585832595825 -0.0370337776839733124
0.517266452312469482 -0.326730549335479736 -0.0808157771825790405
-0.5386238694190979 0.138103142380714417 -0.0969255417585372925
0.465945303440093994 -0.124594666063785553 0.00248124287463724613
-0.385131746530532837 0.254943788051605225 0.0329849459230899811
0.494095146656036377 -0.302113831043243408 0.121561087667942047
0.465494781732559204 -0.106346145272254944 0.060065094381570816
0.20404459536075592 0.014989832416176796 -0.041796267032623291
-0.224290058016777039 0.295381367206573486 0.158883929252624512
-0.124849095940589905 -0.049306035041809082 0.0111687267199158669
-0.231453254818916321 0.227991014719009399 0.348312675952911377
-0.380628824234008789 -0.0547507107257843018 0.145653679966926575
0.341461330652236938 -0.0739387869834899902 0.0481480620801448822
-0.435785025358200073 -0.01264164038002491 0.0342714451253414154
0.205711662769317627 0.0164073612540960312 0.0708063095808029175
0.0565532967448234558 -0.0862634778022766113 0.2395600825548172
-0.383717507123947144 -0.0599363557994365692 0.116769835352897644
-0.136514917016029358 -0.265169829130172729 -0.000954681308940052986
-0.243504777550697327 0.0631518959999084473 0.245019704103469849
-0.541921496391296387 0.210468441247940063 0.162949204444885254
-0.590531647205352783 0.286827236413955688 -0.00701894611120223999
0.307244718074798584 0.0174390990287065506 0.0433399863541126251
0.47864726185798645 -0.314894497394561768 -0.304806560277938843
0.503923594951629639 -0.345690071582794189 -0.0632297918200492859
0.471842557191848755 -0.305327743291854858 0.115578450262546539
0.527274608612060547 -0.303047806024551392 -0.108802430331707001
-0.402628690004348755 0.311085939407348633 0.134899049997329712
0.518067419528961182 -0.251398384571075439 -0.306787669658660889
0.507752597332000732 -0.329179048538208008 -0.314170271158218384
0.519003808498382568 -0.331538587808609009 0.0921254530549049377
0.477530300617218018 -0.304364651441574097 -0.30244031548500061
0.527731597423553467 -0.285788238048553467 -0.107415303587913513
-0.559725940227508545 0.266820371150970459 0.365786284208297729
-0.639940440654754639 0.289238065481185913 0.0854230523109436035
0.371638864278793335 -0.401284486055374146 -0.216962575912475586
-0.44957435131072998 -0.00145945569965988398 0.175295129418373108
0.176783531904220581 0.0727317482233047485 0.0070788506418466568
-0.453352600336074829 0.134336009621620178 -0.213367760181427002
0.403357237577438354 -0.336057215929031372 0.129479661583900452
-0.598694562911987305 0.20703376829624176 0.00108272559009492397
0.247852548956871033 -0.114698618650436401 -0.070314943790435791
-0.482950389385223389 0.182380333542823792 -0.209773927927017212
-0.375887095928192139 -0.0634806901216506958 0.0919096171855926514
0.523103415966033936 -0.321125060319900513 0.0364306941628456116
0.542583882808685303 -0.217567488551139832 0.108807198703289032
0.525913357734680176 -0.273694247007369995 0.05587044358253479
0.11156095564365387 0.0837680399417877197 0.317592650651931763
-0.350640565156936646 -0.0482769757509231567 0.0452331490814685822
0.105483762919902802 0.0719107910990715027 0.295830994844436646
-0.164951324462890625 0.132661834359169006 0.151609420776367188
0.502961397171020508 -0.256624460220336914 -0.101882226765155792
0.429173588752746582 -0.304044812917709351 0.136461526155471802
-0.355463951826095581 -0.101811334490776062 0.159241378307342529
0.498820900917053223 -0.201760232448577881 -0.107332929968833923
-0.578190982341766357 0.347702562808990479 0.152361363172531128
0.105416275560855865 -0.0117579251527786255 0.0215749666094779968
-0.340952128171920776 -0.123741962015628815 0.104802593588829041
-0.120384089648723602 -0.275969505310058594 0.17429119348526001
-0.160791397094726562 0.166896000504493713 0.325389266014099121
0.515217125415802002 -0.358757376670837402 0.0273593869060277939
0.521249771118164062 -0.287732571363449097 -0.0111016631126403809
0.479099839925765991 -0.140134647488594055 0.108201734721660614
-0.180518656969070435 0.0289599355310201645 0.0262096915394067764
-0.341668039560317993 -0.121963284909725189 0.10394604504108429
-0.599894285202026367 0.376415401697158813 0.188611507415771484
-0.119378991425037384 -0.267081916332244873 0.218536406755447388
0.523656368255615234 -0.308969616889953613 -0.0742022693157196045
0.516514003276824951 -0.252211838960647583 -0.30891108512878418
0.455197542905807495 -0.308315008878707886 -0.293856531381607056
0.240950644016265869 -0.0961807295680046082 0.159102395176887512
-0.619906306266784668 0.27190735936164856 0.0374505147337913513
-0.429646968841552734 -0.00420159241184592247 0.177533462643623352
-0.250078707933425903 -0.137148797512054443 -0.0708238184452056885
0.31762126088142395 -0.319165050983428955 0.123040586709976196
0.539515852928161621 -0.249887421727180481 0.107186459004878998
0.452952921390533447 -0.139928624033927917 0.0160223841667175293
0.429609328508377075 -0.321192234754562378 0.124251239001750946
0.413545668125152588 -0.330907911062240601 -0.209204480051994324
0.47404131293296814 -0.1287117600440979 0.110088057816028595
-0.54863971471786499 0.378197580575942993 0.17281787097454071
0.190873265266418457 -0.339978516101837158 -0.0128641305491328239
-0.201348647475242615 -0.135662749409675598 -0.0681536644697189331
-0.185157939791679382 0.311737239360809326 0.118167534470558167
0.103742696344852448 0.107475534081459045 0.174853861331939697
-0.444015592336654663 -0.0546505823731422424 0.0920801311731338501
-0.48905479907989502 0.0297435745596885681 0.0171200893819332123
0.231743499636650085 0.0107888253405690193 0.315448373556137085
-0.0242980960756540298 0.112855836749076843 0.312758743762969971
0.243606135249137878 -0.0388258509337902069 0.205121785402297974
-0.384480953216552734 0.244960024952888489 0.034576714038848877
-0.653738737106323242 0.216442108154296875 -0.0389296039938926697
0.483215659856796265 -0.116376064717769623 0.0240511447191238403
0.122585952281951904 0.0792840868234634399 0.138992875814437866
-0.381593793630599976 -0.0729151442646980286 0.0958530455827713013
0.320008128881454468 -0.0725054889917373657 0.0629622489213943481
-0.440328031778335571 -0.0119634885340929031 0.00712501909583806992
-0.501835167407989502 0.233360663056373596 -0.0707936510443687439
-0.546906054019927979 0.203134119510650635 -0.0681913718581199646
0.088994935154914856 0.0914672836661338806 0.080476127564907074
-0.519533693790435791 0.20422440767288208 -0.0468529388308525085
-0.167838558554649353 0.0720600932836532593 0.232766509056091309
-0.0569403208792209625 -0.187054559588432312 0.0271499212831258774
-0.212104722857475281 0.290428698062896729 0.109418332576751709
0.249989628791809082 -0.00557219609618186951 0.0228945892304182053
-0.555459022521972656 0.204010456800460815 0.118621356785297394
-0.456968605518341064 0.216073811054229736 0.0248222816735506058
-0.462255477905273438 0.266117751598358154 -0.00243135774508118629
-0.575095236301422119 0.247288808226585388 -0.0761132761836051941
-0.388968765735626221 0.274784445762634277 -0.0838081836700439453
0.344086825847625732 -0.134860485792160034 0.319294393062591553
-0.49825209379196167 0.206489890813827515 -0.0113093219697475433
-0.345599532127380371 0.29248732328414917 -0.0498194955289363861
0.526214182376861572 -0.361186802387237549 0.0422568656504154205
-0.539621233940124512 0.21475452184677124 0.201306790113449097
-0.568950653076171875 0.294047355651855469 -0.00282340263947844505
0.316915154457092285 0.023563094437122345 0.0493274740874767303
0.482263684272766113 -0.30704006552696228 -0.303111225366592407
0.479949891567230225 -0.326451629400253296 0.125847682356834412
0.523424744606018066 -0.307101517915725708 -0.0981914624571800232
0.49061468243598938 -0.310808628797531128 -0.306874722242355347
0.516453444957733154 -0.325174778699874878 0.12031177431344986
0.444808095693588257 -0.300234347581863403 -0.290094375610351562
0.523441553115844727 -0.304652780294418335 -0.0968538373708724976
0.13463139533996582 0.116084679961204529 0.337450116872787476
-0.642077803611755371 0.242290958762168884 -0.00912566669285297394
-0.292283952236175537 -0.114126108586788177 -0.105396516621112823
0.539451956748962402 -0.255622833967208862 0.0926877632737159729
0.129499882459640503 0.0972990170121192932 0.317724883556365967
-0.234875500202178955 -0.143786042928695679 -0.0710541382431983948
0.25278860330581665 0.0298978891223669052 -0.0853667110204696655
0.53118443489074707 -0.323264360427856445 0.00732329487800598145
-0.599035739898681641 0.306994527578353882 0.104768641293048859
0.532309830188751221 -0.244795218110084534 0.0870446562767028809
-0.373771905899047852 -0.0611776299774646759 0.092570178210735321
0.526786327362060547 -0.275412112474441528 -0.122722722589969635
-0.500874340534210205 0.148312181234359741 0.353249341249465942
0.385452538728713989 -0.297792643308639526 0.132301077246665955
0.133089900016784668 -0.33213430643081665 -0.100029744207859039
0.522991001605987549 -0.354983776807785034 -0.0144432960078120232
-0.436149835586547852 0.150173872709274292 -0.0846906378865242004
0.515991151332855225 -0.300241142511367798 0.0651954486966133118
0.393387585878372192 -0.367945969104766846 -0.213164463639259338
0.50075221061706543 -0.171612322330474854 0.13054773211479187
0.533455371856689453 -0.334137469530105591 0.0288746822625398636
-0.579599559307098389 0.34850388765335083 0.0405863150954246521
0.520193397998809814 -0.240971148014068604 -0.308152049779891968
-0.600705742835998535 0.370272189378738403 0.104930907487869263
-0.50037616491317749 0.146683275699615479 0.355453610420227051
0.234301283955574036 -0.278072208166122437 0.317720770835876465
-0.180988118052482605 -0.137285768985748291 -0.0553097613155841827
-0.228035211563110352 -0.138251557946205139 -0.0532208681106567383
-0.203909784555435181 0.298030257225036621 0.126994132995605469
0.262851327657699585 -0.289876997470855713 0.324023008346557617
-0.361989736557006836 -0.0308920405805110931 0.119788296520709991
-0.499836325645446777 0.0190865639597177505 0.0321519188582897186
0.243220597505569458 -0.000129920168546959758 0.322691738605499268
0.141690731048583984 -0.290665000677108765 0.312017738819122314
0.308419317007064819 -0.207738965749740601 0.248603492975234985
-0.385790467262268066 0.254483669996261597 0.0346291065216064453
0.531327903270721436 -0.262414246797561646 0.1034107506275177
0.224445387721061707 0.0225076396018266678 0.305847644805908203
0.530794978141784668 -0.147444963455200195 -0.307653039693832397
-0.644589006900787354 0.231085047125816345 -0.0471618399024009705
0.541487216949462891 -0.31105351448059082 -0.0439463034272193909
0.508036792278289795 -0.267789244651794434 -0.31093752384185791
0.514522850513458252 -0.316143333911895752 -0.294545799493789673
0.459090977907180786 -0.290911406278610229 -0.296020269393920898
-0.542813956737518311 0.267883867025375366 -0.189007982611656189
-0.621145188808441162 0.288650691509246826 0.0669584795832633972
0.363771766424179077 -0.384277582168579102 -0.20558910071849823
-0.0920914933085441589 0.26694139838218689 0.189635619521141052
-0.448166072368621826 0.131048634648323059 -0.208472877740859985
-0.575163960456848145 0.203516080975532532 -0.126756384968757629
-0.629799544811248779 0.19143657386302948 -0.0395907275378704071
-0.469477206468582153 0.13870866596698761 -0.230778083205223083
0.258012473583221436 -0.0171765591949224472 -0.0715722367167472839
0.230883657932281494 0.053734123706817627 -0.0446523167192935944
0.113463208079338074 0.109497815370559692 0.301985234022140503
-0.583834588527679443 0.2181730717420578 -0.221117421984672546
-0.597932219505310059 0.234943762421607971 -0.0104735130444169044
-0.366739124059677124 -0.0920472145080566406 0.123025573790073395
-0.329721152782440186 -0.125668644905090332 0.137468457221984863
-0.634329080581665039 0.199355378746986389 -0.0380067825317382812
-0.425422698259353638 -0.0552231408655643463 0.0994406417012214661
-0.47780686616897583 0.0198629889637231827 -0.036286868155002594
0.209040075540542603 0.00837797392159700394 0.301215976476669312
-0.633905470371246338 0.247815787792205811 -0.00569892488420009613
-0.127670109272003174 0.269598543643951416 0.132524505257606506
0.271401762962341309 -0.330429345369338989 0.180480301380157471
0.53324735164642334 -0.210180729627609253 -0.0983354151248931885
-0.126115977764129639 -0.112838298082351685 -0.0545007027685642242
0.454407274723052979 -0.338880926370620728 -0.297557801008224487
-0.212274417281150818 0.0360044911503791809 -0.0593703426420688629
-0.552922248840332031 0.175485149025917053 0.0130789251998066902
-0.198179095983505249 0.139368817210197449 0.0214464236050844193
-0.0121812643483281136 -0.102667279541492462 -0.0426065623760223389
0.265080690383911133 -0.275051623582839966 0.202825993299484253
0.348981708288192749 -0.321161419153213501 0.000430838554166257381
-0.155590921640396118 0.0695554912090301514 0.0278426539152860641
-0.24887441098690033 0.130536198616027832 -0.0341350845992565155
0.199499234557151794 0.00155737006571143866 0.0195344239473342896
0.0767490044236183167 0.0807102322578430176 0.0243532080203294754
-0.283090472221374512 0.287991255521774292 -0.00564558152109384537
0.477157950401306152 -0.28979840874671936 -0.301179349422454834
-0.556599795818328857 0.265483647584915161 -0.0169626027345657349
-0.237062841653823853 0.0973897501826286316 -0.0321502462029457092
0.138206541538238525 -0.281004756689071655 0.150389447808265686
0.2966938316822052 -0.297464430332183838 0.0573544204235076904
-0.285706311464309692 0.256977856159210205 0.000831444573123008013
-0.0206862092018127441 -0.0405456945300102234 0.0893111675977706909
0.204874113202095032 0.0426348783075809479 0.0661499500274658203
-0.143388912081718445 -0.08541068434715271 0.0919664725661277771
0.372800737619400024 -0.0734452679753303528 0.0320643596351146698
0.521554172039031982 -0.199119269847869873 -0.0980219542980194092
0.487299501895904541 -0.297799915075302124 -0.304842561483383179
0.480670273303985596 -0.314910799264907837 0.122747577726840973
0.51380622386932373 -0.307211369276046753 -0.101937800645828247
0.496220558881759644 -0.309431761503219604 -0.309216439723968506
0.506375014781951904 -0.327869266271591187 -0.00367259164340794086
0.511956334114074707 -0.324610382318496704 0.118776500225067139
0.466090679168701172 -0.288699030876159668 -0.296031683683395386
0.438215553760528564 -0.263419300317764282 -0.193785205483436584
0.135438621044158936 0.116732299327850342 0.337366372346878052
0.396817624568939209 -0.244462445378303528 0.31913420557975769
-0.601375579833984375 0.354044258594512939 0.065824165940284729
-0.504959404468536377 0.356878846883773804 0.178526431322097778
0.542826712131500244 -0.282575905323028564 0.098349645733833313
0.256731569766998291 0.0368547923862934113 -0.071568511426448822
-0.232874274253845215 0.155727297067642212 -0.00499061634764075279
0.50636601448059082 -0.332037121057510376 -0.00209654262289404869
0.445015221834182739 -0.24999825656414032 -0.227497771382331848
-0.638916969299316406 0.254286795854568481 0.054850943386554718
0.532804727554321289 -0.262746691703796387 0.0936727225780487061
-0.392956823110580444 -0.0595527701079845428 0.10062573105096817
0.524100780487060547 -0.289678901433944702 -0.0916337668895721436
0.0283176768571138382 -0.274293392896652222 -0.0350092276930809021
0.385417461395263672 -0.306123346090316772 0.119230501353740692
-0.582059383392333984 0.366566717624664307 0.131979748606681824
0.240531072020530701 0.00283477990888059139 0.181529432535171509
-0.112746380269527435 0.165219053626060486 0.347736090421676636
0.482401281595230103 -0.368401706218719482 -0.0216160193085670471
0.412469953298568726 -0.321150034666061401 -0.210537686944007874
0.507471799850463867 -0.155574202537536621 0.124468259513378143
0.529008328914642334 -0.334767520427703857 0.0132511621341109276
-0.584000825881958008 0.336188673973083496 0.0344124697148799896
-0.590634942054748535 0.381668359041213989 0.131540194153785706
0.526483654975891113 -0.244330018758773804 -0.31012919545173645
0.47462773323059082 -0.290719717741012573 -0.298929721117019653
-0.597104430198669434 0.353443533182144165 0.169927850365638733
-0.587225437164306641 0.371212601661682129 0.101397119462490082
-0.211844876408576965 -0.12975795567035675 -0.0574380643665790558
0.234631314873695374 -0.293164968490600586 0.315287590026855469
0.23833291232585907 0.0670042484998703003 0.320449560880661011
0.542042791843414307 -0.313889652490615845 -0.0576663501560688019
-0.444570153951644897 -0.0486861243844032288 0.127270370721817017
0.359811276197433472 -0.388354837894439697 -0.208537399768829346
-0.556438088417053223 0.210967779159545898 -0.113330096006393433
0.521004259586334229 -0.279564857482910156 -0.176630422472953796
0.242194727063179016 0.0346505828201770782 0.314925730228424072
0.243050560355186462 0.000411157874623313546 0.0241217613220214844
0.380905628204345703 0.0388562008738517761 0.0124221211299300194
0.526954114437103271 -0.230627745389938354 -0.309632092714309692
0.327235549688339233 0.0962057486176490784 -0.0353795364499092102
-0.374087601900100708 -0.0604673251509666443 -0.132649973034858704
0.513096928596496582 -0.167578026652336121 0.136353716254234314
-0.574374914169311523 0.321783483028411865 0.0497737899422645569
-0.558907389640808105 0.283135145902633667 0.364324599504470825
0.224719837307929993 0.031947791576385498 -0.0577086843550205231
-0.574220478534698486 0.214486509561538696 -0.220753327012062073
-0.0440184995532035828 0.156436532735824585 0.0815431326627731323
0.114381410181522369 0.109996609389781952 0.0258732903748750687
0.342993438243865967 -0.246989130973815918 -0.0964047014713287354
-0.284885615110397339 0.300202012062072754 -0.00254386081360280514
0.153598174452781677 -0.0044151991605758667 -0.00313973822630941868
0.0693474188446998596 0.138750255107879639 0.0760471448302268982
-0.269871950149536133 0.279954344034194946 0.00198636110872030258
0.503552496433258057 -0.292616367340087891 -0.158872306346893311
0.137266039848327637 -0.0258521921932697296 0.013528214767575264
-0.338887602090835571 -0.032241377979516983 0.0230302680283784866
0.373614490032196045 -0.0918416976928710938 0.0447704531252384186
0.200217679142951965 0.101233109831809998 -0.00133573287166655064
-0.29711383581161499 -0.0252684243023395538 0.0361726023256778717
0.132068708539009094 -0.017837846651673317 -0.0256676729768514633
0.101701267063617706 0.0159807577729225159 0.0916030481457710266
0.175956994295120239 0.119329683482646942 0.0384813211858272552
-0.230327680706977844 -0.0639021396636962891 0.10487733781337738
0.486283451318740845 -0.296662986278533936 -0.303069919347763062
-0.603081822395324707 0.289256274700164795 0.185377031564712524
0.46739649772644043 -0.308788537979125977 0.120507307350635529
0.378477513790130615 -0.0144471488893032074 0.00690260808914899826
0.514553427696228027 -0.29534459114074707 -0.103026688098907471
0.519026875495910645 -0.239719301462173462 -0.307133257389068604
0.478123873472213745 -0.309730440378189087 -0.299828022718429565
0.483585953712463379 -0.274513125419616699 -0.299445092678070068
0.117507316172122955 0.118626132607460022 0.297934591770172119
-0.584077179431915283 0.356103837490081787 0.0660408586263656616
0.383971065282821655 -0.337415963411331177 0.125911906361579895
-0.574348092079162598 0.317466169595718384 -0.026297885924577713
-0.604328572750091553 0.216938555240631104 -0.0866291522979736328
0.267999053001403809 0.0392576716840267181 -0.0857546329498291016
-0.356257170438766479 -0.0223805997520685196 -0.130927398800849915
-0.564156472682952881 0.314088702201843262 -0.00765944924205541611
0.19093833863735199 -0.340891003608703613 -0.074401460587978363
0.404405653476715088 -0.357637852430343628 -0.223598524928092957
-0.500124931335449219 0.145267367362976074 0.354797303676605225
0.509771525859832764 -0.151532649993896484 0.115444406867027283
0.497044801712036133 -0.263921976089477539 -0.303929746150970459
0.458178669214248657 -0.280874192714691162 -0.289280980825424194
0.441150128841400146 -0.264955997467041016 -0.283237367868423462
-0.587893962860107422 0.357210159301757812 0.0619565173983573914
0.505376458168029785 -0.126852318644523621 0.124868325889110565
-0.206011265516281128 0.312196820974349976 0.108983688056468964
0.268439918756484985 -0.28418886661529541 0.319486081600189209
0.232822731137275696 0.00340758613310754299 0.318213164806365967
0.513432741165161133 -0.175666362047195435 -0.281273961067199707
-0.114969216287136078 0.00971781089901924133 0.006200405303388834
0.404137849807739258 -0.359666615724563599 -0.224222317337989807
0.417838633060455322 -0.313351958990097046 0.144172146916389465
-0.555371522903442383 0.376197248697280884 0.186972513794898987
-0.175420776009559631 0.30887719988822937 0.11867157369852066
-0.389564752578735352 0.275756001472473145 -0.0848096013069152832
0.365475326776504517 0.0517876483500003815 0.0251212920993566513
0.129470720887184143 0.115522891283035278 0.319164395332336426
-0.286319971084594727 -0.100802764296531677 -0.09183540940284729
0.258382439613342285 0.100869074463844299 -0.0615246444940567017
-0.36109691858291626 -0.0600194372236728668 -0.143909350037574768
0.134417399764060974 0.113483086228370667 0.338108927011489868
-0.562989771366119385 0.199143260717391968 -0.22873377799987793
-0.276201158761978149 0.287719786167144775 -0.000643632432911545038
0.455098062753677368 -0.246446102857589722 -0.287820935249328613
0.460441052913665771 -0.275405377149581909 -0.290347278118133545
-0.634738326072692871 0.307897359132766724 0.170594125986099243
0.512680113315582275 -0.317525148391723633 -0.0381361804902553558
0.469143569469451904 -0.26580318808555603 -0.297476232051849365
0.478355139493942261 -0.29502183198928833 -0.299758285284042358
0.458353787660598755 -0.246229484677314758 -0.289392411708831787
0.381382226943969727 -0.361003637313842773 -0.213413804769515991
-0.479293137788772583 -0.0128738069906830788 0.186009928584098816
-0.516333460807800293 0.365457415580749512 0.174232453107833862
-0.618412971496582031 0.201835528016090393 -0.0868903994560241699
-0.237079694867134094 0.0185997430235147476 -0.0722802132368087769
-0.382416844367980957 -0.0593075454235076904 0.0239021945744752884
0.475083410739898682 -0.368406236171722412 0.0222478657960891724
-0.649135947227478027 0.236537307500839233 0.0324863344430923462
0.412826359272003174 -0.346736371517181396 -0.221193000674247742
0.526259005069732666 -0.33722376823425293 0.0804860740900039673
0.506226778030395508 -0.23901917040348053 -0.307591050863265991
0.249797448515892029 -0.282375425100326538 0.31853523850440979
0.239488452672958374 0.0664357393980026245 0.314996153116226196
0.539759516716003418 -0.301878154277801514 -0.0932170525193214417
-0.447725653648376465 -0.0416890159249305725 0.126704484224319458
-0.0435575135052204132 0.104225121438503265 0.318033605813980103
0.248247697949409485 0.020895540714263916 0.322553247213363647
