ply
format ascii 1.0
element vertex 738
property float x
property float y
property float z
end_header
-0.382128119468688965 0.104183055460453033 -0.0630429834127426147
0.551612973213195801 -0.22008967399597168 0.11463010311126709
0.383974581956863403 -0.242467969655990601 0.314205795526504517
-0.552654385566711426 0.163316994905471802 0.0800741463899612427
-0.13431626558303833 0.20153529942035675 0.168761521577835083
0.242486163973808289 0.109965130686759949 -0.0487535856664180756
0.116811767220497131 0.0398061946034431458 0.328525781631469727
-0.559081673622131348 0.278212219476699829 0.00269689597189426422
0.320150107145309448 -0.132748395204544067 -0.0795131400227546692
-0.574896693229675293 0.200537621974945068 -0.225758016109466553
0.208055198192596436 0.117991499602794647 0.0454723089933395386
0.463982194662094116 -0.308224081993103027 0.135091468691825867
-0.58525395393371582 0.319940298795700073 -0.0246119797229766846
0.530606508255004883 -0.253412455320358276 0.0985714495182037354
-0.309624046087265015 0.082678474485874176 -0.071983829140663147
-0.449356883764266968 0.00865643378347158432 -0.13989490270614624
-0.301062345504760742 0.290903598070144653 0.146726995706558228
-0.526308596134185791 0.181819170713424683 -0.215042039752006531
-0.39143747091293335 -0.058461066335439682 0.101137265563011169
-0.545219361782073975 0.262998819351196289 -0.164494574069976807
0.314047664403915405 -0.334084004163742065 0.198079556226730347
-0.0594960674643516541 0.0940192416310310364 0.321606934070587158
-0.101470932364463806 0.143856361508369446 0.0938711538910865784
0.499974876642227173 -0.362782984972000122 0.0766920521855354309
0.349221885204315186 -0.282808363437652588 -0.134729936718940735
-0.412207275629043579 0.198279991745948792 0.0367208458483219147
-0.345014363527297974 0.251889884471893311 -0.0131305456161499023
-0.267261117696762085 0.0791010409593582153 -0.0143137825652956963
-0.180510446429252625 0.0187497828155755997 0.039950937032699585
-0.553209424018859863 0.212839394807815552 -0.047134842723608017
0.408063590526580811 -0.400778532028198242 -0.215361520648002625
0.517817795276641846 -0.285108238458633423 -0.0999265238642692566
0.395502835512161255 -0.264358043670654297 -0.193398743867874146
0.498067855834960938 -0.27417147159576416 -0.300431042909622192
0.434752732515335083 -0.257199406623840332 -0.00151581468526273966
-0.15404374897480011 -0.243982970714569092 0.149234741926193237
-0.629924476146697998 0.194612085819244385 -0.0474571697413921356
-0.354727745056152344 0.000578495615627616644 -0.150842949748039246
-0.500863432884216309 0.146463304758071899 0.346647024154663086
-0.331475049257278442 0.299938052892684937 0.191480100154876709
-0.334340453147888184 -0.031424790620803833 -0.131980106234550476
0.113362312316894531 0.0954945310950279236 0.0296122748404741287
0.470264047384262085 -0.134883254766464233 0.0998367145657539368
0.399273067712783813 -0.304867357015609741 0.145548716187477112
-0.45704805850982666 0.167814746499061584 0.117181740701198578
-0.53612208366394043 0.287521988153457642 0.0424374528229236603
-0.275977045297622681 -0.127471297979354858 0.0823018401861190796
-0.482830971479415894 0.249328926205635071 -0.102639444172382355
0.171521097421646118 -0.271927982568740845 0.0369679294526576996
-0.344433307647705078 0.103647217154502869 0.00691593391820788383
-0.365822345018386841 0.283161729574203491 0.0874249190092086792
0.386802524328231812 -0.229900375008583069 -0.121400661766529083
-0.352832287549972534 0.00263142888434231281 0.0356683172285556793
-0.517842531204223633 0.202201113104820251 0.0495247207581996918
-0.384780377149581909 0.183041810989379883 0.0925890058279037476
-0.571595966815948486 0.328370004892349243 -0.0113166831433773041
-0.338787645101547241 -0.0875648930668830872 -0.0535786449909210205
-0.136516645550727844 -0.268876224756240845 0.13075689971446991
0.275343567132949829 -0.165735438466072083 0.0553836971521377563
0.313462406396865845 -0.302492231130599976 -0.128005817532539368
-0.38104584813117981 0.250513166189193726 0.233878403902053833
0.311079204082489014 -0.217026233673095703 0.201622739434242249
0.49655681848526001 -0.254849344491958618 -0.105045996606349945
-0.118697844445705414 0.0727090165019035339 0.174057334661483765
0.512738704681396484 -0.36187291145324707 -0.0302993264049291611
-0.5089569091796875 0.26923835277557373 -0.00456793839111924171
-0.594969511032104492 0.244126453995704651 -0.0023545676376670599
-0.586091756820678711 0.251220941543579102 0.194739237427711487
-0.547533750534057617 0.121471740305423737 -0.133823558688163757
-0.24467940628528595 0.182919234037399292 0.357452541589736938
0.462684541940689087 -0.264105260372161865 -0.289990335702896118
0.456399500370025635 -0.25585445761680603 -0.186513543128967285
0.51962578296661377 -0.30274161696434021 0.0449617058038711548
-0.625453770160675049 0.200445219874382019 0.0453092940151691437
-0.255530834197998047 -0.00450213160365819931 -0.0617468282580375671
0.245748817920684814 0.0990705564618110657 -0.0686009824275970459
0.505162596702575684 -0.159875988960266113 0.131321415305137634
0.34345245361328125 -0.0699357390403747559 0.162489652633666992
0.400168180465698242 -0.237015604972839355 0.130781650543212891
-0.35935056209564209 -0.118628233671188354 0.11696595698595047
-0.478837370872497559 0.18980000913143158 0.0644205138087272644
-0.57448655366897583 0.342201292514801025 0.0256870593875646591
-0.358743131160736084 -0.0631717965006828308 0.0913399457931518555
-0.34252581000328064 0.0117976237088441849 -0.113974876701831818
0.303403079509735107 -0.29577752947807312 0.162518143653869629
-0.504451096057891846 0.221152558922767639 0.142386883497238159
-0.484952062368392944 0.0285998620092868805 -0.046450592577457428
0.033490058034658432 0.0880240648984909058 0.0882607400417327881
-0.231338173151016235 0.347384899854660034 0.149334356188774109
0.0322318784892559052 0.010576372966170311 0.0424779579043388367
-0.36547282338142395 -0.0365685410797595978 -0.0322881340980529785
-0.0476603768765926361 -0.234107464551925659 0.302201777696609497
0.186284765601158142 -0.292788505554199219 0.00410750601440668106
0.235045537352561951 -0.0115502104163169861 0.230689734220504761
-0.526259183883666992 0.140847682952880859 0.0684865638613700867
-0.52010267972946167 0.20161139965057373 -0.066950678825378418
-0.552066504955291748 0.285924673080444336 0.107995934784412384
0.14416918158531189 0.00782806426286697388 0.308234363794326782
0.0683285817503929138 -0.286092936992645264 -0.0810562893748283386
-0.361766934394836426 0.0354348123073577881 -0.160726785659790039
0.307715386152267456 -0.29362061619758606 0.029965568333864212
-0.33907628059387207 0.2136068195104599 0.159741714596748352
-0.187881812453269958 0.200205489993095398 0.368320345878601074
-0.539882898330688477 0.255073338747024536 -0.0836899057030677795
0.522801518440246582 -0.199650153517723083 -0.0922447368502616882
-0.51885455846786499 0.185521647334098816 0.13699592649936676
-0.543489694595336914 0.270186007022857666 -0.00197671819478273392
0.471355170011520386 -0.326272308826446533 0.0450355745851993561
0.289161473512649536 0.031010190024971962 0.054156966507434845
0.433527171611785889 -0.306085526943206787 -0.284679949283599854
-0.518422484397888184 0.0902108475565910339 -0.134650081396102905
-0.600417017936706543 0.285520076751708984 0.184483051300048828
0.467902719974517822 -0.321196287870407104 0.127826929092407227
0.46784442663192749 -0.260615020990371704 -0.293254196643829346
-0.403878599405288696 0.300738245248794556 0.143376946449279785
-0.454060882329940796 0.119645200669765472 -0.223476842045783997
0.481762468814849854 -0.311898529529571533 -0.302067428827285767
0.468434929847717285 -0.330753445625305176 -0.00257274089381098747
0.457508057355880737 -0.305335491895675659 -0.292008042335510254
0.52444612979888916 -0.262003093957901001 -0.101616561412811279
-0.408639997243881226 0.318845510482788086 0.16324634850025177
-0.560621142387390137 0.267763316631317139 0.365813404321670532
-0.575992703437805176 0.210766583681106567 -0.200396880507469177
0.447654306888580322 -0.296641498804092407 -0.222633719444274902
0.310723423957824707 -0.0762557536363601685 0.149244219064712524
0.534850001335144043 -0.24832037091255188 0.101619243621826172
-0.562416970729827881 0.119975648820400238 -0.23284129798412323
-0.408021152019500732 0.0768494457006454468 -0.116076841950416565
-0.579567193984985352 0.356577962636947632 0.0831114575266838074
0.0416771695017814636 0.114541426301002502 0.312776327133178711
-0.456469625234603882 0.00904202088713645935 0.182166308164596558
0.409743517637252808 -0.343979567289352417 0.160344049334526062
-0.554593801498413086 0.288704395294189453 -0.0487919077277183533
0.543352007865905762 -0.255977630615234375 0.114059619605541229
0.0243943501263856888 -0.249748289585113525 0.205460235476493835
0.195749819278717041 0.13004516065120697 0.0352522805333137512
0.315824717283248901 -0.370539069175720215 -0.156620979309082031
0.110920332372188568 0.059554319828748703 0.319467246532440186
-0.314756870269775391 0.306634426116943359 0.284721106290817261
-0.2542380690574646 -0.132575497031211853 -0.0727235153317451477
-0.386324644088745117 -0.0600448735058307648 0.106915973126888275
0.453374803066253662 -0.0727771744132041931 -0.11607014387845993
0.31622043251991272 -0.3331165611743927 0.196210905909538269
0.298004180192947388 0.0381537638604640961 0.0504597648978233337
0.476151555776596069 -0.331014901399612427 0.136802017688751221
0.44005584716796875 -0.267525762319564819 -0.281869292259216309
0.461700737476348877 -0.273100405931472778 0.138361409306526184
0.504291176795959473 -0.346435785293579102 0.017846936360001564
0.519181430339813232 -0.269594579935073853 -0.0867475941777229309
0.498898535966873169 -0.0881083682179450989 0.162208229303359985
0.542494356632232666 -0.215286031365394592 0.111245423555374146
-0.57698667049407959 0.327094048261642456 0.0809179618954658508
0.246882379055023193 0.111316271126270294 -0.0540471747517585754
0.03388199582695961 0.0684017613530158997 0.272950619459152222
-0.561951041221618652 0.275463372468948364 0.024410029873251915
-0.61386561393737793 0.27224433422088623 0.039004400372505188
0.535863637924194336 -0.23926582932472229 0.103275373578071594
-0.575943708419799805 0.212922185659408569 -0.116301693022251129
-0.424907505512237549 0.0308441780507564545 -0.188084930181503296
0.304784685373306274 -0.126435816287994385 -0.107967965304851532
-0.384941786527633667 -0.0555598065257072449 0.10115610808134079
-0.603167414665222168 0.25977855920791626 0.0178965218365192413
-0.46062314510345459 0.306526154279708862 0.0817330554127693176
0.505139529705047607 -0.263962358236312866 -0.108865715563297272
0.534838855266571045 -0.192382216453552246 0.0290776584297418594
-0.616093933582305908 0.210693195462226868 -0.0557035207748413086
0.452825158834457397 -0.123621232807636261 0.0897444635629653931
0.0339673757553100586 -0.279432624578475952 -0.0354292243719100952
0.402304857969284058 -0.318818330764770508 0.131309911608695984
-0.0935793519020080566 0.0740739181637763977 0.293664664030075073
0.243535235524177551 -0.136762663722038269 0.0114838471636176109
0.161727309226989746 -0.271478980779647827 0.0442689694464206696
-0.590509891510009766 0.369367748498916626 0.0907132625579833984
0.0273215081542730331 -0.0116555206477642059 0.0283399522304534912
0.196057319641113281 0.0340287312865257263 0.178560271859169006
-0.305851340293884277 -0.0912964120507240295 0.30595967173576355
0.493980258703231812 -0.36685943603515625 0.0202263407409191132
0.521855652332305908 -0.311415404081344604 0.0464481934905052185
0.502872228622436523 -0.153502240777015686 0.119372151792049408
0.0812046825885772705 -0.271972060203552246 -0.0591458752751350403
-0.32521703839302063 -0.103082925081253052 0.088901914656162262
-0.586116015911102295 0.33503308892250061 0.0190450474619865417
-0.0734392702579498291 -0.235658660531044006 0.302072793245315552
0.19471442699432373 -0.339838773012161255 -0.0619580261409282684
-0.398783951997756958 0.27227136492729187 -0.0541284345090389252
-0.521604418754577637 0.044300910085439682 -0.0572696365416049957
-0.257662087678909302 0.14237678050994873 0.0918101668357849121
-0.213286742568016052 -0.135618448257446289 -0.0628108158707618713
0.508733749389648438 -0.104676812887191772 0.144695818424224854
0.214494049549102783 -0.27960669994354248 -0.00890644174069166183
0.238441780209541321 -0.0760351195931434631 0.127268537878990173
-0.140308678150177002 0.296691656112670898 0.148345679044723511
-0.655868589878082275 0.171669900417327881 -0.112072557210922241
0.25363805890083313 -0.00942719262093305588 0.250350832939147949
0.25063931941986084 -0.178792193531990051 0.303085684776306152
-0.26281660795211792 -0.136864185333251953 -0.0672029182314872742
-0.200700744986534119 0.314532637596130371 0.0994820743799209595
0.258193284273147583 -0.278000414371490479 0.323403596878051758
0.179131418466567993 -0.0540167540311813354 -0.0506081096827983856
-0.443109005689620972 -0.066506601870059967 0.129586830735206604
-0.503613710403442383 0.0302173793315887451 0.247691139578819275
-0.496888846158981323 0.0366736836731433868 -0.0111971627920866013
0.23296038806438446 0.0228619370609521866 0.314454942941665649
-0.371195286512374878 -0.0456136502325534821 0.143877327442169189
-0.348783522844314575 0.106723889708518982 0.0664994120597839355
0.307942718267440796 -0.198757484555244446 0.24329550564289093
0.308666765689849854 -0.00548787461593747139 0.219966739416122437
-0.442685097455978394 0.266789823770523071 -0.0367738343775272369
0.517349481582641602 -0.326532602310180664 -0.0808959454298019409
-0.538637161254882812 0.13863837718963623 -0.096728101372718811
0.465988904237747192 -0.124411709606647491 0.0023763575591146946
-0.38524550199508667 0.255534440279006958 0.0332890041172504425
0.494178682565689087 -0.301892757415771484 0.121527247130870819
0.465525895357131958 -0.106155402958393097 0.0599791482090950012
0.203995063900947571 0.0152376666665077209 -0.0418276898562908173
-0.224451124668121338 0.295916587114334106 0.159234359860420227
-0.124861136078834534 -0.0488635562360286713 0.0113563146442174911
-0.231523528695106506 0.228539243340492249 0.348714351654052734
-0.380583584308624268 -0.0541721098124980927 0.145990505814552307
0.341470599174499512 -0.0737299099564552307 0.0480826646089553833
-0.435763388872146606 -0.0120724104344844818 0.0345629081130027771
0.205644577741622925 0.0166650060564279556 0.0708208903670310974
0.0565906167030334473 -0.0858942195773124695 0.239733800292015076
-0.383674830198287964 -0.0593573637306690216 0.11709633469581604
-0.136420831084251404 -0.264693468809127808 -0.000736791174858808517
-0.243510529398918152 0.063686855137348175 0.24535699188709259
-0.541966021060943604 0.211035743355751038 0.163291573524475098
-0.590591192245483398 0.287355929613113403 -0.00680031953379511833
0.307202965021133423 0.0176583863794803619 0.0432838127017021179
0.478760451078414917 -0.314719498157501221 -0.304945468902587891
0.504010021686553955 -0.345490992069244385 -0.0633076876401901245
0.471930354833602905 -0.305108815431594849 0.115537814795970917
0.527355670928955078 -0.302852481603622437 -0.108888916671276093
-0.402759164571762085 0.31168133020401001 0.135278582572937012
0.518171191215515137 -0.251220464706420898 -0.306929260492324829
0.50786292552947998 -0.328996092081069946 -0.314300745725631714
0.519082427024841309 -0.331318169832229614 0.0920918956398963928
0.477644532918930054 -0.304191887378692627 -0.302583217620849609
0.527810752391815186 -0.285594403743743896 -0.107504025101661682
-0.559737086296081543 0.267379045486450195 0.366199731826782227
-0.63998568058013916 0.289757817983627319 0.0856924653053283691
0.371752113103866577 -0.401100426912307739 -0.217070400714874268
-0.449543654918670654 -0.000875188270583748817 0.175649791955947876
0.176686614751815796 0.0730021148920059204 0.00708268443122506142
-0.453359514474868774 0.134874060750007629 -0.213179200887680054
0.403457939624786377 -0.335824191570281982 0.129450201988220215
-0.598726570606231689 0.207562923431396484 0.00130129570607095957
0.247880414128303528 -0.114472471177577972 -0.0703708156943321228
-0.482969820499420166 0.182925984263420105 -0.20959608256816864
-0.375847518444061279 -0.0629030987620353699 0.0922264158725738525
0.523178398609161377 -0.320913314819335938 0.0363803952932357788
0.542636752128601074 -0.217352136969566345 0.108772061765193939
0.525980472564697266 -0.273483574390411377 0.055821102112531662
0.111505478620529175 0.0841145813465118408 0.317767947912216187
-0.350614607334136963 -0.0477143526077270508 0.0455248318612575531
0.105424351990222931 0.0722587183117866516 0.296005904674530029
-0.165048331022262573 0.133153632283210754 0.151885762810707092
0.503041326999664307 -0.256437510251998901 -0.101982735097408295
0.429267674684524536 -0.30381542444229126 0.136430710554122925
-0.355392247438430786 -0.101233825087547302 0.15957951545715332
0.498894393444061279 -0.201581433415412903 -0.107447914779186249
-0.578265011310577393 0.34824720025062561 0.152703985571861267
0.105360433459281921 -0.0114539284259080887 0.0216314569115638733
-0.34088134765625 -0.123168952763080597 0.10511847585439682
-0.12024419754743576 -0.275478184223175049 0.174541518092155457
-0.160851776599884033 0.167400553822517395 0.325735330581665039
0.515298604965209961 -0.358545243740081787 0.0273074638098478317
0.521323263645172119 -0.287530809640884399 -0.0111703835427761078
0.479141712188720703 -0.139932602643966675 0.108140021562576294
-0.180561557412147522 0.029438430443406105 0.0264241136610507965
-0.341598361730575562 -0.12139013409614563 0.104261815547943115
-0.599963963031768799 0.376952111721038818 0.188971057534217834
-0.119220927357673645 -0.266594648361206055 0.218794628977775574
0.523735880851745605 -0.308771610260009766 -0.0742813572287559509
0.51661837100982666 -0.252034276723861694 -0.309053093194961548
0.455310970544815063 -0.308143794536590576 -0.293997585773468018
0.24096640944480896 -0.0959185212850570679 0.159133106470108032
-0.619953632354736328 0.272432267665863037 0.0376930870115756989
-0.429616421461105347 -0.00361797329969704151 0.177887812256813049
-0.250019103288650513 -0.136640101671218872 -0.0705867409706115723
0.317720919847488403 -0.318910747766494751 0.123032048344612122
0.539576590061187744 -0.249668851494789124 0.107154935598373413
0.452998965978622437 -0.139740079641342163 0.0159279815852642059
0.429704725742340088 -0.320964783430099487 0.124217160046100616
0.413651049137115479 -0.330729097127914429 -0.209323659539222717
0.474079787731170654 -0.128511428833007812 0.110023900866508484
-0.548729300498962402 0.378751754760742188 0.173191636800765991
0.190972164273262024 -0.339689075946807861 -0.0128427054733037949
-0.20129750669002533 -0.135178893804550171 -0.0679359585046768188
-0.185337468981742859 0.312245547771453857 0.118477635085582733
0.103612437844276428 0.107812859117984772 0.174995183944702148
-0.443967461585998535 -0.0540736131370067596 0.0923963636159896851
-0.489041000604629517 0.0303041823208332062 0.0173942185938358307
0.231741160154342651 0.0110653787851333618 0.315530151128768921
-0.0243629813194274902 0.11327660083770752 0.313019275665283203
0.243596896529197693 -0.038564581423997879 0.205166801810264587
-0.384590655565261841 0.245549961924552917 0.0348797999322414398
-0.653762221336364746 0.216951131820678711 -0.0387426652014255524
0.483253180980682373 -0.116191014647483826 0.0239530149847269058
0.122475564479827881 0.0796020999550819397 0.13909737765789032
-0.381548970937728882 -0.0723320543766021729 0.096173994243144989
0.320012450218200684 -0.0722889602184295654 0.0629113838076591492
-0.440305918455123901 -0.0113973319530487061 0.00740560609847307205
-0.50189507007598877 0.233919918537139893 -0.0705708339810371399
-0.546944975852966309 0.203674301505088806 -0.0679897964000701904
0.0888650789856910706 0.0917929559946060181 0.0805722698569297791
-0.519581377506256104 0.204778552055358887 -0.046626698225736618
-0.167872533202171326 0.0725522786378860474 0.233069002628326416
-0.0568886660039424896 -0.186629354953765869 0.0273246653378009796
-0.212271600961685181 0.290952771902084351 0.109726950526237488
0.24994957447052002 -0.00533784227445721626 0.0228611882776021957
-0.555499494075775146 0.204567000269889832 0.118931896984577179
-0.457045525312423706 0.2166576087474823 0.025109216570854187
-0.462349146604537964 0.266700923442840576 -0.00215494842268526554
-0.575141668319702148 0.247817888855934143 -0.0759240314364433289
-0.389077514410018921 0.275374412536621094 -0.0835567563772201538
0.344177216291427612 -0.13460695743560791 0.319320559501647949
-0.498310625553131104 0.207059100270271301 -0.0110552143305540085
-0.34572213888168335 0.293062031269073486 -0.0495629496872425079
0.526292562484741211 -0.360971033573150635 0.0422131270170211792
-0.539663136005401611 0.215325921773910522 0.201669633388519287
-0.569021224975585938 0.294580191373825073 -0.0026086452417075634
0.316872149705886841 0.0237813927233219147 0.0492692627012729645
0.482377082109451294 -0.30686575174331665 -0.303252160549163818
0.480040282011032104 -0.326227486133575439 0.125816211104393005
0.523506283760070801 -0.306905835866928101 -0.0982763469219207764
0.490726768970489502 -0.310631722211837769 -0.307012557983398438
0.516534805297851562 -0.324950128793716431 0.120286457240581512
0.44492042064666748 -0.300064504146575928 -0.290235817432403564
0.523522675037384033 -0.304457217454910278 -0.0969388037919998169
0.134565263986587524 0.116422750055789948 0.337617576122283936
-0.642111897468566895 0.242805495858192444 -0.00892057735472917557
-0.292227417230606079 -0.113605000078678131 -0.105157196521759033
0.539512813091278076 -0.255406409502029419 0.0926521122455596924
0.129436016082763672 0.097636982798576355 0.317889899015426636
-0.234814912080764771 -0.143284395337104797 -0.0708217620849609375
0.252751052379608154 0.0301214978098869324 -0.0854446962475776672
0.531258583068847656 -0.323055386543273926 0.00726760271936655045
-0.599097013473510742 0.307530462741851807 0.105066761374473572
0.532370328903198242 -0.244581609964370728 0.0870033130049705505
-0.373733639717102051 -0.0606009885668754578 0.0928866714239120483
0.526865899562835693 -0.27522045373916626 -0.122817113995552063
-0.500855028629302979 0.148895129561424255 0.353655785322189331
0.385546892881393433 -0.297557622194290161 0.132272437214851379
0.133192464709281921 -0.331825941801071167 -0.0999875515699386597
0.523071110248565674 -0.354776263236999512 -0.0145037602633237839
-0.436193108558654785 0.150741040706634521 -0.0844555944204330444
0.516065001487731934 -0.30002787709236145 0.0651491954922676086
0.393497645854949951 -0.367767035961151123 -0.213280797004699707
0.500803053379058838 -0.17140062153339386 0.130503147840499878
0.533529400825500488 -0.333924531936645508 0.0288268234580755234
-0.579675912857055664 0.349039137363433838 0.0408536866307258606
0.520296037197113037 -0.240793853998184204 -0.30829542875289917
-0.600779712200164795 0.370802789926528931 0.105237409472465515
-0.50035548210144043 0.147266089916229248 0.355860292911529541
0.234475776553153992 -0.277776986360549927 0.317801147699356079
-0.180940285325050354 -0.136810585856437683 -0.0550979748368263245
-0.227979332208633423 -0.137750446796417236 -0.0529879480600357056
-0.204079598188400269 0.298550665378570557 0.127314150333404541
0.263027787208557129 -0.289592266082763672 0.324087917804718018
-0.361966371536254883 -0.0303185544908046722 0.120113663375377655
-0.499814897775650024 0.0196450762450695038 0.0324301458895206451
0.243229329586029053 0.000142060729558579624 0.322766274213790894
0.14188230037689209 -0.290326982736587524 0.312154233455657959
0.308525055646896362 -0.207471907138824463 0.248631000518798828
-0.38590395450592041 0.25507432222366333 0.0349340103566646576
0.531392753124237061 -0.262196093797683716 0.103377245366573334
0.22443053126335144 0.0227870773524045944 0.305933773517608643
0.530882775783538818 -0.147275075316429138 -0.307818204164505005
-0.644618093967437744 0.231595724821090698 -0.0469760000705718994
0.541560471057891846 -0.310849487781524658 -0.0440124645829200745
0.508144080638885498 -0.267612457275390625 -0.311079174280166626
0.514630138874053955 -0.315959304571151733 -0.294674813747406006
0.459206074476242065 -0.290743410587310791 -0.296168327331542969
-0.542853653430938721 0.26840934157371521 -0.188852235674858093
-0.621196091175079346 0.289176970720291138 0.0672225877642631531
0.363884001970291138 -0.384095251560211182 -0.205698102712631226
-0.0922852009534835815 0.267396777868270874 0.189938321709632874
-0.448174089193344116 0.13158823549747467 -0.208281531929969788
-0.575190365314483643 0.204037219285964966 -0.12659028172492981
-0.62981945276260376 0.191951543092727661 -0.0394001305103302002
-0.469477921724319458 0.139239504933357239 -0.230598211288452148
0.257995516061782837 -0.0169573388993740082 -0.0716457217931747437
0.230820402503013611 0.0539750009775161743 -0.044701404869556427
0.113382004201412201 0.109846077859401703 0.302162766456604004
-0.583846569061279297 0.218673184514045715 -0.220982074737548828
-0.597973406314849854 0.23547227680683136 -0.0102572925388813019
-0.36668059229850769 -0.0914660841226577759 0.123353548347949982
-0.329642832279205322 -0.125098362565040588 0.137791544198989868
-0.634350895881652832 0.19986937940120697 -0.0378165915608406067
-0.425377190113067627 -0.0546447858214378357 0.0997608527541160583
-0.477789521217346191 0.0204177387058734894 -0.0360314846038818359
0.209030359983444214 0.00866048038005828857 0.301310569047927856
-0.633942902088165283 0.248332858085632324 -0.00548967672511935234
-0.12784866988658905 0.270072042942047119 0.132803618907928467
0.271522432565689087 -0.330147087574005127 0.180511444807052612
0.533313870429992676 -0.209993734955787659 -0.0984346643090248108
-0.126090317964553833 -0.112398348748683929 -0.0543206073343753815
0.454521238803863525 -0.338706254959106445 -0.297692954540252686
-0.212307676672935486 0.0364922210574150085 -0.0591752007603645325
-0.552953898906707764 0.176030918955802917 0.0133163686841726303
-0.198275178670883179 0.139868304133415222 0.0216680783778429031
-0.0121747823432087898 -0.102294020354747772 -0.0424898453056812286
0.26519465446472168 -0.274765759706497192 0.202864110469818115
0.349073350429534912 -0.320943892002105713 0.000370977213606238365
-0.155661746859550476 0.0700210630893707275 0.028045138344168663
-0.248949781060218811 0.131059557199478149 -0.0339178815484046936
0.199441760778427124 0.00180790608283132315 0.0195266995579004288
0.0766390189528465271 0.0810382291674613953 0.0244280137121677399
-0.283245325088500977 0.28856167197227478 -0.00538224633783102036
0.477274388074874878 -0.289629310369491577 -0.301329314708709717
-0.556661248207092285 0.266025394201278687 -0.0167364310473203659
-0.237124785780906677 0.0979027971625328064 -0.0319368802011013031
0.138311177492141724 -0.28065943717956543 0.150492817163467407
0.296780496835708618 -0.297217816114425659 0.0573314055800437927
-0.285837292671203613 0.257535070180892944 0.00109308760147541761
-0.0207193903625011444 -0.0401566699147224426 0.0894698873162269592
0.204793930053710938 0.0428967326879501343 0.0661642551422119141
-0.143371596932411194 -0.0849410742521286011 0.0921951383352279663
0.372815698385238647 -0.0732471644878387451 0.0319801680743694305
0.521620750427246094 -0.19893549382686615 -0.0981273874640464783
0.487412691116333008 -0.297626018524169922 -0.304985344409942627
0.480758488178253174 -0.314688414335250854 0.12271350622177124
0.513890266418457031 -0.307017862796783447 -0.102026998996734619
0.496331930160522461 -0.309253692626953125 -0.30935332179069519
0.506456315517425537 -0.327664703130722046 -0.0037385865580290556
0.512038588523864746 -0.324386417865753174 0.118749327957630157
0.466208487749099731 -0.288532406091690063 -0.29618421196937561
0.438311636447906494 -0.263244330883026123 -0.193912908434867859
0.135372042655944824 0.117070011794567108 0.337533414363861084
0.396952301263809204 -0.24420773983001709 0.319154441356658936
-0.601446807384490967 0.354573607444763184 0.0661019906401634216
-0.505062520503997803 0.357454478740692139 0.178919136524200439
0.542890548706054688 -0.282355934381484985 0.0983211323618888855
0.256688326597213745 0.0370798259973526001 -0.0716435015201568604
-0.232968300580978394 0.156247466802597046 -0.00476579368114471436
0.506447672843933105 -0.331831961870193481 -0.00216164812445640564
0.445112943649291992 -0.249826446175575256 -0.227634012699127197
-0.638953924179077148 0.254808008670806885 0.0550992190837860107
0.532868623733520508 -0.26253017783164978 0.0936363860964775085
-0.392915427684783936 -0.0589736215770244598 0.100946933031082153
0.52417987585067749 -0.289484292268753052 -0.0917196571826934814
0.0283991284668445587 -0.273915559053421021 -0.0348909460008144379
0.385511398315429688 -0.305891871452331543 0.119196653366088867
-0.582137405872344971 0.367106735706329346 0.132310822606086731
0.240487143397331238 0.00309233320876955986 0.181569486856460571
-0.112809561192989349 0.165694639086723328 0.348062872886657715
0.48249390721321106 -0.368200302124023438 -0.021691812202334404
0.412574529647827148 -0.320972174406051636 -0.210658445954322815
0.507515370845794678 -0.155365616083145142 0.124420180916786194
0.529083967208862305 -0.334557175636291504 0.0131976380944252014
-0.584073245525360107 0.336722731590270996 0.0346723869442939758
-0.590713083744049072 0.38220447301864624 0.131869390606880188
0.52658611536026001 -0.244150862097740173 -0.310270518064498901
0.474745482206344604 -0.290551722049713135 -0.29908144474029541
-0.597171902656555176 0.353982210159301758 0.170274063944816589
-0.587304055690765381 0.371745079755783081 0.101707324385643005
-0.211795583367347717 -0.129267081618309021 -0.0572143979370594025
0.234810277819633484 -0.292869657278060913 0.315367400646209717
0.238296136260032654 0.0672831162810325623 0.320533633232116699
0.54211723804473877 -0.313686490058898926 -0.0577348917722702026
-0.444520652294158936 -0.0481069423258304596 0.127600729465484619
0.359923779964447021 -0.388170182704925537 -0.208643332123756409
-0.556472420692443848 0.211498185992240906 -0.113153241574764252
0.521091997623443604 -0.279377251863479614 -0.176738977432250977
0.242177248001098633 0.0349244140088558197 0.315002650022506714
0.24300578236579895 0.000648913439363241196 0.0240931175649166107
0.380875617265701294 0.039058241993188858 0.0123198619112372398
0.527055144309997559 -0.230450034141540527 -0.309776455163955688
0.327173769474029541 0.096422344446182251 -0.0354787744581699371
-0.374042749404907227 -0.0599338710308074951 -0.132408261299133301
0.513144373893737793 -0.16736467182636261 0.13631361722946167
-0.574447572231292725 0.322323322296142578 0.0500460527837276459
-0.558923780918121338 0.283692479133605957 0.364741802215576172
0.22466924786567688 0.0321870222687721252 -0.0577588118612766266
-0.574232697486877441 0.214989811182022095 -0.220615535974502563
-0.0441631264984607697 0.156848222017288208 0.0817215815186500549
0.114256791770458221 0.110308259725570679 0.0259280074387788773
0.343074589967727661 -0.2467917799949646 -0.0964944660663604736
-0.285034507513046265 0.300762712955474854 -0.00227623432874679565
0.153545737266540527 -0.00413956213742494583 -0.00312413112260401249
0.0692017599940299988 0.139096423983573914 0.0761576071381568909
-0.270018905401229858 0.280509054660797119 0.00224750256165862083
0.503642737865447998 -0.292429983615875244 -0.158979937434196472
0.13722383975982666 -0.0255641117691993713 0.0135626690462231636
-0.338872373104095459 -0.0316847898066043854 0.023309638723731041
0.373636066913604736 -0.0916415303945541382 0.0446925610303878784
0.20010077953338623 0.101488888263702393 -0.0013553231256082654
-0.297107040882110596 -0.0247245226055383682 0.0364444777369499207
0.132026791572570801 -0.0175517741590738297 -0.0256449766457080841
0.101618021726608276 0.016292644664645195 0.0916912704706192017
0.175832673907279968 0.119612209498882294 0.0385046526789665222
-0.230302959680557251 -0.0633823573589324951 0.10515177994966507
0.486397087574005127 -0.296489745378494263 -0.303213745355606079
-0.603130459785461426 0.289797276258468628 0.185720011591911316
0.467485696077346802 -0.308567136526107788 0.120469756424427032
0.378475397825241089 -0.0142561867833137512 0.00679114041849970818
0.514636397361755371 -0.29515230655670166 -0.103117935359477997
0.519129395484924316 -0.239542394876480103 -0.307277083396911621
0.47823747992515564 -0.309556543827056885 -0.299968838691711426
0.483698934316635132 -0.274343103170394897 -0.299594372510910034
0.117419436573982239 0.118972815573215485 0.29810941219329834
-0.584154009819030762 0.356638729572296143 0.0663256049156188965
0.384072452783584595 -0.337180048227310181 0.125884011387825012
-0.574416756629943848 0.317999392747879028 -0.0260758828371763229
-0.604358553886413574 0.217456132173538208 -0.0864544659852981567
0.267960250377655029 0.0394765362143516541 -0.0858421102166175842
-0.356233805418014526 -0.0218485686928033829 -0.130694463849067688
-0.564228832721710205 0.314626991748809814 -0.00742505211383104324
0.19104042649269104 -0.340612918138504028 -0.0743932425975799561
0.404514908790588379 -0.357458829879760742 -0.223716869950294495
-0.50010383129119873 0.145850121974945068 0.355203747749328613
0.509812831878662109 -0.151326566934585571 0.115392439067363739
0.497152775526046753 -0.263748228549957275 -0.304074466228485107
0.458293139934539795 -0.280707389116287231 -0.289431184530258179
0.441257685422897339 -0.264788627624511719 -0.283382654190063477
-0.587969839572906494 0.357743501663208008 0.0622370317578315735
0.505410254001617432 -0.126647919416427612 0.124814681708812714
-0.206185728311538696 0.312716633081436157 0.109296791255474091
0.268612325191497803 -0.283906072378158569 0.319546997547149658
0.232826605439186096 0.00368366064503788948 0.318294107913970947
0.513525009155273438 -0.175496801733970642 -0.281432092189788818
-0.115019924938678741 0.0101483436301350594 0.00637313909828662872
0.40424734354019165 -0.359487533569335938 -0.224340558052062988
0.417936801910400391 -0.313118726015090942 0.14414544403553009
-0.555457413196563721 0.376746952533721924 0.187354490160942078
-0.175601795315742493 0.309379696846008301 0.118976607918739319
-0.389674007892608643 0.276346772909164429 -0.0845579355955123901
0.365433871746063232 0.0519960224628448486 0.0250302981585264206
0.129395917057991028 0.115863204002380371 0.319332987070083618
-0.286273092031478882 -0.100263401865959167 -0.0915943533182144165
0.258305549621582031 0.101103201508522034 -0.0615980736911296844
-0.361052572727203369 -0.0594911128282546997 -0.143672451376914978
0.134353265166282654 0.113820947706699371 0.338276118040084839
-0.562996923923492432 0.199647516012191772 -0.228593721985816956
-0.276356339454650879 0.288285583257675171 -0.000379856297513470054
0.455203831195831299 -0.246279239654541016 -0.28796994686126709
0.460554778575897217 -0.275238633155822754 -0.290497928857803345
-0.634783625602722168 0.308426707983016968 0.170919373631477356
0.512760162353515625 -0.317324370145797729 -0.0382093451917171478
0.469254791736602783 -0.265635192394256592 -0.297626137733459473
0.47847139835357666 -0.294851690530776978 -0.299906522035598755
0.458459764719009399 -0.246062472462654114 -0.289541751146316528
0.381492018699645996 -0.36082381010055542 -0.213528379797935486
-0.479255259037017822 -0.0122854150831699371 0.186374008655548096
-0.516433537006378174 0.366027265787124634 0.174618616700172424
-0.618436038494110107 0.202348142862319946 -0.0867201089859008789
-0.237098634243011475 0.0190990455448627472 -0.072076752781867981
-0.382381081581115723 -0.0587406456470489502 0.0241916943341493607
0.475176811218261719 -0.368199378252029419 0.0221809353679418564
-0.649166226387023926 0.237054228782653809 0.0327157825231552124
0.412934184074401855 -0.346557497978210449 -0.221312463283538818
0.526335537433624268 -0.337004035711288452 0.0804515630006790161
0.506330728530883789 -0.238845422863960266 -0.307737976312637329
0.249971196055412292 -0.282085955142974854 0.318606585264205933
0.239449754357337952 0.0667136684060096741 0.315078526735305786
0.539836466312408447 -0.301679372787475586 -0.0932952463626861572
-0.447679519653320312 -0.0411104075610637665 0.127034574747085571
-0.0436091795563697815 0.104654155671596527 0.318303018808364868
0.248242869973182678 0.021166287362575531 0.322625994682312012
-0.284596681594848633 -0.0993968397378921509 -0.0986132398247718811
-0.137522712349891663 -0.0148367090150713921 -0.0483498312532901764
-0.277825027704238892 0.338136017322540283 0.0475331433117389679
-0.254639297723770142 0.290179938077926636 -0.00271494104526937008
-0.218849390745162964 0.322144508361816406 0.0703869611024856567
-0.5731315016746521 0.152573674917221069 -0.0740266740322113037
-0.28988569974899292 0.292986690998077393 0.0165691673755645752
0.525899827480316162 -0.320513159036636353 0.0275616366416215897
0.346358537673950195 -0.0303361658006906509 -0.0340740345418453217
0.522530436515808105 -0.362767636775970459 0.0897836163640022278
-0.0830148681998252869 -0.111590586602687836 0.0789212137460708618
-0.403934001922607422 0.326317578554153442 0.121783338487148285
0.50505518913269043 -0.366924315690994263 -0.00411237822845578194
-0.118627846240997314 0.266324013471603394 0.12148825079202652
0.519005477428436279 -0.342807292938232422 0.0362286828458309174
0.130741477012634277 -0.334488987922668457 0.3016166090965271
0.466928273439407349 -0.310908973217010498 0.0728467628359794617
0.483175545930862427 -0.373858720064163208 0.0527058914303779602
0.421303629875183105 -0.0259050652384757996 0.0652706772089004517
0.494455456733703613 -0.363384246826171875 -0.0151627780869603157
-0.232891187071800232 0.287412881851196289 0.0846751928329467773
0.531494855880737305 -0.331607043743133545 -0.00684358645230531693
-0.271896809339523315 0.315662175416946411 0.114515252411365509
0.308475315570831299 0.00274791987612843513 0.0467184893786907196
0.467736542224884033 -0.263244092464447021 -0.295697212219238281
0.474124014377593994 -0.30418848991394043 0.114623852074146271
0.511464476585388184 -0.313481003046035767 -0.104016810655593872
0.509478926658630371 -0.245192229747772217 -0.308057159185409546
0.448278129100799561 -0.292337328195571899 -0.292388230562210083
0.46670946478843689 -0.283102750778198242 -0.296907484531402588
0.138585552573204041 0.112938746809959412 0.33721509575843811
-0.6520233154296875 0.286015421152114868 0.0985380634665489197
-0.638197481632232666 0.245142862200737 -0.0377279780805110931
0.136598899960517883 0.0694193392992019653 0.338324427604675293
-0.577008426189422607 0.30412784218788147 -0.0550840795040130615
0.262739896774291992 0.0306556802242994308 -0.0730504989624023438
0.542192280292510986 -0.216584473848342896 0.111969687044620514
-0.359858661890029907 -0.0354857929050922394 -0.133875042200088501
-0.574659407138824463 0.327804833650588989 -0.0290841814130544662
-0.361549705266952515 -0.0706660598516464233 -0.0335269980132579803
-0.130204111337661743 -0.26737058162689209 0.119488276541233063
0.495425909757614136 -0.365681499242782593 1.25912492876523174e-06
0.374184638261795044 -0.359221607446670532 -0.209693834185600281
-0.378154247999191284 -0.106641784310340881 0.101782649755477905
-0.0666569620370864868 -0.263852357864379883 0.2968711256980896
0.520153939723968506 -0.243144214153289795 -0.309076577425003052
0.509739518165588379 -0.330417126417160034 0.0156516097486019135
-0.593282341957092285 0.369280129671096802 0.121123678982257843
-0.655231058597564697 0.175996050238609314 -0.102574631571769714
-0.222733408212661743 -0.143900543451309204 -0.0532956048846244812
-0.191181868314743042 0.316895991563796997 0.101250439882278442
0.257073670625686646 -0.283377945423126221 0.320039212703704834
0.239445492625236511 0.0323545932769775391 0.31953844428062439
-0.119864679872989655 -0.0458702594041824341 0.00775399338454008102
-0.641466379165649414 0.308949291706085205 0.102396219968795776
0.36507764458656311 -0.373766064643859863 -0.206610769033432007
0.53799283504486084 -0.217608287930488586 0.162254095077514648
-0.552679657936096191 0.382755100727081299 0.15853177011013031
-0.122407563030719757 0.259542405605316162 0.115619219839572906
0.119627915322780609 0.102647885680198669 0.0899013429880142212
-0.37533867359161377 0.2661895751953125 -0.0890976265072822571
0.517165064811706543 -0.348919153213500977 0.0991507247090339661
-0.293264687061309814 -0.106882445514202118 -0.108868427574634552
0.275216341018676758 0.103153154253959656 -0.0572401620447635651
-0.574969053268432617 0.21989673376083374 -0.212207868695259094
-0.115447096526622772 0.268815755844116211 0.18031466007232666
0.236432522535324097 -0.287854701280593872 0.314727962017059326
0.310503274202346802 -0.187204137444496155 0.241397574543952942
0.542019188404083252 -0.32568967342376709 -0.0205394160002470016
0.079423069953918457 -0.337571799755096436 0.282573938369750977
-0.0060889790765941143 -0.171643167734146118 0.00466169882565736771
-0.282162398099899292 0.262038171291351318 0.00753366528078913689
0.513409018516540527 -0.23691616952419281 -0.309072375297546387
-0.646821975708007812 0.278576165437698364 0.0800590291619300842
-0.646166801452636719 0.183507174253463745 -0.0904192104935646057
0.514370381832122803 -0.322377234697341919 0.0246646441519260406
-0.406726330518722534 -0.0633720904588699341 0.113991081714630127
0.517100334167480469 -0.355559855699539185 -0.0202515590935945511
-0.566489219665527344 0.374629408121109009 0.153034821152687073
0.236192509531974792 0.0431690439581871033 0.314090341329574585
-0.664683043956756592 0.227453082799911499 0.0235938075929880142
-0.447889238595962524 -0.0382125787436962128 0.127544119954109192
0.503287732601165771 -0.302108079195022583 -0.178510576486587524
-0.589030027389526367 0.36134636402130127 0.0866144672036170959
-0.194022819399833679 0.315170109272003174 0.105368584394454956
0.247225254774093628 0.0240701455622911453 0.324220776557922363
0.531178176403045654 -0.323650777339935303 -0.0577071569859981537
-0.18276803195476532 0.307265222072601318 0.128984555602073669
0.247483372688293457 0.0071440613828599453 0.324347704648971558
0.0588780865073204041 0.139833956956863403 0.346188664436340332
-0.505529403686523438 0.149651333689689636 0.357406467199325562
0.271138370037078857 -0.311128467321395874 0.326576918363571167
-0.253534883260726929 0.0238406360149383545 -0.0702880620956420898
0.241484895348548889 -0.29516950249671936 0.322827994823455811
0.249241873621940613 0.0439533665776252747 0.314816474914550781
0.468598842620849609 -0.101819567382335663 0.03499564528465271
-0.124634236097335815 0.195346727967262268 0.11587902158498764
0.240385532379150391 -0.326489835977554321 0.318274945020675659
0.500530242919921875 -0.366461783647537231 0.0750192627310752869
0.52369534969329834 -0.324580520391464233 0.0265842657536268234
0.444961071014404297 -0.253159403800964355 0.332709223031997681
0.321801424026489258 -0.131280511617660522 -0.106301046907901764
0.0636791661381721497 -0.0105972588062286377 0.32210087776184082
0.511574506759643555 -0.360758394002914429 0.0478817373514175415
0.135984241962432861 -0.100504837930202484 0.0409142114222049713
0.0497842691838741302 0.0117496121674776077 0.03012828528881073
0.021020352840423584 0.0484412722289562225 0.0430030114948749542
0.0884691104292869568 -0.0659118592739105225 0.290024012327194214
-0.161740884184837341 -0.265460342168807983 0.148379281163215637
0.265209466218948364 -0.0200095884501934052 0.0619266629219055176
-0.0285924319177865982 -0.0288612339645624161 0.295966774225234985
0.502483725547790527 -0.240163162350654602 -0.301656603813171387
0.476276695728302002 -0.314788877964019775 -0.301603853702545166
-0.630764424800872803 0.306577116250991821 0.167903035879135132
0.475771337747573853 -0.320704340934753418 0.121386528015136719
0.509373962879180908 -0.300707787275314331 -0.105178356170654297
0.528525054454803467 -0.274733781814575195 -0.316836833953857422
0.493884563446044922 -0.332253813743591309 -0.310356825590133667
0.503795087337493896 -0.320021122694015503 0.0983856469392776489
0.474523067474365234 -0.305623859167098999 -0.297756433486938477
-0.559155583381652832 0.268344074487686157 0.365064024925231934
0.125258475542068481 0.116995878517627716 0.314635664224624634
-0.633413076400756836 0.282548516988754272 0.0547844991087913513
-0.587218880653381348 0.363097488880157471 0.102958798408508301
0.371914386749267578 -0.373918324708938599 -0.212387874722480774
0.438802421092987061 -0.347883224487304688 0.154703706502914429
0.0583722144365310669 0.121460385620594025 0.321561634540557861
-0.574427962303161621 0.369094759225845337 0.216103702783584595
0.264997243881225586 0.0247620455920696259 -0.0582539290189743042
0.369176596403121948 -0.33669513463973999 0.160978168249130249
0.510816872119903564 -0.301426291465759277 -0.111627057194709778
0.134079903364181519 -0.320448368787765503 -0.0974066108465194702
0.516877233982086182 -0.348685026168823242 -0.0199075192213058472
0.389691591262817383 -0.346645504236221313 -0.213741913437843323
-0.576869964599609375 0.319386839866638184 0.0412987507879734039
0.536338746547698975 -0.277702987194061279 -0.320240706205368042
0.468237698078155518 -0.310759812593460083 -0.298893004655838013
0.507500708103179932 -0.347029119729995728 0.0183129385113716125
-0.555766582489013672 0.310020565986633301 0.102785266935825348
0.194346815347671509 -0.339233458042144775 -0.0588025227189064026
0.0705629587173461914 -0.282072871923446655 -0.0775184705853462219
0.252933025360107422 -0.250231683254241943 0.320510387420654297
0.240240111947059631 0.0309969466179609299 0.317316055297851562
-0.120724953711032867 -0.0476688146591186523 0.00860806554555892944
0.179125502705574036 -0.1000690758228302 -0.0144043723121285439
0.532756507396697998 -0.332212775945663452 -0.0127826295793056488
0.370772689580917358 -0.349370241165161133 -0.208521947264671326
0.535264670848846436 -0.245772987604141235 0.177663475275039673
0.561462640762329102 -0.315653353929519653 -0.330573767423629761
0.554803669452667236 -0.211650535464286804 0.134324520826339722
-0.543144166469573975 0.381055265665054321 0.16507306694984436
0.123123064637184143 0.117303542792797089 0.133579611778259277
-0.582098662853240967 0.352219969034194946 0.0983475446701049805
-0.481392174959182739 0.186252027750015259 -0.0910454690456390381
0.515947461128234863 -0.339105010032653809 0.0392216742038726807
0.253953993320465088 -0.279153138399124146 0.3223247230052948
0.278975486755371094 -0.355864912271499634 -0.125694960355758667
0.508262276649475098 -0.286518126726150513 -0.313311159610748291
-0.431866317987442017 -0.0570506304502487183 0.117218427360057831
0.202246680855751038 0.0905678123235702515 0.223807066679000854
0.244559794664382935 0.104657955467700958 -0.0568035058677196503
-0.195456713438034058 0.201689556241035461 0.349811464548110962
0.25080573558807373 0.0249571762979030609 0.323744803667068481
0.24016985297203064 0.0190501045435667038 0.321436882019042969
-0.0311486180871725082 0.162814229726791382 0.38314095139503479
-0.482244908809661865 -0.0154975363984704018 0.180723473429679871
0.484172433614730835 -0.369026273488998413 0.0464605726301670074
-0.64334636926651001 0.287388652563095093 0.086778491735458374
0.276359319686889648 -0.165750235319137573 -0.070099271833896637
-0.411532878875732422 -0.0567165389657020569 0.079428941011428833
-0.642822504043579102 0.17597101628780365 -0.0814993605017662048
-0.225578844547271729 -0.133794620633125305 -0.051752530038356781
0.255450695753097534 -0.265565007925033569 0.321489095687866211
-0.345065563917160034 0.0175021011382341385 -0.11642003059387207
-0.286790579557418823 -0.091390654444694519 -0.106031313538551331
-0.584864616394042969 0.210107848048210144 -0.217516571283340454
0.268116176128387451 -0.297024518251419067 0.315559625625610352
-0.0251799672842025757 -0.187180086970329285 -0.0430396720767021179
