ply
format ascii 1.0
element vertex 738
property float x
property float y
property float z
end_header
-0.243767529726028442 0.0634553954005241394 0.244790777564048767
-0.542144298553466797 0.210823953151702881 0.162596955895423889
-0.590773224830627441 0.287161111831665039 -0.0074891895055770874
0.307062447071075439 0.0174810085445642471 0.0427240878343582153
0.478496193885803223 -0.315135002136230469 -0.305458545684814453
0.503802239894866943 -0.345838814973831177 -0.0637803301215171814
0.471741050481796265 -0.30539819598197937 0.115089669823646545
0.527160465717315674 -0.303203761577606201 -0.109374217689037323
-0.402912914752960205 0.311520367860794067 0.134609580039978027
0.517936825752258301 -0.251614481210708618 -0.307450860738754272
0.507605612277984619 -0.329413175582885742 -0.314809501171112061
0.51890486478805542 -0.331620395183563232 0.09164419025182724
0.477383553981781006 -0.304606109857559204 -0.303098052740097046
0.527620673179626465 -0.285940706729888916 -0.107992500066757202
-0.55994182825088501 0.267257750034332275 0.365487039089202881
-0.640163302421569824 0.289579838514328003 0.0849802494049072266
0.371432453393936157 -0.401513487100601196 -0.217563018202781677
-0.449780881404876709 -0.00121695129200816154 0.175033807754516602
0.176533684134483337 0.072821393609046936 0.00648667989298701286
-0.453603118658065796 0.134504929184913635 -0.213811054825782776
0.40321919322013855 -0.336115896701812744 0.129011139273643494
-0.598918676376342773 0.207319140434265137 0.000618331716395914555
0.247638210654258728 -0.114759184420108795 -0.0709191635251045227
-0.483201324939727783 0.182595133781433105 -0.210228621959686279
-0.376106142997741699 -0.0633174404501914978 0.0916381701827049255
0.523003637790679932 -0.321228832006454468 0.0359193794429302216
0.542503476142883301 -0.217620968818664551 0.108302101492881775
0.525822639465332031 -0.273782283067703247 0.0553533695638179779
0.111317194998264313 0.0839911699295043945 0.317228496074676514
-0.350874543190002441 -0.0481312759220600128 0.0449297353625297546
0.105229578912258148 0.0721226334571838379 0.295465588569641113
-0.165237322449684143 0.132938995957374573 0.151273474097251892
0.502849817276000977 -0.256773084402084351 -0.102479323744773865
0.429049640893936157 -0.304096043109893799 0.135986819863319397
-0.355675995349884033 -0.101635754108428955 0.159027963876724243
0.498712539672851562 -0.201896592974662781 -0.107958495616912842
-0.578430473804473877 0.348116874694824219 0.151990458369255066
0.105144418776035309 -0.0117017887532711029 0.0210439693182706833
-0.341170012950897217 -0.123607143759727478 0.104563042521476746
-0.120619490742683411 -0.275869697332382202 0.174100369215011597
-0.161065265536308289 0.16726994514465332 0.325153648853302002
0.515108764171600342 -0.358870595693588257 0.026852387934923172
0.521151363849639893 -0.287850916385650635 -0.0116463508456945419
0.479009419679641724 -0.140168368816375732 0.107647962868213654
-0.180800020694732666 0.0291170887649059296 0.0258077681064605713
-0.341886013746261597 -0.121828034520149231 0.103705301880836487
-0.600130736827850342 0.376846760511398315 0.188246667385101318
-0.119604676961898804 -0.266960114240646362 0.218366876244544983
0.523544967174530029 -0.309114307165145874 -0.0747614428400993347
0.516382575035095215 -0.25242924690246582 -0.309575080871582031
0.455040305852890015 -0.308556973934173584 -0.294512927532196045
0.240751877427101135 -0.0961344614624977112 0.158626288175582886
-0.620136439800262451 0.27223438024520874 0.0369989983737468719
-0.429858803749084473 -0.00395848555490374565 0.177281379699707031
-0.250346928834915161 -0.137140408158302307 -0.0711555704474449158
0.317451268434524536 -0.319207936525344849 0.122585348784923553
0.539431154727935791 -0.249947309494018555 0.106692574918270111
0.452843844890594482 -0.139994680881500244 0.0154174165800213814
0.429483860731124878 -0.321253955364227295 0.123773679137229919
0.413373291492462158 -0.331123083829879761 -0.209826812148094177
0.473950386047363281 -0.128741979598999023 0.109528854489326477
-0.548888325691223145 0.378644734621047974 0.172477245330810547
0.190649628639221191 -0.340073764324188232 -0.0133242970332503319
-0.201627418398857117 -0.135659098625183105 -0.0685065686702728271
-0.185456812381744385 0.312117576599121094 0.117822937667369843
0.103472396731376648 0.107651837170124054 0.174409165978431702
-0.444219976663589478 -0.0544825829565525055 0.0917856916785240173
-0.489271968603134155 0.0299335233867168427 0.0167398247867822647
0.231539279222488403 0.0109447482973337173 0.315033763647079468
-0.0245713163167238235 0.113139428198337555 0.312454313039779663
0.24340231716632843 -0.0387408174574375153 0.204655125737190247
-0.384765356779098511 0.245325520634651184 0.0342223308980464935
-0.653962910175323486 0.21670551598072052 -0.0394131429493427277
0.483121603727340698 -0.116432487964630127 0.0234410054981708527
0.122325323522090912 0.0794288739562034607 0.13851572573184967
-0.38180813193321228 -0.0727548152208328247 0.0955877304077148438
0.31983610987663269 -0.0725067034363746643 0.0623799078166484833
-0.440551519393920898 -0.0118069639429450035 0.00677322922274470329
-0.502094089984893799 0.233667463064193726 -0.071229688823223114
-0.547146797180175781 0.203410044312477112 -0.0686528831720352173
0.0887159779667854309 0.0916048213839530945 0.0799674093723297119
-0.519779682159423828 0.204515248537063599 -0.0472912117838859558
-0.168116271495819092 0.072340160608291626 0.23249855637550354
-0.057208184152841568 -0.187041968107223511 0.0267892945557832718
-0.21240466833114624 0.290805220603942871 0.10907447338104248
0.249776586890220642 -0.00553885195404291153 0.022297421470284462
-0.555676698684692383 0.204342260956764221 0.118235319852828979
-0.457227170467376709 0.216412276029586792 0.0244425069540739059
-0.462527096271514893 0.266482561826705933 -0.00282555026933550835
-0.575341343879699707 0.247582301497459412 -0.0765895694494247437
-0.389275431632995605 0.275136262178421021 -0.084204748272895813
0.343938469886779785 -0.134767681360244751 0.318881183862686157
-0.49850010871887207 0.206802308559417725 -0.0117239309474825859
-0.345909535884857178 0.292851299047470093 -0.050211884081363678
0.52610856294631958 -0.361292928457260132 0.041761394590139389
-0.539843499660491943 0.215126305818557739 0.200973808765411377
-0.569194495677947998 0.294394344091415405 -0.00330968853086233139
0.316739022731781006 0.0236084572970867157 0.0487103722989559174
0.482117176055908203 -0.307279735803604126 -0.303766131401062012
0.479842573404312134 -0.326517105102539062 0.125375419855117798
0.523310661315917969 -0.30725511908531189 -0.0987598448991775513
0.490468353033065796 -0.311045825481414795 -0.307525545358657837
0.516354203224182129 -0.325241833925247192 0.119844324886798859
0.444647610187530518 -0.300474941730499268 -0.290753483772277832
0.523328125476837158 -0.304805517196655273 -0.0974225997924804688
0.134404540061950684 0.116321094334125519 0.337072134017944336
-0.642305076122283936 0.242581084370613098 -0.0096010332927107811
-0.292548775672912598 -0.114122889935970306 -0.105737015604972839
0.539367377758026123 -0.255691170692443848 0.0921878442168235779
0.129263103008270264 0.0975222364068031311 0.317347228527069092
-0.235147029161453247 -0.143783450126647949 -0.0713880807161331177
0.252567201852798462 0.029919356107711792 -0.0860267132520675659
0.531083643436431885 -0.323379576206207275 0.00680247368291020393
-0.599267542362213135 0.30736619234085083 0.104357272386550903
0.532224476337432861 -0.244863793253898621 0.0865352004766464233
-0.373991996049880981 -0.0610127672553062439 0.0922983884811401367
0.526674628257751465 -0.275567978620529175 -0.123309902846813202
-0.501079797744750977 0.14870472252368927 0.352994769811630249
0.385311633348464966 -0.297840774059295654 0.13182424008846283
0.132841140031814575 -0.33227086067199707 -0.100491978228092194
0.522879898548126221 -0.355112344026565552 -0.0149661079049110413
-0.43640938401222229 0.150424271821975708 -0.0851013287901878357
0.51589590311050415 -0.300330817699432373 0.0646890029311180115
0.393198102712631226 -0.368171095848083496 -0.213777720928192139
0.500665843486785889 -0.171643614768981934 0.130025386810302734
0.533354759216308594 -0.334245115518569946 0.0283675137907266617
-0.579847991466522217 0.348890125751495361 0.0401590242981910706
0.520064115524291992 -0.24118436872959137 -0.308818995952606201
-0.600945889949798584 0.370677918195724487 0.104525104165077209
-0.500581085681915283 0.147075504064559937 0.355200111865997314
0.234128206968307495 -0.277991265058517456 0.317415744066238403
-0.181267514824867249 -0.137278378009796143 -0.0556672737002372742
-0.228305503726005554 -0.138235375285148621 -0.053555019199848175
-0.204208150506019592 0.29841315746307373 0.126662552356719971
0.2626819908618927 -0.289800554513931274 0.323708713054656982
-0.362216949462890625 -0.0306946877390146255 0.119524247944355011
-0.500047504901885986 0.0192729104310274124 0.0317762792110443115
0.243023082613945007 2.1618541723000817e-05 0.322276473045349121
0.141507342457771301 -0.290574312210083008 0.311769485473632812
0.308253198862075806 -0.207681030035018921 0.248197615146636963
-0.386076927185058594 0.254855602979660034 0.0342754535377025604
0.531240999698638916 -0.262479037046432495 0.10291694849729538
0.224235564470291138 0.0226663574576377869 0.305430054664611816
0.530674278736114502 -0.147622525691986084 -0.30835491418838501
-0.644817888736724854 0.23135724663734436 -0.0476454086601734161
0.541383266448974609 -0.311184346675872803 -0.0444871485233306885
0.507901370525360107 -0.268014073371887207 -0.311599403619766235
0.514383673667907715 -0.316368609666824341 -0.295182377099990845
0.458942145109176636 -0.291155189275741577 -0.296686828136444092
-0.543071210384368896 0.268153458833694458 -0.189491987228393555
-0.621374189853668213 0.288994491100311279 0.0665201619267463684
0.363568216562271118 -0.384503811597824097 -0.206192612648010254
-0.0923800915479660034 0.267277687788009644 0.189295366406440735
-0.448417723178863525 0.131218060851097107 -0.208913594484329224
-0.575401544570922852 0.203762561082839966 -0.127241671085357666
-0.630022108554840088 0.191690951585769653 -0.0400707907974720001
-0.469722926616668701 0.138868778944015503 -0.231229081749916077
0.257795065641403198 -0.0171818956732749939 -0.072216033935546875
0.230656042695045471 0.0537872985005378723 -0.0452885478734970093
0.113215208053588867 0.109726190567016602 0.301609814167022705
-0.584071099758148193 0.218381389975547791 -0.221614018082618713
-0.598164200782775879 0.235242754220962524 -0.0109381452202796936
-0.36695215106010437 -0.0918841734528541565 0.122784353792667389
-0.329938262701034546 -0.125517264008522034 0.137249067425727844
-0.634552359580993652 0.199613898992538452 -0.0384877249598503113
-0.425631105899810791 -0.055050920695066452 0.0991576090455055237
-0.478030949831008911 0.0200220700353384018 -0.0366789773106575012
0.208819091320037842 0.00853325705975294113 0.300812393426895142
-0.634134411811828613 0.248112529516220093 -0.00617171172052621841
-0.127961456775665283 0.269934743642807007 0.132155567407608032
0.271217525005340576 -0.330429434776306152 0.180089473724365234
0.533148050308227539 -0.210311532020568848 -0.0989381000399589539
-0.126401945948600769 -0.112828008830547333 -0.0549033507704734802
0.454240590333938599 -0.339125394821166992 -0.298202544450759888
-0.212559536099433899 0.0361394807696342468 -0.0597983412444591522
-0.553146064281463623 0.175767794251441956 0.0126344449818134308
-0.198469087481498718 0.139612793922424316 0.0210306625813245773
-0.0124665293842554092 -0.102667585015296936 -0.043073657900094986
0.264896899461746216 -0.275023192167282104 0.202436149120330811
0.348812192678451538 -0.321276605129241943 -0.000105491570138838142
-0.155879989266395569 0.0697359293699264526 0.0274189412593841553
-0.249161764979362488 0.130768343806266785 -0.0345523841679096222
0.199259102344512939 0.00160133000463247299 0.0189542826265096664
0.0764679983258247375 0.0808300375938415527 0.0238155815750360489
-0.283415853977203369 0.288376152515411377 -0.00603461870923638344
0.477018296718597412 -0.290042638778686523 -0.301846593618392944
-0.556846141815185547 0.265812546014785767 -0.0174182169139385223
-0.237347081303596497 0.0975931882858276367 -0.0325687341392040253
0.137994274497032166 -0.280981600284576416 0.150040626525878906
0.296513289213180542 -0.297535926103591919 0.0568589717149734497
-0.286013245582580566 0.257327258586883545 0.000444077420979738235
-0.0209690146148204803 -0.040447477251291275 0.0888976678252220154
0.204642549157142639 0.0427167341113090515 0.0655896365642547607
-0.143654927611351013 -0.0852998495101928711 0.0916400328278541565
0.372653096914291382 -0.0734677165746688843 0.0314479731023311615
0.521452605724334717 -0.199247777462005615 -0.0986344292759895325
0.48715701699256897 -0.298038393259048462 -0.305500805377960205
0.480566263198852539 -0.314976811408996582 0.122269459068775177
0.513689994812011719 -0.307368487119674683 -0.102511830627918243
0.496075689792633057 -0.309667348861694336 -0.309866338968276978
0.506267011165618896 -0.327992111444473267 -0.00420557381585240364
0.511856496334075928 -0.3246784508228302 0.118306644260883331
0.465949445962905884 -0.288946092128753662 -0.296701997518539429
0.438068300485610962 -0.26361316442489624 -0.194425851106643677
0.135212048888206482 0.116968706250190735 0.336987763643264771
0.396681249141693115 -0.244393229484558105 0.318755388259887695
-0.601617634296417236 0.354431509971618652 0.0654004663228988647
-0.505219757556915283 0.357332140207290649 0.178222060203552246
0.542742133140563965 -0.282648652791976929 0.0978642106056213379
0.256513208150863647 0.0368848107755184174 -0.0722253471612930298
-0.23316502571105957 0.155985340476036072 -0.00540368491783738136
0.506257355213165283 -0.332159876823425293 -0.00262749381363391876
0.444867312908172607 -0.250200212001800537 -0.228153467178344727
-0.639139294624328613 0.254602372646331787 0.0544015467166900635
0.532718300819396973 -0.262816309928894043 0.0931739583611488342
-0.393172025680541992 -0.0593821331858634949 0.100354753434658051
0.523990809917449951 -0.289827167987823486 -0.0922056958079338074
0.0280535295605659485 -0.274361640214920044 -0.0354052409529685974
0.385276436805725098 -0.306182712316513062 0.118746042251586914
-0.582301199436187744 0.366984158754348755 0.131597399711608887
0.240320056676864624 0.00292617292143404484 0.181036293506622314
-0.113015279173851013 0.16557823121547699 0.347485214471817017
0.482280135154724121 -0.36854138970375061 -0.0221541784703731537
0.412298887968063354 -0.321364611387252808 -0.21116405725479126
0.50738757848739624 -0.15560460090637207 0.12393709272146225
0.52890545129776001 -0.334882050752639771 0.0127357710152864456
-0.584247469902038574 0.336564689874649048 0.0339789614081382751
-0.590876460075378418 0.382090091705322266 0.131155580282211304
0.526355862617492676 -0.244542747735977173 -0.310792922973632812
0.474489152431488037 -0.290966153144836426 -0.29959830641746521
-0.597339868545532227 0.353858768939971924 0.169555172324180603
-0.587467432022094727 0.371623843908309937 0.10098990797996521
-0.212120071053504944 -0.12974238395690918 -0.0577859356999397278
0.234457641839981079 -0.2930888831615448 0.314986228942871094
0.238133564591407776 0.0671830475330352783 0.320016056299209595
0.541936278343200684 -0.314025640487670898 -0.0582106746733188629
-0.444772213697433472 -0.0484969094395637512 0.126993775367736816
0.359604895114898682 -0.388581007719039917 -0.209138020873069763
-0.556680440902709961 0.211229816079139709 -0.113807462155818939
0.520885884761810303 -0.279743462800979614 -0.17723788321018219
0.241994738578796387 0.0348128676414489746 0.314497053623199463
0.242834225296974182 0.000449542829301208258 0.0235274173319339752
0.380762964487075806 0.0388924106955528259 0.0117581114172935486
0.526827812194824219 -0.2308368980884552 -0.310301274061203003
0.327059835195541382 0.0962743759155273438 -0.0360591225326061249
-0.374333590269088745 -0.0604341365396976471 -0.133011192083358765
0.513012588024139404 -0.167605146765708923 0.1358366459608078
-0.574619710445404053 0.322158128023147583 0.0493500754237174988
-0.559126317501068115 0.283581763505935669 0.364023774862289429
0.224488168954849243 0.0319837331771850586 -0.0583434328436851501
-0.57445758581161499 0.214694619178771973 -0.221247389912605286
-0.0443090088665485382 0.156655550003051758 0.0810905992984771729
0.114113770425319672 0.110126562416553497 0.0253160726279020309
0.34281456470489502 -0.24713212251663208 -0.0970059633255004883
-0.285204112529754639 0.300582259893417358 -0.00292934710159897804
0.153342336416244507 -0.00437226798385381699 -0.00370589992962777615
0.0690738633275032043 0.138922736048698425 0.075540691614151001
-0.270188629627227783 0.280321031808853149 0.00159522437024861574
0.503429770469665527 -0.292794674634933472 -0.159475892782211304
0.137008592486381531 -0.0258118510246276855 0.0129867643117904663
-0.339129537343978882 -0.03209715336561203 0.022708570584654808
0.37346881628036499 -0.091868869960308075 0.0441674292087554932
0.199969768524169922 0.101334676146507263 -0.00195761118084192276
-0.29736366868019104 -0.0251183416694402695 0.0358469970524311066
0.131805941462516785 -0.0178066715598106384 -0.0262307114899158478
0.10142795741558075 0.0160756781697273254 0.0911135151982307434
0.175715044140815735 0.119455672800540924 0.0379029735922813416
-0.230579107999801636 -0.0637528598308563232 0.104589536786079407
0.48614192008972168 -0.296902060508728027 -0.303729206323623657
-0.603304445743560791 0.289639383554458618 0.185001671314239502
0.46729046106338501 -0.3088550865650177 0.120023518800735474
0.378331661224365234 -0.0144457453861832619 0.0062304292805492878
0.514439582824707031 -0.295500248670578003 -0.103605218231678009
0.518897473812103271 -0.239932253956794739 -0.307800918817520142
0.47797587513923645 -0.309970706701278687 -0.30048215389251709
0.483448624610900879 -0.274749487638473511 -0.300113976001739502
0.117262132465839386 0.118855543434619904 0.29755246639251709
-0.584322512149810791 0.356498777866363525 0.0656237676739692688
0.38382527232170105 -0.337474614381790161 0.125443816184997559
-0.574601352214813232 0.317818820476531982 -0.0267556924372911453
-0.604563117027282715 0.217201113700866699 -0.0871153324842453003
0.267784476280212402 0.0392832830548286438 -0.0864237174391746521
-0.356511890888214111 -0.022312656044960022 -0.131303548812866211
-0.564408600330352783 0.314447700977325439 -0.00811039377003908157
0.190705671906471252 -0.341021716594696045 -0.0748868510127067566
0.404221594333648682 -0.357863187789916992 -0.224216878414154053
-0.500329792499542236 0.145658642053604126 0.354543983936309814
0.50968855619430542 -0.1515665203332901 0.114906422793865204
0.496907949447631836 -0.264148145914077759 -0.304595708847045898
0.458032965660095215 -0.281115293502807617 -0.289950758218765259
0.440992742776870728 -0.265186160802841187 -0.283907204866409302
-0.588139235973358154 0.357603341341018677 0.0615364387631416321
0.505293369293212891 -0.126875519752502441 0.124324068427085876
-0.206312224268913269 0.312582612037658691 0.10864190012216568
0.268270730972290039 -0.284112840890884399 0.319165140390396118
0.232619956135749817 0.00356148905120790005 0.317801326513290405
0.513309776782989502 -0.175852835178375244 -0.281964391469955444
-0.115265227854251862 0.00983178615570068359 0.00575312785804271698
0.40395316481590271 -0.359892457723617554 -0.224840253591537476
0.417708486318588257 -0.313399046659469604 0.143705949187278748
-0.555616140365600586 0.376647025346755981 0.186626911163330078
-0.175718724727630615 0.30925220251083374 0.118321962654590607
-0.389872044324874878 0.276108741760253906 -0.0852059498429298401
0.365326166152954102 0.051836889237165451 0.0244669225066900253
0.129236400127410889 0.115754470229148865 0.318783313035964966
-0.286595612764358521 -0.100790731608867645 -0.0921764373779296875
0.25816771388053894 0.100944139063358307 -0.0621910504996776581
-0.361347198486328125 -0.0599938221275806427 -0.144273668527603149
0.134190350770950317 0.113718710839748383 0.337731778621673584
-0.563224971294403076 0.199337944388389587 -0.229224085807800293
-0.276525110006332397 0.288102209568023682 -0.00103268434759229422
0.454947501420974731 -0.246670305728912354 -0.28849753737449646
0.460296392440795898 -0.27564471960067749 -0.29101860523223877
-0.634960711002349854 0.308274835348129272 0.17019827663898468
0.512569844722747803 -0.317658841609954834 -0.0386835671961307526
0.468999683856964111 -0.266037732362747192 -0.298149138689041138
0.478214830160140991 -0.29526558518409729 -0.300422430038452148
0.458204537630081177 -0.246453821659088135 -0.290069252252578735
0.381189346313476562 -0.361228436231613159 -0.214027851819992065
-0.479487478733062744 -0.0126354275271296501 0.185749858617782593
-0.516591012477874756 0.365909546613693237 0.173918008804321289
-0.618642687797546387 0.202084705233573914 -0.08737984299659729
-0.23736022412776947 0.0187201965600252151 -0.0726935267448425293
-0.382643789052963257 -0.0591793842613697052 0.0235912632197141647
0.474967002868652344 -0.368528664112091064 0.0217259656637907028
-0.649356722831726074 0.236833706498146057 0.0320255421102046967
0.412648707628250122 -0.346958369016647339 -0.221813812851905823
0.526160001754760742 -0.337310999631881714 0.0800025314092636108
0.506092965602874756 -0.239235877990722656 -0.308263778686523438
0.249626025557518005 -0.282297313213348389 0.318223059177398682
0.23928813636302948 0.0666119828820228577 0.314560025930404663
0.539650201797485352 -0.302026093006134033 -0.0937772989273071289
-0.447928309440612793 -0.0414959266781806946 0.126424148678779602
-0.0438305027782917023 0.10451401025056839 0.317741841077804565
0.248051568865776062 0.0210536252707242966 0.322128176689147949
-0.284919649362564087 -0.0999237075448036194 -0.0991959348320960999
-0.137791574001312256 -0.0151971038430929184 -0.0489650964736938477
-0.277975112199783325 0.337988078594207764 0.0468765087425708771
-0.254807978868484497 0.289999246597290039 -0.00336907641030848026
-0.218984618782997131 0.322005361318588257 0.0697289109230041504
-0.573343634605407715 0.152278423309326172 -0.0746890753507614136
-0.290051817893981934 0.292804419994354248 0.0159159563481807709
0.52572554349899292 -0.320831060409545898 0.0270990971475839615
0.346188873052597046 -0.0305478423833847046 -0.0346287339925765991
0.522346675395965576 -0.363076955080032349 0.0893416702747344971
-0.0833021923899650574 -0.111949488520622253 0.0783726871013641357
-0.404085934162139893 0.326161980628967285 0.121113710105419159
0.504854857921600342 -0.367259979248046875 -0.00457120733335614204
-0.118737779557704926 0.26618388295173645 0.120838716626167297
0.518822431564331055 -0.343127250671386719 0.0357720665633678436
0.130352750420570374 -0.334756284952163696 0.301241844892501831
0.466735392808914185 -0.311212241649627686 0.0723892375826835632
0.482969462871551514 -0.3741798996925354 0.0522573180496692657
0.421188443899154663 -0.0260961521416902542 0.0647374466061592102
0.494249522686004639 -0.363722443580627441 -0.0156245380640029907
-0.233034536242485046 0.287253141403198242 0.0840221121907234192
0.531315207481384277 -0.331936687231063843 -0.00730914296582341194
-0.272037535905838013 0.315516769886016846 0.113860920071601868
0.308328211307525635 0.00256403512321412563 0.0461629480123519897
0.467481553554534912 -0.263644993305206299 -0.296220630407333374
0.473936766386032104 -0.304478198289871216 0.11417534202337265
0.511260867118835449 -0.313833832740783691 -0.104500830173492432
0.509241461753845215 -0.245584949851036072 -0.308581292629241943
0.448008626699447632 -0.292746871709823608 -0.292907357215881348
0.466451555490493774 -0.283514857292175293 -0.297426491975784302
0.138423427939414978 0.112836919724941254 0.336671501398086548
-0.652197420597076416 0.285841047763824463 0.0978078171610832214
-0.638394176959991455 0.24491429328918457 -0.0384008511900901794
0.136404424905776978 0.0693039372563362122 0.337798655033111572
-0.577200174331665039 0.303932905197143555 -0.0557565577328205109
0.26256251335144043 0.0304586924612522125 -0.0736302807927131653
0.542058587074279785 -0.216852009296417236 0.111500263214111328
-0.36014220118522644 -0.0359632484614849091 -0.134481623768806458
-0.574844300746917725 0.327630162239074707 -0.029762687161564827
-0.361827552318572998 -0.0711338073015213013 -0.0341242551803588867
-0.130564644932746887 -0.267795562744140625 0.119020231068134308
0.495223313570022583 -0.366016298532485962 -0.000457232061307877302
0.373880147933959961 -0.359625846147537231 -0.210193634033203125
-0.378418177366256714 -0.107093937695026398 0.10120854526758194
-0.0670580267906188965 -0.264165252447128296 0.296470195055007935
0.519921302795410156 -0.24353577196598053 -0.309599846601486206
0.509553670883178711 -0.330739974975585938 0.0151885682716965675
-0.593447327613830566 0.369156956672668457 0.120409950613975525
-0.65544205904006958 0.175718694925308228 -0.103227205574512482
-0.223062679171562195 -0.144387662410736084 -0.053860250860452652
-0.191303327679634094 0.316765844821929932 0.100593671202659607
0.256729483604431152 -0.283587336540222168 0.319656789302825928
0.23925955593585968 0.0322431847453117371 0.319034725427627563
-0.120136156678199768 -0.0462270975112915039 0.00715710222721099854
-0.641642630100250244 0.308784633874893188 0.101682946085929871
0.364765286445617676 -0.374173164367675781 -0.207107514142990112
0.53784632682800293 -0.217858538031578064 0.161797821521759033
-0.552838504314422607 0.382646143436431885 0.157820418477058411
-0.122522272169589996 0.259396493434906006 0.114970371127128601
0.119493111968040466 0.102475158870220184 0.0893013551831245422
-0.375539332628250122 0.265945285558700562 -0.0897433608770370483
0.516981363296508789 -0.349222779273986816 0.0987081602215766907
-0.293583929538726807 -0.107398144900798798 -0.109450593590736389
0.27508506178855896 0.102999478578567505 -0.0578305162489414215
-0.575192093849182129 0.219607636332511902 -0.212841212749481201
-0.115555055439472198 0.268691420555114746 0.179672285914421082
0.236082330346107483 -0.288072347640991211 0.314345031976699829
0.310244292020797729 -0.187410488724708557 0.240954190492630005
0.54184335470199585 -0.326021939516067505 -0.0210078209638595581
0.0790276080369949341 -0.33786502480506897 0.282193094491958618
-0.00639927759766578674 -0.17204129695892334 0.00411199219524860382
-0.282335549592971802 0.261835813522338867 0.00688378512859344482
0.513174474239349365 -0.237305834889411926 -0.309597760438919067
-0.647001564502716064 0.278390705585479736 0.0793471559882164001
-0.646375060081481934 0.183236166834831238 -0.0910750925540924072
0.514190077781677246 -0.32269597053527832 0.0242016129195690155
-0.406984597444534302 -0.0637780129909515381 0.113398991525173187
0.516905009746551514 -0.355897575616836548 -0.0207149460911750793
-0.566650450229644775 0.374515146017074585 0.152321174740791321
0.236013904213905334 0.0430589169263839722 0.313580721616744995
-0.664876878261566162 0.227224811911582947 0.022907378152012825
-0.448136985301971436 -0.0385959558188915253 0.126932799816131592
0.503068149089813232 -0.302482008934020996 -0.179006949067115784
-0.589196324348449707 0.361214041709899902 0.0859047025442123413
-0.194145068526268005 0.315039247274398804 0.104712501168251038
0.247035309672355652 0.0239587277173995972 0.32372206449508667
0.53098982572555542 -0.323992162942886353 -0.0581816770136356354
-0.182887613773345947 0.30713731050491333 0.128331556916236877
0.247282460331916809 0.00702721113339066505 0.323855817317962646
0.0587098486721515656 0.139726772904396057 0.345627009868621826
-0.505754292011260986 0.149462431669235229 0.356743305921554565
0.270787298679351807 -0.311340272426605225 0.326204568147659302
-0.253793418407440186 0.0234602000564336777 -0.0709042772650718689
0.24113166332244873 -0.295385092496871948 0.322449594736099243
0.249067798256874084 0.0438456833362579346 0.314307689666748047
0.468468159437179565 -0.102051988244056702 0.0344806350767612457
-0.124777548015117645 0.195164114236831665 0.115243837237358093
0.240022897720336914 -0.326716005802154541 0.317904233932495117
0.500336408615112305 -0.36677590012550354 0.0745741724967956543
0.523518741130828857 -0.324899464845657349 0.0261223427951335907
0.444705963134765625 -0.253345102071762085 0.332314819097518921
0.321567267179489136 -0.131570234894752502 -0.10684213787317276
0.0634152218699455261 -0.010764777660369873 0.321596443653106689
0.511384189128875732 -0.361078530550003052 0.0474305897951126099
0.135739058256149292 -0.100789248943328857 0.0403681546449661255
0.0495683960616588593 0.0114959804341197014 0.0295299366116523743
0.0208200626075267792 0.0482014790177345276 0.0423938445746898651
0.0881911441683769226 -0.0661097392439842224 0.289537698030471802
-0.162109866738319397 -0.265878289937973022 0.147922396659851074
0.265040576457977295 -0.0202079582959413528 0.061375252902507782
-0.0288864318281412125 -0.0290644709020853043 0.2954559326171875
0.502245724201202393 -0.240552827715873718 -0.302181780338287354
0.476012140512466431 -0.315203964710235596 -0.302116692066192627
-0.63094097375869751 0.306423723697662354 0.167183026671409607
0.475574791431427002 -0.320994406938552856 0.120943307876586914
0.509173035621643066 -0.301057994365692139 -0.105665259063243866
0.528288364410400391 -0.27513730525970459 -0.317353993654251099
0.493620991706848145 -0.332671940326690674 -0.310865700244903564
0.503614485263824463 -0.320318877696990967 0.0979369059205055237
0.474261730909347534 -0.306037873029708862 -0.298270523548126221
-0.559359967708587646 0.268222928047180176 0.364351451396942139
0.125099331140518188 0.11688503623008728 0.314084053039550781
-0.633594512939453125 0.282359570264816284 0.0540851913392543793
-0.587383627891540527 0.362969696521759033 0.102244526147842407
0.371603637933731079 -0.374326139688491821 -0.212884902954101562
0.438571184873580933 -0.348167002201080322 0.154275640845298767
0.0581947006285190582 0.121339745819568634 0.321001976728439331
-0.574595212936401367 0.368992865085601807 0.215379670262336731
0.264822155237197876 0.024564811959862709 -0.0588311739265918732
0.368914604187011719 -0.336976885795593262 0.160549595952033997
0.51061481237411499 -0.301778435707092285 -0.112114548683166504
0.13373255729675293 -0.320889025926589966 -0.0979137793183326721
0.516683638095855713 -0.349021285772323608 -0.0203722584992647171
0.389396995306015015 -0.347046613693237305 -0.214244097471237183
-0.577043771743774414 0.319218486547470093 0.0406042821705341339
0.536104083061218262 -0.278107672929763794 -0.320756793022155762
0.467971324920654297 -0.3111744225025177 -0.299407064914703369
0.507309496402740479 -0.347354680299758911 0.0178537555038928986
-0.555930733680725098 0.309856712818145752 0.10208062082529068
0.194016635417938232 -0.339634329080581665 -0.0592934489250183105
0.0702160969376564026 -0.28252527117729187 -0.0780372843146324158
0.252601981163024902 -0.250433176755905151 0.320116221904754639
0.240053921937942505 0.0308845620602369308 0.316812455654144287
-0.120997197926044464 -0.0480269230902194977 0.00801209546625614166
0.178882226347923279 -0.100351095199584961 -0.0149564975872635841
0.532576143741607666 -0.332544118165969849 -0.0132489241659641266
0.370470255613327026 -0.349772930145263672 -0.209024250507354736
0.535102188587188721 -0.246025189757347107 0.177219286561012268
0.561228454113006592 -0.316066741943359375 -0.331082165241241455
0.554672718048095703 -0.211910143494606018 0.133859321475028992
-0.543302416801452637 0.380946218967437744 0.164363577961921692
0.122997738420963287 0.117145352065563202 0.132985904812812805
-0.582264304161071777 0.352083772420883179 0.0976368710398674011
-0.481594055891036987 0.185964912176132202 -0.0916921123862266541
0.515764355659484863 -0.33942335844039917 0.0387647449970245361
0.25361025333404541 -0.279361426830291748 0.321941375732421875
0.278652697801589966 -0.356261610984802246 -0.126189142465591431
0.508015334606170654 -0.286926031112670898 -0.313827931880950928
-0.432121247053146362 -0.0574510283768177032 0.116616860032081604
0.202113732695579529 0.0904397517442703247 0.22325173020362854
0.244422599673271179 0.104497641324996948 -0.0573990605771541595
-0.195667281746864319 0.201576694846153259 0.349222779273986816
0.250617563724517822 0.0248464383184909821 0.323245853185653687
0.239974871277809143 0.0189351476728916168 0.320939093828201294
-0.0313371606171131134 0.16271422803401947 0.382570952177047729
-0.482481956481933594 -0.015848163515329361 0.180098876357078552
0.483967423439025879 -0.369348287582397461 0.0460099764168262482
-0.643523991107940674 0.287209898233413696 0.086063876748085022
0.276106983423233032 -0.166058316826820374 -0.0706324726343154907
-0.411788523197174072 -0.0571323111653327942 0.0788273215293884277
-0.643032491207122803 0.175695046782493591 -0.0821581557393074036
-0.22590319812297821 -0.134275555610656738 -0.0523211546242237091
0.255113303661346436 -0.265769690275192261 0.321100831031799316
-0.345328092575073242 0.0170778650790452957 -0.117036052048206329
-0.287105292081832886 -0.0918974131345748901 -0.106617644429206848
-0.585088908672332764 0.209812343120574951 -0.218148738145828247
0.267770379781723022 -0.297236353158950806 0.315180778503417969
-0.0255054999142885208 -0.187612622976303101 -0.0435906201601028442
-0.618077695369720459 0.27699550986289978 0.031260710209608078
-0.608852863311767578 0.298329085111618042 0.0923440605401992798
-0.397527515888214111 -0.0631287321448326111 0.11882270872592926
-0.451673805713653564 -0.0384267568588256836 0.119413658976554871
0.43128502368927002 -0.271980077028274536 0.329190939664840698
-0.0523542948067188263 0.140714496374130249 0.091589607298374176
-0.503020763397216797 0.151087313890457153 0.355359554290771484
0.240984171628952026 -0.319537192583084106 0.322802275419235229
0.497345715761184692 -0.371167480945587158 0.0573327317833900452
0.399481087923049927 -0.257095098495483398 0.32246088981628418
-0.158257171511650085 -0.263850569725036621 0.181567475199699402
-0.499152719974517822 0.0138235501945018768 0.158005833625793457
0.417765915393829346 -0.297615349292755127 0.328741550445556641
0.535499155521392822 -0.340536445379257202 -0.0184785071760416031
0.344469130039215088 -0.267749875783920288 -0.127962112426757812
-0.496462434530258179 0.0718305632472038269 0.203908130526542664
0.443827062845230103 -0.272424697875976562 0.333420664072036743
0.522242307662963867 -0.335737496614456177 0.0327668711543083191
0.45353388786315918 -0.320309847593307495 -0.293147921562194824
0.474456191062927246 -0.312006443738937378 0.11667998880147934
0.517394125461578369 -0.278810560703277588 -0.312938809394836426
0.502830743789672852 -0.32635420560836792 -0.314431846141815186
0.518334329128265381 -0.327444314956665039 0.101903945207595825
0.47948986291885376 -0.311838924884796143 -0.302287101745605469
0.114692568778991699 0.118483781814575195 0.288940846920013428
-0.121871508657932281 0.268631458282470703 0.158683642745018005
-0.61482536792755127 0.265462428331375122 0.0519652217626571655
-0.479370802640914917 0.00282657262869179249 0.181277915835380554
0.426907867193222046 -0.355359405279159546 0.15855678915977478
-0.292280107736587524 -0.110983394086360931 -0.105873912572860718
0.130650773644447327 0.0653760656714439392 0.321162223815917969
0.253885358572006226 0.0384934432804584503 -0.0779468119144439697
0.235645905137062073 0.0937167853116989136 -0.0532224029302597046
0.417870819568634033 -0.261938005685806274 -0.20245872437953949
0.521894097328186035 -0.355020850896835327 -0.0194963384419679642
-0.608895659446716309 0.381167829036712646 0.181137964129447937
0.517745137214660645 -0.279711514711380005 -0.314861536026000977
0.499334365129470825 -0.350365191698074341 0.0240463130176067352
-0.587867498397827148 0.369346112012863159 0.11293194442987442
0.506185412406921387 -0.104985974729061127 0.147227957844734192
-0.198004975914955139 0.311572134494781494 0.112832918763160706
0.264219135046005249 -0.286819756031036377 0.319769412279129028
0.237085282802581787 0.0620058737695217133 0.310470670461654663
-0.144443616271018982 -0.0437692739069461823 0.004079457838088274
-0.657786130905151367 0.214623048901557922 -0.0463157035410404205
-0.288565784692764282 -0.0763249769806861877 -0.0687166452407836914
0.227402061223983765 0.0419717952609062195 -0.0482961200177669525
0.551747918128967285 -0.144769057631492615 0.131991878151893616
0.519979476928710938 -0.295709371566772461 0.0748659446835517883
0.517775118350982666 -0.284451216459274292 -0.18126995861530304
-0.358051180839538574 -0.0174047388136386871 -0.0280444305390119553
0.0915973186492919922 0.0880403071641921997 0.0856557190418243408
0.466859430074691772 -0.36227571964263916 -0.0107144322246313095
-0.4329376220703125 0.157597020268440247 -0.0665997415781021118
0.524008393287658691 -0.33600085973739624 0.068875439465045929
0.263078957796096802 -0.286188870668411255 0.318492382764816284
0.00944745726883411407 -0.091283842921257019 -0.0262492112815380096
0.0326481536030769348 -0.130693212151527405 0.0217564050108194351
-0.630737543106079102 0.264974415302276611 0.0289222560822963715
0.242290079593658447 0.0741830095648765564 0.318737804889678955
0.240361794829368591 0.0294092278927564621 0.318826049566268921
-0.174789085984230042 0.300843715667724609 0.116207621991634369
0.304802745580673218 -0.151522442698478699 0.307760506868362427
0.262113213539123535 -0.290991008281707764 0.320979058742523193
-0.476192891597747803 -0.00844413228332996368 0.166150182485580444
0.24292483925819397 0.0816227346658706665 0.312094748020172119
0.520431697368621826 -0.351655632257461548 0.081914462149143219
-0.0348175540566444397 -0.237940624356269836 0.124038957059383392
-0.638339459896087646 0.289992362260818481 0.0986941009759902954
-0.234219998121261597 -0.133251219987869263 -0.0581066161394119263
-0.379266530275344849 -0.109173476696014404 0.105476446449756622
-0.236429139971733093 -0.14828471839427948 -0.0579498633742332458
-0.657997488975524902 0.214317604899406433 -0.0340207889676094055
0.529068946838378906 -0.352988958358764648 0.0778577104210853577
-0.62118297815322876 0.270241439342498779 0.0523613058030605316
-0.404147475957870483 -0.0646754428744316101 0.111993782222270966
-0.446333080530166626 -0.0418160147964954376 0.121920764446258545
0.268181860446929932 -0.285879909992218018 0.323453545570373535
0.127771809697151184 -0.326909273862838745 0.312575817108154297
0.152432933449745178 -0.343398392200469971 0.317850470542907715
0.447861582040786743 -0.336072444915771484 -0.293119519948959351
0.515917599201202393 -0.303355962038040161 -0.108032770454883575
0.515366673469543457 -0.280683249235153198 -0.312957257032394409
0.484998434782028198 -0.328123539686203003 -0.309915512800216675
0.464475065469741821 -0.346338152885437012 -0.302789360284805298
0.549726784229278564 -0.210623234510421753 -0.316114544868469238
0.524230301380157471 -0.300474494695663452 -0.322605758905410767
0.518096387386322021 -0.301286280155181885 -0.318501949310302734
0.247010976076126099 0.0568942688405513763 0.316332787275314331
0.241493344306945801 0.0873790159821510315 0.312661647796630859
-0.291730999946594238 -0.100982584059238434 -0.102003559470176697
-0.453588992357254028 -0.0523059144616127014 0.117013402283191681
0.404950886964797974 -0.272520899772644043 0.322508096694946289
-0.502410531044006348 0.00351818953640758991 0.189055636525154114
0.40124240517616272 -0.287503153085708618 0.324826031923294067
0.399391114711761475 -0.273816049098968506 0.323303431272506714
0.342408657073974609 -0.259288638830184937 0.0900380536913871765
-0.0187142100185155869 -0.244731798768043518 0.128612324595451355
-0.46451905369758606 0.0357501879334449768 0.189484491944313049
-0.19439399242401123 0.2215290367603302 0.171969249844551086
0.367005586624145508 -0.329643905162811279 -0.023592483252286911
0.323545277118682861 -0.390519410371780396 -0.15898267924785614
0.535582602024078369 -0.323999702930450439 -0.0582821741700172424
-0.441776692867279053 -0.00500468583777546883 0.152635827660560608
-0.01906568743288517 -0.0597683824598789215 0.141647621989250183
-0.00015644615632481873 -0.236467346549034119 0.106322303414344788
0.526363551616668701 -0.202138006687164307 -0.0801178142428398132
0.449921965599060059 -0.308752059936523438 -0.293007731437683105
0.526960551738739014 -0.27583998441696167 -0.315808594226837158
0.500026464462280273 -0.325304180383682251 -0.312801837921142578
0.475341737270355225 -0.305467426776885986 -0.297522902488708496
-0.127438351511955261 0.246579185128211975 0.138864710927009583
-0.649041056632995605 0.282014816999435425 0.0940713062882423401
-0.198972001671791077 0.286672770977020264 0.335838556289672852
0.498167335987091064 -0.0869945734739303589 0.136589646339416504
0.200872570276260376 -0.359568268060684204 -0.0909175574779510498
0.5055694580078125 -0.368048280477523804 -0.0227569639682769775
0.527421951293945312 -0.24297119677066803 0.172920182347297668
-0.586017966270446777 0.379386812448501587 0.170526877045631409
0.445138722658157349 -0.315345346927642822 -0.287881255149841309
0.498745769262313843 -0.111371979117393494 0.112101107835769653
-0.655820786952972412 0.175402328372001648 -0.103924117982387543
-0.201982066035270691 0.308766365051269531 0.0890429317951202393
0.201440334320068359 -0.0137742310762405396 0.295201629400253296
0.16013924777507782 -0.0624122694134712219 -0.0441942960023880005
-0.579594790935516357 0.302289366722106934 0.368556469678878784
0.275185704231262207 0.0982324406504631042 -0.0292542111128568649
-0.435308367013931274 0.155296474695205688 -0.0861249640583992004
0.534604728221893311 -0.333396464586257935 0.0126992072910070419
-0.568803727626800537 0.197252437472343445 -0.229234576225280762
-0.497667312622070312 0.0447900108993053436 -0.0869698822498321533
0.031507246196269989 -0.104280158877372742 0.0329069681465625763
0.534212946891784668 -0.264875024557113647 -0.316454678773880005
0.00985383149236440659 0.197581380605697632 0.0274491626769304276
0.302290767431259155 0.0387028492987155914 -0.0846197307109832764
-0.332161873579025269 -0.0162639021873474121 -0.107794277369976044
0.236635759472846985 0.014290384016931057 0.321745127439498901
0.125188872218132019 0.0128301167860627174 0.298895686864852905
0.527686774730682373 -0.355509281158447266 0.0663023218512535095
0.467229574918746948 -0.310228556394577026 -0.233236566185951233
-0.652020573616027832 0.28535759449005127 0.104178167879581451
0.546758055686950684 -0.220244571566581726 0.163477197289466858
0.528202354907989502 -0.323724210262298584 -0.016096360981464386
-0.382966160774230957 -0.0566699095070362091 0.0761662870645523071
0.457043379545211792 -0.311234176158905029 -0.292703837156295776
0.505101203918457031 -0.340229123830795288 -0.318036705255508423
0.478958457708358765 -0.31471484899520874 -0.29964524507522583
0.520503818988800049 -0.301690727472305298 -0.317465722560882568
-0.00217578792944550514 -0.140296190977096558 -0.0249105338007211685
0.397725164890289307 -0.27337375283241272 0.32347831130027771
0.401395857334136963 -0.271800607442855835 0.323783397674560547
0.506280004978179932 -0.33230242133140564 0.105830736458301544
-0.467515110969543457 0.042289339005947113 0.170592412352561951
0.410240381956100464 -0.34617653489112854 0.156574130058288574
-0.36075514554977417 -0.0355751775205135345 -0.148185551166534424
-0.128098472952842712 -0.26803705096244812 0.112380936741828918
0.512787520885467529 -0.369384974241256714 -0.0146981347352266312
-0.213608086109161377 0.312570661306381226 0.0975787416100502014
0.25078129768371582 -0.287332266569137573 0.322917908430099487
0.209110483527183533 0.00924296677112579346 -0.0462280102074146271
0.0701204761862754822 -0.151811540126800537 -0.0173233654350042343
-0.169628322124481201 0.304798781871795654 0.118771985173225403
0.47131618857383728 -0.364692360162734985 0.0070133451372385025
-0.290851175785064697 -0.0997723862528800964 -0.103261254727840424
0.0366024933755397797 -0.149978667497634888 -0.0217904709279537201
0.232380732893943787 0.056119963526725769 0.309155791997909546
0.253587782382965088 -0.288894444704055786 0.320699334144592285
-0.471611350774765015 0.000955038005486130714 0.168615430593490601
0.241201505064964294 0.0625799745321273804 0.313054114580154419
0.509168505668640137 -0.352351605892181396 0.0639481320977210999
0.227612346410751343 -0.315053284168243408 0.314606904983520508
-0.375261634588241577 -0.0934301912784576416 0.0861520916223526001
-0.0625450834631919861 -0.241877511143684387 0.302581936120986938
-0.222569361329078674 -0.127984195947647095 -0.0531689748167991638
-0.40976327657699585 -0.0656936317682266235 0.0984832793474197388
-0.444876581430435181 -0.0449380464851856232 0.132697463035583496
0.239173188805580139 -0.294282048940658569 0.314475357532501221
0.154104828834533691 -0.324598193168640137 0.32016029953956604
0.425534337759017944 -0.256282001733779907 0.328629553318023682
0.438414216041564941 -0.343300670385360718 -0.292772918939590454
0.506520450115203857 -0.334929794073104858 -0.318182200193405151
0.445264458656311035 -0.352648794651031494 -0.286826968193054199
0.238467231392860413 0.0656445100903511047 0.312333077192306519
0.403469890356063843 -0.287731856107711792 0.325950652360916138
-0.49463304877281189 0.00655065104365348816 0.188342973589897156
0.486015617847442627 -0.0634182021021842957 0.13171270489692688
0.0127200894057750702 -0.171027392148971558 0.00978520140051841736
0.531782150268554688 -0.307930141687393188 -0.0622506998479366302
0.315031290054321289 -0.302592933177947998 -0.126890018582344055
0.446108460426330566 -0.291679978370666504 -0.285745143890380859
-0.33673560619354248 0.224680542945861816 0.125677317380905151
-0.400688499212265015 -0.028399340808391571 -0.00195503188297152519
0.403381645679473877 -0.271943539381027222 0.324166953563690186
-0.133078739047050476 0.195753440260887146 0.167706817388534546
0.3994312584400177 -0.271880030632019043 0.323980003595352173
-0.446345806121826172 -0.0251618605107069016 0.0213621649891138077
-0.137755721807479858 0.244849458336830139 0.191662788391113281
-0.612579166889190674 0.294090330600738525 0.183656007051467896
0.124813273549079895 0.116017170250415802 0.316673427820205688
-0.120689526200294495 0.250586122274398804 0.161791011691093445
-0.583094298839569092 0.348245620727539062 0.0580536872148513794
0.427149504423141479 -0.348351240158081055 0.15305955708026886
-0.566530466079711914 0.295139968395233154 -0.0690803751349449158
0.252145290374755859 0.0266149360686540604 -0.079673081636428833
0.247945591807365417 0.100341998040676117 -0.0484400689601898193
-0.357229530811309814 -0.0559425503015518188 -0.141919583082199097
0.199000030755996704 0.120178461074829102 0.0356880165636539459
0.545876204967498779 -0.131708607077598572 0.111984297633171082
-0.581414401531219482 0.32184872031211853 -0.0229344610124826431
0.206453815102577209 0.0245832577347755432 0.176812827587127686
-0.595105528831481934 0.375259637832641602 0.171939566731452942
0.445124775171279907 -0.319438785314559937 0.127386003732681274
0.255390703678131104 -0.278857678174972534 0.316541522741317749
0.235852181911468506 0.0237306393682956696 0.316588699817657471
-0.362662672996520996 -0.0499356426298618317 -0.0238137133419513702
-0.182388737797737122 0.118099428713321686 0.0422555804252624512
0.255104809999465942 -0.288298726081848145 0.319359540939331055
0.242289304733276367 0.0331115610897541046 0.321852147579193115
0.400175213813781738 0.0232836753129959106 0.115133464336395264
-0.340266823768615723 -0.0663044676184654236 -0.147364839911460876
0.0760840848088264465 -0.333108186721801758 0.299032986164093018
-0.38648948073387146 -0.0609198249876499176 0.0938026458024978638
-0.447909772396087646 -0.0414112024009227753 0.127704843878746033
0.43967902660369873 -0.279412627220153809 0.333707958459854126
0.0347517691552639008 -0.123017080128192902 -0.0257047843188047409
