ply
format ascii 1.0
element vertex 738
property float x
property float y
property float z
end_header
0.0880239680409431458 -0.0658540725708007812 0.289577752351760864
-0.162102624773979187 -0.265353232622146606 0.147971227765083313
0.2648029625415802 -0.0200365148484706879 0.0613543577492237091
-0.0290061328560113907 -0.0287788026034832001 0.295514315366744995
0.502167701721191406 -0.240228086709976196 -0.302249938249588013
0.475945949554443359 -0.31484377384185791 -0.302180975675582886
-0.630973100662231445 0.306587696075439453 0.167235717177391052
0.475382298231124878 -0.320725411176681519 0.120865024626255035
0.509041249752044678 -0.300752043724060059 -0.105741560459136963
0.528215467929840088 -0.274800390005111694 -0.317427545785903931
0.49355807900428772 -0.33231016993522644 -0.310934782028198242
0.503425359725952148 -0.320048302412033081 0.0978512167930603027
0.474193066358566284 -0.305679440498352051 -0.298334449529647827
-0.559370875358581543 0.268375277519226074 0.364420443773269653
0.124854043126106262 0.117022693157196045 0.314110368490219116
-0.633611083030700684 0.28254854679107666 0.0541254431009292603
-0.587410151958465576 0.363101303577423096 0.102285586297512054
0.371533244848251343 -0.373941868543624878 -0.212923675775527954
0.438385188579559326 -0.347885400056838989 0.154207676649093628
0.0579803138971328735 0.121503300964832306 0.321045070886611938
-0.574625849723815918 0.369109481573104858 0.215434640645980835
0.264612585306167603 0.0247328653931617737 -0.0588558092713356018
0.368732959032058716 -0.336687564849853516 0.160503998398780823
0.510485291481018066 -0.301471084356307983 -0.112191110849380493
0.133682876825332642 -0.320416897535324097 -0.0978738665580749512
0.516533553600311279 -0.348716825246810913 -0.0204592831432819366
0.38931959867477417 -0.346675068140029907 -0.214286103844642639
-0.577054917812347412 0.319384843111038208 0.0406415574252605438
0.536031544208526611 -0.277770668268203735 -0.320831865072250366
0.467904597520828247 -0.310813754796981812 -0.299469262361526489
0.507146835327148438 -0.347057044506072998 0.017767634242773056
-0.555957317352294922 0.310023039579391479 0.102123163640499115
0.193936198949813843 -0.339205533266067505 -0.0592734180390834808
0.0701763927936553955 -0.282035320997238159 -0.0779813975095748901
0.252426683902740479 -0.250175327062606812 0.320107638835906982
0.2397967129945755 0.0310136154294013977 0.316799968481063843
-0.121031150221824646 -0.0476358793675899506 0.00808143895119428635
0.178727179765701294 -0.100070424377918243 -0.0149373980239033699
0.532420635223388672 -0.3322487473487854 -0.0133393602445721626
0.370394349098205566 -0.349395215511322021 -0.209060147404670715
0.534894049167633057 -0.245815515518188477 0.177121296525001526
0.561160922050476074 -0.315721899271011353 -0.331163197755813599
0.554459929466247559 -0.211706474423408508 0.133757993578910828
-0.543331325054168701 0.381065070629119873 0.164409071207046509
0.122743353247642517 0.117296099662780762 0.133010119199752808
-0.582289278507232666 0.35222315788269043 0.0976778268814086914
-0.481554716825485229 0.186254531145095825 -0.0916570276021957397
0.515594542026519775 -0.339133888483047485 0.038676433265209198
0.253441721200942993 -0.279087543487548828 0.321933597326278687
0.278569787740707397 -0.355858415365219116 -0.126193687319755554
0.507945120334625244 -0.286580741405487061 -0.313897609710693359
-0.432087421417236328 -0.0569947212934494019 0.116660803556442261
0.201835811138153076 0.0905612185597419739 0.223253682255744934
0.244182154536247253 0.104626841843128204 -0.0574195608496665955
-0.195759832859039307 0.201745837926864624 0.349287211894989014
0.250359475612640381 0.0249733366072177887 0.323229402303695679
0.239722520112991333 0.0190697032958269119 0.320926755666732788
-0.0315139405429363251 0.162875145673751831 0.38262823224067688
-0.482460260391235352 -0.0154332574456930161 0.180146709084510803
0.483800768852233887 -0.369044512510299683 0.0459283515810966492
-0.643553018569946289 0.287388354539871216 0.086107306182384491
0.275960832834243774 -0.165764838457107544 -0.0706398561596870422
-0.41174924373626709 -0.0566697977483272552 0.0788702741265296936
-0.643011271953582764 0.175974145531654358 -0.0821268856525421143
-0.22585219144821167 -0.13375517725944519 -0.052254844456911087
0.254941105842590332 -0.265504539012908936 0.321092009544372559
-0.345261335372924805 0.0175136663019657135 -0.116987466812133789
-0.287017405033111572 -0.0913762524724006653 -0.10655183345079422
-0.585026741027832031 0.210081711411476135 -0.218121007084846497
0.267602145671844482 -0.296959042549133301 0.315169155597686768
-0.0255361367017030716 -0.187141254544258118 -0.043522316962480545
-0.618088066577911377 0.277190089225769043 0.0312993042171001434
-0.608878076076507568 0.29850354790687561 0.0923872366547584534
-0.397495955228805542 -0.0626716539263725281 0.118866734206676483
-0.451642423868179321 -0.0379856675863265991 0.119457893073558807
0.431086421012878418 -0.271777153015136719 0.329121977090835571
-0.0525211505591869354 0.140930026769638062 0.0916459634900093079
-0.503025829792022705 0.151342228055000305 0.35542568564414978
0.240828543901443481 -0.3192310631275177 0.322799891233444214
0.497176289558410645 -0.3708668053150177 0.0572471842169761658
0.399280935525894165 -0.256894886493682861 0.322400808334350586
-0.158256694674491882 -0.263338923454284668 0.181615591049194336
-0.499135822057723999 0.0142146134749054909 0.158056378364562988
0.417573928833007812 -0.297394037246704102 0.328678160905838013
0.535347044467926025 -0.340237468481063843 -0.0185700524598360062
0.344353735446929932 -0.267412662506103516 -0.127986490726470947
-0.496460378170013428 0.0721730589866638184 0.203961998224258423
0.443628102540969849 -0.272224068641662598 0.333347976207733154
0.522073626518249512 -0.335448980331420898 0.0326771773397922516
0.453468531370162964 -0.319945454597473145 -0.293206781148910522
0.474260836839675903 -0.31174081563949585 0.116602271795272827
0.517321646213531494 -0.278470665216445923 -0.31301039457321167
0.502766788005828857 -0.325995743274688721 -0.314502328634262085
0.518147587776184082 -0.327172607183456421 0.101813852787017822
0.479422777891159058 -0.311480283737182617 -0.302352100610733032
0.114449664950370789 0.118628531694412231 0.288970917463302612
-0.122047826647758484 0.268771320581436157 0.158747389912605286
-0.614840149879455566 0.265663713216781616 0.0520064607262611389
-0.479350566864013672 0.00323062296956777573 0.181322157382965088
0.426723957061767578 -0.355072855949401855 0.158492386341094971
-0.292193293571472168 -0.11044631153345108 -0.10581100732088089
0.130424812436103821 0.0655378773808479309 0.321186751127243042
0.253681689500808716 0.0386614389717578888 -0.0779678076505661011
0.235411688685417175 0.0938551202416419983 -0.053239084780216217
0.41776999831199646 -0.261609256267547607 -0.202506005764007568
0.521744966506958008 -0.354715049266815186 -0.0195853766053915024
-0.608928561210632324 0.381285667419433594 0.181187912821769714
0.517673254013061523 -0.279371052980422974 -0.314933061599731445
0.499170243740081787 -0.350066572427749634 0.0239619482308626175
-0.587895393371582031 0.369473904371261597 0.112973675131797791
0.505933761596679688 -0.104832425713539124 0.147135227918624878
-0.198129937052726746 0.31170085072517395 0.112896904349327087
0.264049500226974487 -0.286547333002090454 0.319758415222167969
0.236815959215164185 0.0621209964156150818 0.31045907735824585
-0.144465833902359009 -0.0433707423508167267 0.00414873287081718445
-0.657775163650512695 0.214870378375053406 -0.0462823398411273956
-0.288501650094985962 -0.0758301988244056702 -0.0686568170785903931
0.227192938327789307 0.0421436987817287445 -0.0483075007796287537
0.551514923572540283 -0.144595488905906677 0.131890207529067993
0.519790768623352051 -0.295446693897247314 0.0747769325971603394
0.517664253711700439 -0.284136146306991577 -0.181345999240875244
-0.357998579740524292 -0.0169558171182870865 -0.0279998593032360077
0.0913718268275260925 0.0882238298654556274 0.0856910794973373413
0.466706633567810059 -0.361961007118225098 -0.0107905715703964233
-0.432903200387954712 0.157906308770179749 -0.0665582641959190369
0.523830235004425049 -0.335719436407089233 0.0687843039631843567
0.262909442186355591 -0.28591609001159668 0.318481802940368652
0.0093728797510266304 -0.0909113809466362 -0.0261855907738208771
0.0325577482581138611 -0.130317419767379761 0.0218127444386482239
-0.63074725866317749 0.265177279710769653 0.0289611201733350754
0.242014408111572266 0.0742888897657394409 0.318723976612091064
0.240105196833610535 0.0295386947691440582 0.318813443183898926
-0.174930214881896973 0.300975263118743896 0.116272419691085815
0.304587364196777344 -0.151340529322624207 0.307729542255401611
0.261945128440856934 -0.290714889764785767 0.320968866348266602
-0.476171553134918213 -0.00803374964743852615 0.166197389364242554
0.242645025253295898 0.081724993884563446 0.31208077073097229
0.520253300666809082 -0.351369619369506836 0.0818231925368309021
-0.0348739326000213623 -0.237488791346549988 0.124093599617481232
-0.63836902379989624 0.290169268846511841 0.0987388044595718384
-0.234164774417877197 -0.132727310061454773 -0.0580408424139022827
-0.379228085279464722 -0.108677662909030914 0.105519339442253113
-0.23637060821056366 -0.147747442126274109 -0.0578849352896213531
-0.657990038394927979 0.214563414454460144 -0.0339862555265426636
0.528892040252685547 -0.352702468633651733 0.0777640268206596375
-0.62119823694229126 0.27043914794921875 0.052402254194021225
-0.404113978147506714 -0.0642148405313491821 0.112037539482116699
-0.446301788091659546 -0.0413728393614292145 0.121965087950229645
0.26801106333732605 -0.285610616207122803 0.323441028594970703
0.127654030919075012 -0.326534241437911987 0.312604665756225586
0.152310341596603394 -0.343027949333190918 0.317873477935791016
0.447799474000930786 -0.335702598094940186 -0.293177962303161621
0.515787005424499512 -0.303049445152282715 -0.108111120760440826
0.515294671058654785 -0.280342191457748413 -0.313028424978256226
0.484935492277145386 -0.327761054039001465 -0.309982270002365112
0.464415431022644043 -0.345967233180999756 -0.302853226661682129
0.549643933773040771 -0.210318431258201599 -0.316193759441375732
0.524162471294403076 -0.300127118825912476 -0.322678864002227783
0.51802825927734375 -0.300937920808792114 -0.318574100732803345
0.246740758419036865 0.0570073239505290985 0.31631740927696228
0.241211563348770142 0.0874788612127304077 0.312648117542266846
-0.291639506816864014 -0.100452907383441925 -0.101937867701053619
-0.453555107116699219 -0.0518527515232563019 0.117057792842388153
0.404753834009170532 -0.272313028573989868 0.322447121143341064
-0.50239408016204834 0.00391367776319384575 0.189108073711395264
0.401049166917800903 -0.287285804748535156 0.324766993522644043
0.399194866418838501 -0.273606628179550171 0.323244154453277588
0.342220842838287354 -0.259013891220092773 0.0900041013956069946
-0.0187774989753961563 -0.244285136461257935 0.128666043281555176
-0.464508265256881714 0.0361225716769695282 0.189533516764640808
-0.194507375359535217 0.221713930368423462 0.172033920884132385
0.366863548755645752 -0.329315304756164551 -0.0236321575939655304
0.32347029447555542 -0.390121161937713623 -0.159005165100097656
0.535439908504486084 -0.323698490858078003 -0.0583698265254497528
-0.441755682229995728 -0.00459641497582197189 0.152681201696395874
-0.0191779192537069321 -0.0594452470541000366 0.141703560948371887
-0.000227100768825039268 -0.23602721095085144 0.106377072632312775
0.526205182075500488 -0.201884269714355469 -0.0801998749375343323
0.44985508918762207 -0.30839008092880249 -0.293065011501312256
0.526887416839599609 -0.275502830743789673 -0.315882027149200439
0.499962210655212402 -0.324945569038391113 -0.312871724367141724
0.475272625684738159 -0.305109322071075439 -0.297587186098098755
-0.127602726221084595 0.246737480163574219 0.138927742838859558
-0.649076998233795166 0.282191216945648193 0.0941160470247268677
-0.199072703719139099 0.28677794337272644 0.335903197526931763
0.497909218072891235 -0.0868464335799217224 0.136498317122459412
0.200803712010383606 -0.359125494956970215 -0.0908976048231124878
0.505423486232757568 -0.367735326290130615 -0.0228426214307546616
0.527212679386138916 -0.242761746048927307 0.172824352979660034
-0.586050093173980713 0.379503637552261353 0.170576289296150208
0.445071965456008911 -0.314981728792190552 -0.28793761134147644
0.498497337102890015 -0.111208356916904449 0.112011454999446869
-0.655798256397247314 0.175681993365287781 -0.103897802531719208
-0.20209994912147522 0.308900028467178345 0.0891073420643806458
0.201213419437408447 -0.0136043243110179901 0.29520532488822937
0.159993857145309448 -0.0621382743120193481 -0.0441731996834278107
-0.579605042934417725 0.302415907382965088 0.368625760078430176
0.274923563003540039 0.0983469560742378235 -0.0292876586318016052
-0.43526795506477356 0.155610263347625732 -0.0860834568738937378
0.534441649913787842 -0.333106100559234619 0.0126069206744432449
-0.568735718727111816 0.197534844279289246 -0.22920505702495575
-0.497605830430984497 0.0451995134353637695 -0.0869292169809341431
0.0314069502055644989 -0.103926278650760651 0.0329624190926551819
0.534138023853302002 -0.2645435631275177 -0.316529452800750732
0.00963658653199672699 0.197746917605400085 0.0274960286915302277
0.302076637744903564 0.0388534963130950928 -0.0846589952707290649
-0.332092702388763428 -0.0158028136938810349 -0.107743255794048309
0.236386358737945557 0.0144285866990685463 0.321734100580215454
0.124984234571456909 0.0130251972004771233 0.298922508955001831
0.52751314640045166 -0.35521969199180603 0.066209159791469574
0.467142730951309204 -0.309884101152420044 -0.233299434185028076
-0.65205848217010498 0.285530745983123779 0.10422389954328537
0.546545267105102539 -0.220045551657676697 0.163376063108444214
0.528045892715454102 -0.323431044816970825 -0.0161848347634077072
-0.382929503917694092 -0.0562104210257530212 0.0762101411819458008
0.456975966691970825 -0.310872733592987061 -0.292763352394104004
0.505040109157562256 -0.339866966009140015 -0.318108499050140381
0.478891164064407349 -0.314355790615081787 -0.29971042275428772
0.520435154438018799 -0.301342964172363281 -0.31753849983215332
-0.00223338021896779537 -0.13988003134727478 -0.0248456038534641266
0.397528946399688721 -0.273164361715316772 0.323419541120529175
0.401199012994766235 -0.271592706441879272 0.323723435401916504
0.506092965602874756 -0.332028090953826904 0.105743788182735443
-0.467504560947418213 0.042658831924200058 0.170641005039215088
0.41005590558052063 -0.345891475677490234 0.156514987349510193
-0.360666245222091675 -0.0350821278989315033 -0.148137062788009644
-0.128100559115409851 -0.267513751983642578 0.112433083355426788
0.512639284133911133 -0.369074016809463501 -0.0147863645106554031
-0.213719084858894348 0.312703132629394531 0.0976419374346733093
0.250615417957305908 -0.287052035331726074 0.322911381721496582
0.208921134471893311 0.00944250915199518204 -0.0462309233844280243
0.0700302720069885254 -0.151429161429405212 -0.0172718241810798645
-0.169773414731025696 0.304927200078964233 0.118836425244808197
0.471155911684036255 -0.36438065767288208 0.0069337659515440464
-0.29075959324836731 -0.0992435887455940247 -0.103195302188396454
0.0365284942090511322 -0.149577334523200989 -0.0217321533709764481
0.232115522027015686 0.0562402606010437012 0.30914604663848877
0.253421485424041748 -0.288614630699157715 0.320692002773284912
-0.47159162163734436 0.00135844899341464043 0.168661877512931824
0.240930676460266113 0.0626928284764289856 0.31304091215133667
0.508994102478027344 -0.352060973644256592 0.0638603344559669495
0.227459415793418884 -0.31474149227142334 0.314608901739120483
-0.375224053859710693 -0.0929413288831710815 0.0861943066120147705
-0.0626016780734062195 -0.241462737321853638 0.302630454301834106
-0.22252027690410614 -0.127470001578330994 -0.053101908415555954
-0.409726738929748535 -0.0652286112308502197 0.0985266268253326416
-0.444846540689468384 -0.0444944873452186584 0.132742360234260559
0.239012092351913452 -0.293989807367324829 0.314473181962966919
0.153977274894714355 -0.324240356683731079 0.320183008909225464
0.425332427024841309 -0.256087243556976318 0.328561484813690186
0.438354343175888062 -0.342926740646362305 -0.292829275131225586
0.506458461284637451 -0.334569364786148071 -0.318253874778747559
0.445203602313995361 -0.352274894714355469 -0.286886721849441528
0.238196015357971191 0.0657569989562034607 0.312320917844772339
0.403276622295379639 -0.287514775991439819 0.325890928506851196
-0.494616270065307617 0.0069457455538213253 0.188393294811248779
0.485749274492263794 -0.0632791370153427124 0.131623134016990662
0.0126525545492768288 -0.170605063438415527 0.00984747428447008133
0.531637609004974365 -0.307633399963378906 -0.0623361356556415558
0.314928323030471802 -0.302227288484573364 -0.126904129981994629
0.446037203073501587 -0.291324049234390259 -0.285800963640213013
-0.336774289608001709 0.224896207451820374 0.125728696584701538
-0.400634258985519409 -0.0279412847012281418 -0.00191445706877857447
0.403184682130813599 -0.271735906600952148 0.324106395244598389
-0.133224889636039734 0.195945903658866882 0.167770147323608398
0.399234622716903687 -0.271671801805496216 0.323920637369155884
-0.446295350790023804 -0.0247105211019515991 0.0214036274701356888
-0.137912839651107788 0.24500429630279541 0.191727221012115479
-0.612612009048461914 0.294259458780288696 0.183711335062980652
0.12456870824098587 0.116155147552490234 0.316699773073196411
-0.120861217379570007 0.250737637281417847 0.161854401230812073
-0.583109736442565918 0.34839203953742981 0.0580904744565486908
0.426964432001113892 -0.348067432641983032 0.15299515426158905
-0.566507637500762939 0.295326471328735352 -0.0690442323684692383
0.251947879791259766 0.0267909746617078781 -0.0796928033232688904
0.247701689600944519 0.100470550358295441 -0.0484619699418544769
-0.357138931751251221 -0.0554331280291080475 -0.141869738698005676
0.198728591203689575 0.120301850140094757 0.0356842540204524994
0.545640170574188232 -0.131536334753036499 0.111883997917175293
-0.581407546997070312 0.322016417980194092 -0.0229009930044412613
0.206202611327171326 0.0247407015413045883 0.176813334226608276
-0.595137655735015869 0.375379979610443115 0.171989008784294128
0.444933444261550903 -0.319167912006378174 0.127316713333129883
0.255221456289291382 -0.278584599494934082 0.316533327102661133
0.235599204897880554 0.0238650552928447723 0.316577911376953125
-0.362604737281799316 -0.0494595356285572052 -0.0237683113664388657
-0.182457134127616882 0.118378855288028717 0.0423202738165855408
0.254937916994094849 -0.288020014762878418 0.319351702928543091
0.242030814290046692 0.0332380980253219604 0.321838676929473877
0.399877429008483887 0.0233893748372793198 0.115063108503818512
-0.340174943208694458 -0.0657872334122657776 -0.147311672568321228
0.0759875774383544922 -0.332699298858642578 0.299071133136749268
-0.386455357074737549 -0.060460306704044342 0.093846440315246582
-0.447879403829574585 -0.0409694388508796692 0.127749517560005188
0.439481914043426514 -0.279207080602645874 0.333636939525604248
0.0346731506288051605 -0.122634105384349823 -0.0256463848054409027
0.414449691772460938 -0.280654668807983398 0.326985567808151245
0.433159887790679932 -0.29594847559928894 0.333144515752792358
0.368118822574615479 -0.278548508882522583 -0.130388692021369934
-0.477072715759277344 0.00180000113323330879 0.188346803188323975
-0.291174054145812988 -0.0959527865052223206 -0.104527890682220459
0.241568565368652344 -0.312773317098617554 0.309720903635025024
0.473380416631698608 -0.354103684425354004 0.00694369617849588394
-0.296008855104446411 -0.096199721097946167 -0.106982298195362091
0.244917437434196472 -0.28836435079574585 0.320108860731124878
0.062525428831577301 -0.329398244619369507 0.297157317399978638
0.15826357901096344 -0.267504036426544189 -0.105572022497653961
0.250224918127059937 0.0634996816515922546 0.315462708473205566
-0.482190579175949097 -0.00755094876512885094 0.177964761853218079
0.236367598176002502 0.0666739270091056824 0.314823389053344727
0.238912016153335571 -0.331570327281951904 0.321455240249633789
-0.381899744272232056 -0.0916169807314872742 0.0367458462715148926
-0.215784221887588501 -0.139704212546348572 -0.0543344840407371521
-0.382357090711593628 -0.0632683858275413513 0.0835609287023544312
0.150189816951751709 -0.331345826387405396 0.331976532936096191
0.446002095937728882 -0.279740065336227417 0.333559364080429077
0.407562077045440674 -0.280364841222763062 0.325099557638168335
-0.501705408096313477 0.00692761922255158424 0.188706532120704651
-0.321596980094909668 0.0975648462772369385 -0.0702707767486572266
0.532702922821044922 -0.207419693470001221 -0.052773796021938324
0.451231032609939575 -0.293763190507888794 -0.290691256523132324
0.487695455551147461 -0.325113773345947266 -0.31111299991607666
0.44667699933052063 -0.309603840112686157 -0.291053116321563721
-0.577455818653106689 0.269428402185440063 0.365817427635192871
-0.461062729358673096 0.10613606870174408 -0.23104742169380188
0.375015527009963989 -0.31854817271232605 0.199040904641151428
-0.589505136013031006 0.367139339447021484 0.131201937794685364
0.39282304048538208 -0.353295981884002686 -0.217658787965774536
0.441373527050018311 -0.31014522910118103 -0.289261221885681152
-0.200485080480575562 0.305626213550567627 0.0949687734246253967
-0.155348986387252808 0.268112629652023315 0.151670575141906738
0.529990971088409424 -0.338350236415863037 0.0717004761099815369
0.464065909385681152 -0.266023069620132446 -0.217866390943527222
-0.633230030536651611 0.27593994140625 0.106992289423942566
0.438694745302200317 -0.308437317609786987 -0.287431508302688599
0.515736758708953857 -0.277085870504379272 -0.317080587148666382
0.51686173677444458 -0.340223222970962524 -0.320990562438964844
0.454639017581939697 -0.306921064853668213 -0.293490558862686157
0.491078019142150879 -0.321833878755569458 0.0942712724208831787
0.0208926666527986526 -0.27552562952041626 -0.0185755360871553421
-0.653727233409881592 0.172219827771186829 -0.10817524790763855
-0.224510535597801208 0.31872481107711792 0.121370717883110046
0.465553343296051025 -0.363985180854797363 0.00577314244583249092
0.481263428926467896 -0.336711287498474121 0.0501527860760688782
0.5117645263671875 -0.339282423257827759 -0.319649308919906616
0.44046550989151001 -0.356424629688262939 -0.297841340303421021
-0.269790500402450562 0.322210133075714111 0.0418867096304893494
0.424417197704315186 -0.313155591487884521 -0.282121926546096802
0.415652662515640259 -0.295105427503585815 0.328434646129608154
-0.325775891542434692 -0.0750860795378684998 0.123515695333480835
-0.366559386253356934 -0.0664016231894493103 0.154725074768066406
-0.338025480508804321 0.215064257383346558 0.132866755127906799
0.0101877739652991295 0.119554571807384491 0.105125501751899719
0.542236864566802979 -0.309105515480041504 -0.046367347240447998
0.0139058418571949005 -0.261517822742462158 0.0395199432969093323
-0.00329162692651152611 -0.236300691962242126 0.0942852720618247986
0.00046330358600243926 -0.219345048069953918 0.0815392285585403442
0.465128034353256226 -0.360840976238250732 0.0301809422671794891
-0.269079089164733887 -0.137701123952865601 0.177561953663825989
-0.344766199588775635 -0.0655782446265220642 0.141313567757606506
0.123690478503704071 -0.276467800140380859 0.128986731171607971
-0.133665934205055237 0.0790169090032577515 0.0902919098734855652
0.463602751493453979 -0.0543686337769031525 0.0173992384225130081
-0.0138704963028430939 -0.216653183102607727 0.0803819149732589722
-0.554483354091644287 0.391840368509292603 0.147729456424713135
0.496818691492080688 -0.366716891527175903 0.0050992872565984726
-0.610440552234649658 0.294257164001464844 0.186515927314758301
0.530268192291259766 -0.275152415037155151 -0.317918509244918823
0.37051054835319519 -0.264530956745147705 0.18144717812538147
0.420518785715103149 -0.344383329153060913 0.150762185454368591
0.252077728509902954 0.0392875373363494873 -0.0668229237198829651
0.549547016620635986 -0.149927303194999695 0.124077387154102325
-0.570259213447570801 0.284293204545974731 -0.00643010670319199562
0.501088976860046387 -0.362569719552993774 -0.00143305002711713314
0.208268657326698303 0.115761697292327881 -0.0105735082179307938
-0.288846343755722046 -0.0853360220789909363 -0.0663808509707450867
0.15938173234462738 -0.0831001996994018555 -0.0362506397068500519
-0.339625507593154907 -0.105139695107936859 0.141359627246856689
0.511278033256530762 -0.281312882900238037 -0.313432395458221436
-0.338940888643264771 -0.0793342217803001404 0.0386536978185176849
-0.369077742099761963 0.280981868505477905 -0.0625682026147842407
0.51001584529876709 -0.340917468070983887 0.0649843141436576843
0.302401870489120483 -0.205833092331886292 0.247852951288223267
0.542981088161468506 -0.311990112066268921 -0.0609180592000484467
0.141590163111686707 0.0696007013320922852 0.336355477571487427
-0.594586193561553955 0.267770618200302124 0.0121636297553777695
0.222037643194198608 -0.00701646553352475166 0.295528054237365723
0.230876043438911438 0.0343980975449085236 0.312711536884307861
0.533680617809295654 -0.319597691297531128 -0.0129532907158136368
-0.388988912105560303 -0.0636705383658409119 0.105814419686794281
-0.447222620248794556 -0.0398218743503093719 0.126600846648216248
0.496014177799224854 -0.0913552418351173401 0.154296919703483582
0.250892341136932373 0.0631766393780708313 0.316580504179000854
-0.291040986776351929 -0.0924279987812042236 0.307826697826385498
-0.366206347942352295 -0.114437699317932129 0.104118667542934418
-0.563088178634643555 0.127581804990768433 -0.0784493386745452881
-0.501174449920654297 0.023770572617650032 0.186750665307044983
0.518336474895477295 -0.297333091497421265 -0.314267784357070923
0.472800135612487793 -0.328223586082458496 -0.300113260746002197
-0.573989391326904297 0.269094944000244141 0.362744510173797607
-0.57091522216796875 0.355127453804016113 0.167067065834999084
-0.191572919487953186 0.304874926805496216 0.101329535245895386
-0.661780238151550293 0.240032047033309937 0.0416598469018936157
-0.504600167274475098 0.144687041640281677 0.353412628173828125
0.507348895072937012 -0.347148984670639038 -0.318545490503311157
-0.200395703315734863 0.30520927906036377 0.101990543305873871
0.475280284881591797 -0.357631176710128784 0.00452884752303361893
0.509900391101837158 -0.330737203359603882 0.0662596449255943298
-0.610448002815246582 0.367822796106338501 0.0877959653735160828
-0.562208771705627441 0.288548946380615234 -0.0559424497187137604
0.219966098666191101 0.0103441802784800529 0.309055060148239136
0.240528181195259094 0.00517079699784517288 0.321509182453155518
-0.359190076589584351 -0.056577637791633606 -0.137865632772445679
0.399363458156585693 -0.252748757600784302 0.321844905614852905
0.399667739868164062 -0.263117372989654541 0.324599593877792358
0.224183723330497742 -0.324024170637130737 0.320689469575881958
0.411151915788650513 -0.267859429121017456 0.325017660856246948
-0.508818984031677246 0.0497340373694896698 0.195340797305107117
-0.630899786949157715 0.156783401966094971 -0.052639055997133255
-0.501573503017425537 0.147252589464187622 0.345385313034057617
0.521152079105377197 -0.350711047649383545 -0.323290228843688965
0.49545896053314209 -0.348360240459442139 4.53039792773779482e-05
-0.19761773943901062 0.0163885504007339478 -0.0499512888491153717
-0.5574684739112854 0.342030227184295654 -0.00571693293750286102
0.488664388656616211 -0.360488027334213257 0.0408775433897972107
0.449217885732650757 -0.074286244809627533 0.00172213674522936344
-0.556012451648712158 0.385447442531585693 0.157851949334144592
0.374698728322982788 -0.0812148749828338623 -0.12015918642282486
-0.389450311660766602 0.319813460111618042 0.168854847550392151
-0.384412050247192383 0.328371018171310425 0.197555243968963623
-0.363864034414291382 0.238256692886352539 -0.0834732875227928162
-0.407014191150665283 0.199769869446754456 0.0409246236085891724
-0.644182503223419189 0.287065207958221436 0.093627244234085083
0.408686637878417969 -0.347254127264022827 0.136282756924629211
0.222368434071540833 0.0829147323966026306 -0.0337156392633914948
0.4986247718334198 -0.161362692713737488 0.123617343604564667
0.500352203845977783 -0.0929639637470245361 0.134525418281555176
0.215380355715751648 0.00190134183503687382 0.299390614032745361
-0.352798253297805786 -0.0678731799125671387 -0.00905958004295825958
-0.385107338428497314 0.26624414324760437 -0.071657814085483551
0.506585478782653809 -0.347136735916137695 0.0547357425093650818
-0.356609970331192017 -0.0560411736369132996 -0.145457208156585693
0.132218897342681885 0.0726633444428443909 0.32208368182182312
-0.0993089526891708374 -0.265340179204940796 0.00612194230780005455
0.242432683706283569 0.0233083702623844147 0.321811586618423462
-0.480051666498184204 -0.0114741949364542961 0.185348838567733765
0.242457985877990723 0.048292405903339386 0.316988468170166016
-0.277953475713729858 0.332881957292556763 0.0406708419322967529
0.369865477085113525 -0.0309281069785356522 -0.0401976816356182098
0.520296573638916016 -0.348051011562347412 -0.0365320220589637756
0.293318450450897217 -0.0120130795985460281 0.0368062928318977356
-0.643869102001190186 0.284984201192855835 0.0924747362732887268
0.0357674285769462585 0.136768758296966553 0.0850230976939201355
-0.397118151187896729 -0.0573774203658103943 0.125916317105293274
-0.441081732511520386 -0.0379756763577461243 0.131345212459564209
0.523969948291778564 -0.317644566297531128 -0.0656828656792640686
0.422509491443634033 -0.280046522617340088 0.331083774566650391
0.509749352931976318 -0.345032811164855957 0.0569034889340400696
0.403921991586685181 -0.258924782276153564 0.323492199182510376
-0.479971826076507568 0.0182752497494220734 0.176732763648033142
0.23549419641494751 0.0684765279293060303 0.314385443925857544
-0.479120880365371704 -0.00813020952045917511 0.167378798127174377
0.239118188619613647 0.0674843192100524902 0.314785957336425781
0.388121992349624634 0.0258560962975025177 0.105747610330581665
0.219706356525421143 -0.316026240587234497 0.31034579873085022
0.382946670055389404 0.0427725464105606079 0.0687818899750709534
0.462647557258605957 0.0105784237384796143 0.174803212285041809
0.399546951055526733 -0.258715003728866577 0.327067792415618896
-0.499284744262695312 0.0213500410318374634 0.1809520423412323
-0.573182761669158936 0.266371607780456543 0.359968334436416626
-0.664240777492523193 0.230097532272338867 0.0218040682375431061
-0.149118989706039429 0.27545773983001709 0.0790155008435249329
0.522191405296325684 -0.335135340690612793 -0.322906553745269775
-0.220199570059776306 0.315774440765380859 0.0967166200280189514
0.499971628189086914 -0.346624433994293213 0.0667971670627593994
-0.189568355679512024 0.302853167057037354 0.114731341600418091
0.313670098781585693 -0.130252376198768616 0.300572186708450317
0.225119248032569885 -0.0353006869554519653 0.305033504962921143
0.0575767979025840759 -0.330669194459915161 0.291403591632843018
0.435302853584289551 -0.280084729194641113 0.33259350061416626
0.409030020236968994 -0.285873711109161377 0.330767333507537842
0.385735273361206055 -0.265908658504486084 0.318647086620330811
0.397572845220565796 -0.384736835956573486 -0.225953578948974609
-0.162095785140991211 0.278478890657424927 0.12857566773891449
0.380585014820098877 0.0437943227589130402 0.0767261311411857605
0.390859127044677734 -0.255871713161468506 0.318651080131530762
-0.500005185604095459 0.0246315635740756989 0.185789749026298523
0.499744713306427002 -0.326014399528503418 -0.31353345513343811
0.380749493837356567 -0.376025885343551636 -0.216560527682304382
0.521258771419525146 -0.349357396364212036 -0.325306862592697144
0.520817935466766357 -0.348496675491333008 -0.322245538234710693
0.513436555862426758 -0.319745004177093506 -0.318874508142471313
0.255056113004684448 -0.222418919205665588 0.0572924427688121796
0.1860971599817276 -0.142314985394477844 -0.105834372341632843
0.507871448993682861 -0.320328384637832642 0.0289432499557733536
-0.469148874282836914 -0.0117283090949058533 0.181044027209281921
0.496336370706558228 -0.349050402641296387 -0.31019967794418335
0.521597146987915039 -0.327619820833206177 -0.322380334138870239
0.476140916347503662 -0.320332616567611694 -0.303480476140975952
-0.340904593467712402 0.230028435587882996 -0.044373638927936554
0.201629936695098877 0.132737189531326294 0.111992239952087402
-0.172371610999107361 0.0223336666822433472 0.0255173705518245697
0.265662223100662231 -0.165881842374801636 0.00579642830416560173
0.544789493083953857 -0.32841414213180542 -0.0481685921549797058
-0.455990254878997803 -0.0529167167842388153 0.162161186337471008
0.469839334487915039 -0.356141954660415649 -0.307532757520675659
0.478576004505157471 -0.269896060228347778 -0.301971584558486938
0.4674530029296875 -0.361949294805526733 -0.308621913194656372
-0.319933295249938965 0.266803592443466187 0.011443527415394783
0.0331618450582027435 0.0985858440399169922 0.128371164202690125
-0.28423386812210083 -0.0998978167772293091 -0.0874052941799163818
-0.616443455219268799 0.217186287045478821 -0.104860737919807434
0.244341850280761719 0.104428142309188843 -0.0300351455807685852
0.466370731592178345 -0.235208123922348022 -0.228923127055168152
-0.293490797281265259 -0.0883517861366271973 -0.0959610715508460999
0.249178186058998108 -0.275928407907485962 0.322441130876541138
0.221996694803237915 0.0668085142970085144 -0.0281803160905838013
-0.250536501407623291 -0.130032509565353394 -0.0555435530841350555
-0.211434409022331238 0.302101999521255493 0.148648500442504883
0.339812636375427246 -0.140703737735748291 0.318114370107650757
0.529749512672424316 -0.356670886278152466 0.0693770498037338257
-0.599570572376251221 0.356794595718383789 0.0603722184896469116
-0.345927298069000244 -0.0555693469941616058 -0.143694415688514709
-0.432433158159255981 0.157769933342933655 -0.0846893414855003357
0.526649773120880127 -0.331801027059555054 0.0200705807656049728
0.528237044811248779 -0.288055628538131714 -0.0704854875802993774
-0.498469799757003784 0.142880037426948547 -0.253942996263504028
0.146435827016830444 0.156720712780952454 0.0585837550461292267
0.253208965063095093 -0.00774922594428062439 0.327481329441070557
0.349957317113876343 -0.147291064262390137 0.320347905158996582
0.442400306463241577 -0.322559922933578491 -0.229718342423439026
-0.223773390054702759 -0.139847785234451294 -0.0538583286106586456
0.522567093372344971 -0.350308060646057129 0.0966515541076660156
-0.645750582218170166 0.253653496503829956 0.0238374378532171249
0.393229573965072632 -0.280174583196640015 0.322099596261978149
-0.474328905344009399 -0.00967447273433208466 0.164824515581130981
0.224472105503082275 -0.325026184320449829 0.318945974111557007
-0.363304495811462402 -0.120994649827480316 0.130361467599868774
-0.238214418292045593 -0.1404704749584198 -0.0539865903556346893
-0.113772273063659668 -0.0090502128005027771 -0.0167653262615203857
0.389454960823059082 -0.278445601463317871 0.320430785417556763
-0.506645858287811279 0.0114558907225728035 0.201916098594665527
0.462753444910049438 -0.296937048435211182 -0.294684141874313354
0.351301044225692749 -0.148249268531799316 0.321203917264938354
0.457992732524871826 -0.303737223148345947 -0.229189410805702209
0.0246364809572696686 -0.143674910068511963 -0.0202850215137004852
0.369022965431213379 -0.327803343534469604 0.318592309951782227
0.391681015491485596 -0.281598329544067383 0.316691994667053223
0.12874169647693634 -0.319085955619812012 -0.0972454547882080078
-0.134397417306900024 0.278539836406707764 0.117429532110691071
-0.332983613014221191 0.0947162434458732605 -0.102443218231201172
0.374185711145401001 -0.375887304544448853 -0.215111792087554932
0.520035505294799805 -0.345746397972106934 -0.322923660278320312
0.523603141307830811 -0.358009517192840576 -0.32678183913230896
-0.0681144669651985168 -0.25464862585067749 0.0988690406084060669
0.325749844312667847 -0.130943760275840759 0.314539641141891479
0.424346923828125 -0.259851843118667603 0.32809099555015564
-0.479595035314559937 0.0320985093712806702 0.196668639779090881
0.526776969432830811 -0.299615383148193359 -0.322392910718917847
0.538211226463317871 -0.292467594146728516 -0.324807941913604736
0.377980321645736694 -0.374127000570297241 -0.213823646306991577
0.371484905481338501 -0.357064306735992432 -0.213827461004257202
0.524224698543548584 -0.351609259843826294 -0.325164347887039185
0.525531768798828125 -0.36338496208190918 -0.323251098394393921
0.515694499015808105 -0.327160656452178955 -0.320246070623397827
0.479644298553466797 -0.352301627397537231 -0.312376648187637329
0.478611737489700317 -0.365569651126861572 -0.313091546297073364
-0.361594140529632568 0.310587495565414429 0.239752814173698425
-0.320560634136199951 0.104305997490882874 0.0221831612288951874
-0.447323709726333618 0.204501256346702576 -0.0403886996209621429
-0.377476871013641357 0.279578298330307007 -0.00731868669390678406
-0.0223863944411277771 -0.260584771633148193 0.14383523166179657
-0.591678142547607422 0.361664891242980957 0.0641704723238945007
0.367686152458190918 -0.373451381921768188 -0.212612643837928772
-0.123912543058395386 -0.0104974955320358276 0.00793282873928546906
0.396754175424575806 -0.353346824645996094 -0.218443199992179871
0.507383823394775391 -0.159620851278305054 0.12500317394733429
0.195386886596679688 0.124778658151626587 0.00623793387785553932
-0.0268801841884851456 0.166961699724197388 0.382985085248947144
-0.333793133497238159 -0.120842508971691132 0.100354015827178955
-0.325013995170593262 0.303120642900466919 -0.0367361828684806824
0.534189343452453613 -0.34683266282081604 0.0376578234136104584
0.525436162948608398 -0.331867009401321411 0.0343287065625190735
-0.595510661602020264 0.382304221391677856 0.11335599422454834
-0.0109454086050391197 -0.144080787897109985 -0.0268986169248819351
-0.235082998871803284 0.172244876623153687 -0.00168103806208819151
-0.485215157270431519 -0.0103611377999186516 0.177246645092964172
-0.277874857187271118 0.336293160915374756 0.0422210805118083954
0.513520121574401855 -0.349095374345779419 0.0969151705503463745
-0.44832611083984375 -0.0355069600045681 0.117439046502113342
0.43442612886428833 -0.253304004669189453 0.331687569618225098
0.414917081594467163 -0.278400957584381104 0.327168762683868408
-0.468638241291046143 0.0347123928368091583 0.193605959415435791
0.50236809253692627 -0.339585065841674805 0.00778479408472776413
-0.481178969144821167 -0.00252385460771620274 0.17757551372051239
-0.377172917127609253 -0.106421925127506256 0.092943340539932251
-0.50075298547744751 0.0224838703870773315 0.184351012110710144
0.36076924204826355 -0.286889612674713135 -0.141953513026237488
0.00171497242990881205 -0.231207549571990967 0.090066075325012207
-0.14017273485660553 0.265252888202667236 0.0884007811546325684
-0.129488691687583923 0.254573255777359009 0.071388833224773407
0.312727212905883789 -0.293232768774032593 -0.131292164325714111
0.428260236978530884 -0.255541503429412842 0.330188721418380737
-0.61513066291809082 0.306821882724761963 0.392246663570404053
0.410912513732910156 -0.357934296131134033 -0.226517811417579651
0.505289435386657715 -0.34647071361541748 -0.320018887519836426
0.507985711097717285 -0.352506339550018311 -0.322726637125015259
0.523759663105010986 -0.298476308584213257 -0.318813830614089966
0.509945154190063477 -0.346817851066589355 -0.320344418287277222
0.270117014646530151 -0.169360995292663574 -0.0796765163540840149
0.133752375841140747 0.120402470231056213 0.329082250595092773
0.251908749341964722 -0.284950733184814453 0.328183621168136597
0.32449948787689209 -0.120239317417144775 0.310572445392608643
0.302485346794128418 -0.204404771327972412 0.251120656728744507
0.250090569257736206 -0.00376105611212551594 0.325037181377410889
0.507372856140136719 -0.343132823705673218 0.0874510854482650757
0.241716042160987854 0.0899040848016738892 0.309937268495559692
0.463040202856063843 -0.284049153327941895 -0.231311872601509094
-0.262036770582199097 0.314174234867095947 0.0458497181534767151
0.344152063131332397 -0.140000656247138977 0.329375356435775757
0.374029636383056641 -0.363814830780029297 -0.208820879459381104
0.337694734334945679 -0.129269391298294067 0.320617944002151489
0.526684582233428955 -0.347160458564758301 -0.324166983366012573
0.524451613426208496 -0.352015644311904907 -0.326720595359802246
0.480251729488372803 -0.372280210256576538 -0.313181251287460327
-0.359748333692550659 -0.0647483989596366882 0.0829329788684844971
-0.40719643235206604 0.0888906568288803101 -0.113169774413108826
0.0141479931771755219 0.0982551872730255127 0.217161491513252258
-0.378230035305023193 -0.0929314196109771729 -0.0283070709556341171
0.265506863594055176 0.0684674978256225586 -0.0919782742857933044
-0.108101993799209595 -0.0149783119559288025 0.0460216961801052094
-0.35781511664390564 -0.0917674601078033447 0.012957865372300148
-0.290202319622039795 0.304987341165542603 0.166626140475273132
-0.355270296335220337 -0.0733142495155334473 0.0406672805547714233
-0.598347365856170654 0.294778317213058472 0.1865663081407547
0.249413147568702698 0.0968258082866668701 -0.034437667578458786
0.37931254506111145 -0.354869723320007324 -0.209495127201080322
0.469841420650482178 -0.324729174375534058 0.1378917396068573
0.464608579874038696 -0.271831363439559937 -0.0931244343519210815
-0.439366459846496582 -0.0428267978131771088 0.0842599496245384216
-0.336066126823425293 -0.124511681497097015 0.12766382098197937
0.528412878513336182 -0.341909617185592651 0.0508951544761657715
0.392704784870147705 0.0470991991460323334 0.133449599146842957
-0.18580278754234314 0.314257621765136719 0.107845358550548553
-0.441326886415481567 -0.0427214466035366058 0.117838449776172638
0.537469267845153809 -0.32617795467376709 -0.055791851133108139
-0.352844506502151489 0.306591600179672241 0.114215083420276642
0.494228869676589966 -0.346096664667129517 0.0439823567867279053
-0.575305402278900146 0.30535590648651123 0.379385113716125488
0.431009888648986816 -0.280990928411483765 0.3336525559425354
-0.477365881204605103 0.00424233172088861465 0.164162248373031616
0.525069534778594971 -0.349863409996032715 -0.00270248576998710632
-0.0671570897102355957 -0.262673258781433105 0.29855462908744812
-0.511661350727081299 0.00479795271530747414 0.188095316290855408
0.39006003737449646 -0.360294878482818604 -0.215794116258621216
-0.118402101099491119 0.254544943571090698 0.0636121407151222229
-0.500175893306732178 0.00521509721875190735 0.19328618049621582
0.426491230726242065 -0.27449527382850647 0.330583840608596802
-0.333327203989028931 0.10436064749956131 -0.118525020778179169
-0.105776064097881317 0.254399865865707397 0.0936288610100746155
0.510864853858947754 -0.341711759567260742 -0.319822520017623901
-0.612592041492462158 0.302786290645599365 0.396269410848617554
-0.508748412132263184 0.0367933139204978943 0.18861369788646698
-0.290827095508575439 -0.0889424309134483337 -0.0786211565136909485
0.509720265865325928 -0.34499049186706543 -0.321247637271881104
0.0718375146389007568 0.139408379793167114 0.0724626630544662476
0.245566055178642273 0.107222221791744232 0.321381926536560059
0.473318696022033691 -0.28681260347366333 -0.230842605233192444
0.305297136306762695 -0.314664363861083984 0.331735730171203613
0.511935114860534668 -0.350057810544967651 -0.322272598743438721
-0.315119236707687378 -0.0867723822593688965 -0.0342712663114070892
0.51454770565032959 -0.355761915445327759 -0.323238283395767212
-0.624963641166687012 0.180589020252227783 -0.0862138643860816956
-0.353276371955871582 -0.0556673333048820496 -0.143994614481925964
-0.331039726734161377 0.269752204418182373 -0.0550894662737846375
-0.177136033773422241 0.139104530215263367 0.00498954532667994499
0.545443892478942871 -0.217516392469406128 0.159051477909088135
0.0306216217577457428 0.102637670934200287 0.0653252601623535156
0.509991168975830078 -0.330927640199661255 -0.319623500108718872
0.586020350456237793 -0.325220048427581787 -0.320215433835983276
0.249777361750602722 -0.288264006376266479 0.318404138088226318
0.255560398101806641 -0.00306935026310384274 0.327973365783691406
0.301591604948043823 -0.282552659511566162 0.331249713897705078
-0.343938678503036499 -0.0905755087733268738 0.0179866030812263489
-0.37410581111907959 -0.0897655412554740906 -0.0182660482823848724
-0.0651954412460327148 -0.273282498121261597 0.159449577331542969
-0.630264878273010254 0.275887042284011841 0.0759095475077629089
0.366772502660751343 -0.365634739398956299 -0.212390348315238953
-0.124236449599266052 -0.0290214400738477707 -0.00663250591605901718
-0.598368942737579346 0.342560887336730957 0.0905149057507514954
0.444105356931686401 -0.249487310647964478 -0.286490947008132935
0.38282012939453125 -0.348119050264358521 -0.21226385235786438
0.312551259994506836 -0.372715204954147339 -0.156232878565788269
-0.17943863570690155 0.31289634108543396 0.100031301379203796
0.535226762294769287 -0.319364756345748901 -0.0325986891984939575
-0.654943108558654785 0.238613486289978027 0.0140114538371562958
-0.452785074710845947 -0.0536433123052120209 0.163309857249259949
0.500032007694244385 -0.348648101091384888 0.0712112709879875183
0.440545260906219482 -0.260948151350021362 0.334255427122116089
0.507326185703277588 -0.343870759010314941 0.0297444108873605728
0.264472246170043945 0.121593758463859558 0.0269616842269897461
0.39981505274772644 0.0324982404708862305 0.139617547392845154
-0.106382898986339569 0.252802610397338867 0.0726524144411087036
0.316805064678192139 -0.380742013454437256 -0.157110720872879028
-0.566417157649993896 0.295790404081344604 -0.0514719635248184204
0.390519380569458008 -0.362809538841247559 -0.221175327897071838
0.359003067016601562 0.0334203951060771942 0.0483923144638538361
0.194740921258926392 -0.365414261817932129 -0.0958826467394828796
0.391394555568695068 -0.355737268924713135 -0.217301413416862488
0.519863128662109375 -0.33522719144821167 -0.322770029306411743
0.523067057132720947 -0.333412110805511475 -0.324211388826370239
0.244274288415908813 0.0241471026092767715 0.323898196220397949
0.212536364793777466 -0.33850368857383728 0.318624556064605713
0.237060025334358215 0.106079690158367157 0.314960211515426636
0.521823644638061523 -0.337135821580886841 -0.325859934091567993
0.318302273750305176 -0.37985345721244812 -0.151264607906341553
0.584350228309631348 -0.318100720643997192 -0.334435164928436279
-0.380713135004043579 -0.0932024642825126648 -0.0177716817706823349
0.458339095115661621 -0.325560867786407471 0.12490459531545639
0.388875633478164673 0.0535233654081821442 0.131440460681915283
-0.173675745725631714 0.307498157024383545 0.105912089347839355
-0.461929738521575928 -0.02983810193836689 0.134528398513793945
0.439683198928833008 -0.261531710624694824 0.335034161806106567
0.40023466944694519 0.024691455066204071 0.12774619460105896
0.427360355854034424 -0.263673484325408936 0.331968337297439575
-0.509519040584564209 0.00452239299193024635 0.190886840224266052
-0.131018266081809998 0.253784924745559692 0.0815671980381011963
-0.283804535865783691 0.336011111736297607 0.0342915132641792297
0.45536959171295166 -0.259560227394104004 0.336555629968643188
-0.330553174018859863 0.0980286151170730591 -0.117724664509296417
-0.508249938488006592 0.0363071449100971222 0.188571050763130188
0.258062183856964111 0.00750989560037851334 0.327461212873458862
0.445940613746643066 -0.256076544523239136 0.333740979433059692
0.236199066042900085 0.109086580574512482 0.308730989694595337
0.302514642477035522 -0.329145610332489014 0.334382772445678711
-0.320323795080184937 0.267161935567855835 -0.0469775833189487457
-0.133187636733055115 -0.26840636134147644 -0.0048529990017414093
-0.376831889152526855 -0.0752587616443634033 0.0238944627344608307
