ply
format ascii 1.0
element vertex 738
property float x
property float y
property float z
end_header
0.417519479990005493 -0.297772318124771118 0.328592270612716675
0.535263597965240479 -0.340522229671478271 -0.0185357611626386642
0.344211280345916748 -0.267709851264953613 -0.127870440483093262
-0.496619164943695068 0.0717634260654449463 0.20409691333770752
0.443580716848373413 -0.272603869438171387 0.333268254995346069
0.521992385387420654 -0.335742473602294922 0.0327004753053188324
0.45332762598991394 -0.320199966430664062 -0.293086439371109009
0.474177628755569458 -0.3120536208152771 0.11660514771938324
0.517204642295837402 -0.278729677200317383 -0.312894821166992188
0.502639234066009521 -0.326245725154876709 -0.314391195774078369
0.518075287342071533 -0.327479302883148193 0.101813517510890961
0.47928956151008606 -0.311733871698379517 -0.302234768867492676
0.11436723917722702 0.118209362030029297 0.289035320281982422
-0.12210073322057724 0.26827317476272583 0.158878758549690247
-0.615016698837280273 0.265164434909820557 0.0522181317210197449
-0.479524612426757812 0.00287380418740212917 0.181447684764862061
0.426627993583679199 -0.355393320322036743 0.158472180366516113
-0.292410433292388916 -0.110722623765468597 -0.10567869246006012
0.130329698324203491 0.0651293396949768066 0.321228057146072388
0.253597795963287354 0.0382526665925979614 -0.077755659818649292
0.235353842377662659 0.0934204012155532837 -0.0530304796993732452
0.417636364698410034 -0.261890828609466553 -0.202384412288665771
0.521655440330505371 -0.354997962713241577 -0.019549880176782608
-0.609068751335144043 0.380743920803070068 0.181378796696662903
0.517556130886077881 -0.279629677534103394 -0.314817368984222412
0.499078571796417236 -0.350357472896575928 0.0239904429763555527
-0.588052034378051758 0.368940621614456177 0.113177388906478882
0.505889773368835449 -0.105187118053436279 0.147183939814567566
-0.198203802108764648 0.311186641454696655 0.113033831119537354
0.26396670937538147 -0.286927908658981323 0.319662392139434814
0.236745581030845642 0.0617126971483230591 0.310506373643875122
-0.144633471965789795 -0.0437224879860877991 0.0043043624609708786
-0.657975435256958008 0.214392170310020447 -0.0460736863315105438
-0.288710415363311768 -0.0761322975158691406 -0.068515971302986145
0.227107450366020203 0.0417349822819232941 -0.0481039956212043762
0.551475465297698975 -0.144939154386520386 0.131921336054801941
0.519718408584594727 -0.295752942562103271 0.0747930929064750671
0.517560899257659912 -0.284409523010253906 -0.181262046098709106
-0.358206778764724731 -0.0172829143702983856 -0.0278393030166625977
0.0912775918841362 0.0878206267952919006 0.0858394280076026917
0.466597408056259155 -0.362245827913284302 -0.0107462108135223389
-0.433112412691116333 0.157483696937561035 -0.0663788989186286926
0.523754358291625977 -0.336018383502960205 0.0687946155667304993
0.262826144695281982 -0.286296367645263672 0.318386316299438477
0.00920570641756057739 -0.0912542194128036499 -0.0260056648403406143
0.0323920510709285736 -0.130652427673339844 0.021950162947177887
-0.630929052829742432 0.26467818021774292 0.0291726123541593552
0.241948574781417847 0.0738756060600280762 0.318773984909057617
0.240026786923408508 0.0291383862495422363 0.318848401308059692
-0.174995541572570801 0.300462096929550171 0.116412892937660217
0.304503560066223145 -0.151716098189353943 0.307702124118804932
0.261861920356750488 -0.291095584630966187 0.320871114730834961
-0.476347565650939941 -0.00839560851454734802 0.166324764490127563
0.24258209764957428 0.0813103318214416504 0.312134444713592529
0.52017664909362793 -0.35166853666305542 0.081826627254486084
-0.0350380651652812958 -0.237814873456954956 0.124124959111213684
-0.638527989387512207 0.289656937122344971 0.0989524722099304199
-0.234358623623847961 -0.133021742105484009 -0.0579125098884105682
-0.379421442747116089 -0.108979791402816772 0.105614513158798218
-0.236563548445701599 -0.148036643862724304 -0.0577617771923542023
-0.658187687397003174 0.214084863662719727 -0.0337767936289310455
0.528817832469940186 -0.353000015020370483 0.0777673572301864624
-0.621373951435089111 0.269937902688980103 0.0526138022541999817
-0.404302269220352173 -0.0645406022667884827 0.11214698851108551
-0.446489334106445312 -0.0417135655879974365 0.122092686593532562
0.26792985200881958 -0.285992085933685303 0.323344498872756958
0.127541780471801758 -0.326906025409698486 0.312491834163665771
0.152202844619750977 -0.3434029221534729 0.317754685878753662
0.447655171155929565 -0.335954636335372925 -0.293059200048446655
0.515690088272094727 -0.303330868482589722 -0.108045883476734161
0.515176713466644287 -0.280600816011428833 -0.312912642955780029
0.484802097082138062 -0.328011512756347656 -0.309867709875106812
0.464273750782012939 -0.346215605735778809 -0.302738308906555176
0.549543797969818115 -0.210590377449989319 -0.316071838140487671
0.524044573307037354 -0.3003806471824646 -0.322567373514175415
0.517908453941345215 -0.301191866397857666 -0.318461865186691284
0.246671348810195923 0.0565993636846542358 0.316363334655761719
0.241150051355361938 0.0870623365044593811 0.312703192234039307
-0.291862130165100098 -0.10072924941778183 -0.101807408034801483
-0.453745722770690918 -0.0521898120641708374 0.117189116775989532
0.404696643352508545 -0.272691726684570312 0.322370916604995728
-0.502564430236816406 0.00353555614128708839 0.189240947365760803
0.400991559028625488 -0.287664681673049927 0.32468453049659729
0.399136781692504883 -0.273985743522644043 0.323166906833648682
0.34210515022277832 -0.259334564208984375 0.0900482386350631714
-0.0189426224678754807 -0.244610488414764404 0.128692626953125
-0.464672327041625977 0.0357380770146846771 0.189653113484382629
-0.194597318768501282 0.221237063407897949 0.172143906354904175
0.366729855537414551 -0.329611092805862427 -0.0235603097826242447
0.323301821947097778 -0.390388756990432739 -0.158906415104866028
0.535353720188140869 -0.323981821537017822 -0.0583238080143928528
-0.441931337118148804 -0.00495479162782430649 0.152798578143119812
-0.0193245727568864822 -0.059804573655128479 0.141791164875030518
-0.000396406132495030761 -0.236348971724510193 0.10642252117395401
0.526127934455871582 -0.202193275094032288 -0.0801164433360099792
0.449714362621307373 -0.30864676833152771 -0.292941540479660034
0.526773929595947266 -0.275761932134628296 -0.31576809287071228
0.499833971261978149 -0.325195938348770142 -0.312760025262832642
0.475138425827026367 -0.305363774299621582 -0.297468602657318115
-0.127665385603904724 0.246247708797454834 0.139065399765968323
-0.649233102798461914 0.281678378582000732 0.0943377986550331116
-0.199143111705780029 0.286257296800613403 0.335977733135223389
0.497866570949554443 -0.0872043520212173462 0.136559799313545227
0.200614959001541138 -0.359407424926757812 -0.0908053219318389893
0.505326390266418457 -0.368016570806503296 -0.02280433289706707
0.52716219425201416 -0.243098095059394836 0.172811210155487061
-0.58619457483291626 0.378963947296142578 0.170768320560455322
0.444929778575897217 -0.315238207578659058 -0.287815392017364502
0.49844890832901001 -0.11155720055103302 0.112074673175811768
-0.656009078025817871 0.175214007496833801 -0.103686660528182983
-0.202177688479423523 0.30838504433631897 0.0892524197697639465
0.201114252209663391 -0.0139869162812829018 0.29521709680557251
0.159852206707000732 -0.0624998249113559723 -0.043994467705488205
-0.579737544059753418 0.301877230405807495 0.368798136711120605
0.27488410472869873 0.097910754382610321 -0.0290803797543048859
-0.435481816530227661 0.155190140008926392 -0.0859043598175048828
0.534362375736236572 -0.333396285772323608 0.0126340351998806
-0.568984925746917725 0.197092324495315552 -0.229014739394187927
-0.497835636138916016 0.0448296740651130676 -0.0867283269762992859
0.031245596706867218 -0.104268833994865417 0.0331031046807765961
0.534027934074401855 -0.264804720878601074 -0.316415190696716309
0.00958901084959506989 0.197269365191459656 0.0277008544653654099
0.302005678415298462 0.0384438410401344299 -0.0844440534710884094
-0.332310229539871216 -0.016123579815030098 -0.107582986354827881
0.236303389072418213 0.0140319745987653732 0.321762114763259888
0.12487579882144928 0.0126348556950688362 0.298951655626296997
0.527436554431915283 -0.355514973402023315 0.0662167370319366455
0.467013031244277954 -0.310147464275360107 -0.233194455504417419
-0.65221172571182251 0.285016089677810669 0.104445315897464752
0.546500563621520996 -0.220382422208786011 0.163370534777641296
0.527962028980255127 -0.323719769716262817 -0.0161467529833316803
-0.383123666048049927 -0.0565314963459968567 0.0763310566544532776
0.456836819648742676 -0.311128407716751099 -0.292642205953598022
0.504911541938781738 -0.340114116668701172 -0.317999601364135742
0.478757679462432861 -0.31460919976234436 -0.299594074487686157
0.52031630277633667 -0.301596850156784058 -0.317427307367324829
-0.00240569142624735832 -0.140206456184387207 -0.0246866289526224136
0.397470563650131226 -0.273543596267700195 0.323342323303222656
0.401141315698623657 -0.271971851587295532 0.323646992444992065
0.506016552448272705 -0.332335323095321655 0.105742886662483215
-0.467672497034072876 0.0422735735774040222 0.170770585536956787
0.409955710172653198 -0.346212625503540039 0.156498759984970093
-0.360897421836853027 -0.0353807844221591949 -0.147976666688919067
-0.12826181948184967 -0.267832040786743164 0.112454123795032501
0.512545764446258545 -0.369355648756027222 -0.0147520415484905243
-0.21380169689655304 0.312190473079681396 0.0977812260389328003
0.250529706478118896 -0.287432461977005005 0.322813630104064941
0.208815768361091614 0.00904957205057144165 -0.0460318736732006073
0.0698604211211204529 -0.151757344603538513 -0.0171257518231868744
-0.169836327433586121 0.304413080215454102 0.118976831436157227
0.471049219369888306 -0.364666193723678589 0.00697141513228416443
-0.29098239541053772 -0.0995201915502548218 -0.103064551949501038
0.0363568514585494995 -0.14990350604057312 -0.0215801596641540527
0.232042253017425537 0.0558340474963188171 0.309191048145294189
0.253336012363433838 -0.288994759321212769 0.320594608783721924
-0.471765995025634766 0.000995111069642007351 0.168787866830825806
0.240861475467681885 0.0622838474810123444 0.313088446855545044
0.508910894393920898 -0.352357238531112671 0.0638725534081459045
0.227366045117378235 -0.315119326114654541 0.314503729343414307
-0.375425755977630615 -0.0932348966598510742 0.0863027721643447876
-0.0627074167132377625 -0.241844713687896729 0.302551388740539551
-0.222711905837059021 -0.127769649028778076 -0.0529707744717597961
-0.409919172525405884 -0.0655518174171447754 0.0986448600888252258
-0.445031404495239258 -0.0448363013565540314 0.132863163948059082
0.238921761512756348 -0.294367939233779907 0.314375132322311401
0.153871089220046997 -0.324615776538848877 0.320068329572677612
0.425279706716537476 -0.256466865539550781 0.328490376472473145
0.438206523656845093 -0.343177914619445801 -0.292709589004516602
0.506330907344818115 -0.334817409515380859 -0.318144410848617554
0.44505685567855835 -0.352524548768997192 -0.286771684885025024
0.238126978278160095 0.0653473138809204102 0.312369108200073242
0.403219461441040039 -0.287893712520599365 0.325808256864547729
-0.494786679744720459 0.00657145632430911064 0.188523352146148682
0.485709160566329956 -0.0636433884501457214 0.13169822096824646
0.0124808372929692268 -0.170926913619041443 0.00998442154377698898
0.531551599502563477 -0.307919681072235107 -0.0622857250273227692
0.314774245023727417 -0.302518725395202637 -0.126796454191207886
0.445897936820983887 -0.291584879159927368 -0.285674601793289185
-0.336914271116256714 0.224437594413757324 0.125856116414070129
-0.400845259428024292 -0.0282645225524902344 -0.00174950656946748495
0.403127372264862061 -0.272115021944046021 0.324029892683029175
-0.133304491639137268 0.195478737354278564 0.16788974404335022
0.399176567792892456 -0.272051066160202026 0.323843985795974731
-0.446507126092910767 -0.0250431764870882034 0.0215771570801734924
-0.137977808713912964 0.244515597820281982 0.191841915249824524
-0.612755775451660156 0.293741405010223389 0.183908641338348389
0.124487310647964478 0.115731872618198395 0.31675758957862854
-0.120919659733772278 0.25024712085723877 0.161983489990234375
-0.583282649517059326 0.347868353128433228 0.0582945868372917175
0.426868468523025513 -0.348387211561203003 0.152979016304016113
-0.566716313362121582 0.294818907976150513 -0.0688380822539329529
0.2518576979637146 0.0263879429548978806 -0.0794809907674789429
0.247651919722557068 0.10003276914358139 -0.0482537783682346344
-0.357369571924209595 -0.0557222701609134674 -0.141713231801986694
0.198683738708496094 0.119865521788597107 0.0358626022934913635
0.545600295066833496 -0.131880342960357666 0.111928112804889679
-0.581603825092315674 0.321500837802886963 -0.0226943250745534897
0.206109106540679932 0.0243629924952983856 0.176896139979362488
-0.595281302928924561 0.374841123819351196 0.172181114554405212
0.444842159748077393 -0.319483816623687744 0.127317160367965698
0.255135625600814819 -0.278963834047317505 0.316440850496292114
0.235518306493759155 0.0234667807817459106 0.316610485315322876
-0.362816274166107178 -0.0497716553509235382 -0.0236153546720743179
-0.182588174939155579 0.117949917912483215 0.04248051717877388
0.254852622747421265 -0.288399964570999146 0.319255024194717407
0.241953685879707336 0.0328362584114074707 0.321874648332595825
0.399840950965881348 0.0229983273893594742 0.115192949771881104
-0.340403854846954346 -0.0660711228847503662 -0.147160112857818604
0.0758676156401634216 -0.333066076040267944 0.29896235466003418
-0.386646509170532227 -0.0607818290591239929 0.0939592793583869934
-0.448065519332885742 -0.0413117408752441406 0.127875044941902161
0.439433455467224121 -0.279586702585220337 0.333554863929748535
0.0345039665699005127 -0.122968100011348724 -0.0254827123135328293
0.414394855499267578 -0.281033545732498169 0.326905399560928345
0.433109492063522339 -0.296327203512191772 0.333057582378387451
0.367979168891906738 -0.278841227293014526 -0.130277618765830994
-0.477252066135406494 0.00147439679130911827 0.188470527529716492
-0.291396409273147583 -0.0962311625480651855 -0.104395560920238495
0.241477146744728088 -0.313150376081466675 0.309619784355163574
0.473276823759078979 -0.354392081499099731 0.006982424296438694
-0.296228855848312378 -0.0964798405766487122 -0.106847018003463745
0.244829744100570679 -0.288743942975997925 0.3200111985206604
0.0624050460755825043 -0.329764634370803833 0.297051370143890381
0.158081009984016418 -0.26779860258102417 -0.105449557304382324
0.250158369541168213 0.0630898252129554749 0.315511345863342285
-0.482365131378173828 -0.0079111345112323761 0.178090468049049377
0.23629818856716156 0.0662636831402778625 0.314871042966842651
0.238821908831596375 -0.331950128078460693 0.321344494819641113
-0.382106184959411621 -0.0919185802340507507 0.0368770472705364227
-0.215973973274230957 -0.140001013875007629 -0.0542058348655700684
-0.382550537586212158 -0.0635871142148971558 0.0836769714951515198
0.150085762143135071 -0.331723928451538086 0.33185538649559021
0.445955365896224976 -0.280119568109512329 0.333476603031158447
0.407505720853805542 -0.280743718147277832 0.325019776821136475
-0.501875519752502441 0.00654865475371479988 0.188839763402938843
-0.321791112422943115 0.097171880304813385 -0.0701089575886726379
0.532629847526550293 -0.207729965448379517 -0.0526994317770004272
0.451092123985290527 -0.294022262096405029 -0.290565639734268188
0.487563133239746094 -0.325364530086517334 -0.310998469591140747
0.446535497903823853 -0.309860795736312866 -0.290929526090621948
-0.577588856220245361 0.268898069858551025 0.365989506244659424
-0.461316734552383423 0.105768218636512756 -0.230869516730308533
0.374916732311248779 -0.318884551525115967 0.199008360505104065
-0.58965754508972168 0.36660689115524292 0.13139893114566803
0.392667412757873535 -0.353556245565414429 -0.217548877000808716
0.441230803728103638 -0.31040269136428833 -0.289136826992034912
-0.200561121106147766 0.305111706256866455 0.0951123237609863281
-0.155414566397666931 0.267614543437957764 0.151798799633979797
0.529917299747467041 -0.338648945093154907 0.07170819491147995
0.463942199945449829 -0.266298055648803711 -0.217754840850830078
-0.633389174938201904 0.275432676076889038 0.10720369964838028
0.438551634550094604 -0.308695465326309204 -0.287306547164916992
0.515618979930877686 -0.277344852685928345 -0.316963344812393188
0.516736984252929688 -0.340469777584075928 -0.320884257555007935
0.454499542713165283 -0.307177424430847168 -0.293367892503738403
0.490995943546295166 -0.322140306234359741 0.0942793935537338257
0.0207071434706449509 -0.275820761919021606 -0.0184623375535011292
-0.653940796852111816 0.171757027506828308 -0.107965990900993347
-0.224595606327056885 0.318214118480682373 0.121499188244342804
0.465445160865783691 -0.364271372556686401 0.00581236230209469795
0.481170833110809326 -0.33700910210609436 0.0501777417957782745
0.511638283729553223 -0.339529365301132202 -0.319541752338409424
0.440316140651702881 -0.356672614812850952 -0.297723382711410522
-0.269907385110855103 0.321702301502227783 0.0420327372848987579
0.424270182847976685 -0.313414216041564941 -0.2819957435131073
0.415597885847091675 -0.295483857393264771 0.328349471092224121
-0.325951963663101196 -0.075414314866065979 0.123592771589756012
-0.366732239723205566 -0.0667355656623840332 0.154796913266181946
-0.338165819644927979 0.214609697461128235 0.132991492748260498
0.0101004783064126968 0.119130261242389679 0.105280496180057526
0.542155921459197998 -0.309392869472503662 -0.0463231801986694336
0.0137271936982870102 -0.261825233697891235 0.0396031402051448822
-0.00346246827393770218 -0.23662036657333374 0.0943389087915420532
0.000291901553282514215 -0.219665482640266418 0.0816075429320335388
0.465024769306182861 -0.361132770776748657 0.0302123464643955231
-0.269231438636779785 -0.13804018497467041 0.177578464150428772
-0.344939231872558594 -0.0659116953611373901 0.141387224197387695
0.123525992035865784 -0.276790767908096313 0.129002347588539124
-0.133790537714958191 0.0786057338118553162 0.0904378518462181091
0.463555425405502319 -0.0547342374920845032 0.017533622682094574
-0.0140412990003824234 -0.216973975300788879 0.0804516822099685669
-0.554631829261779785 0.391305327415466309 0.147911816835403442
0.496721357107162476 -0.367001652717590332 0.00513179972767829895
-0.610583841800689697 0.293738812208175659 0.186712607741355896
0.530155658721923828 -0.275411307811737061 -0.317805081605911255
0.37041047215461731 -0.264866232872009277 0.181438729166984558
0.420420974493026733 -0.344703018665313721 0.150748416781425476
0.251995444297790527 0.0388787798583507538 -0.0666137188673019409
0.54950559139251709 -0.150268658995628357 0.124110110104084015
-0.570468902587890625 0.283769220113754272 -0.00617923028767108917
0.500993072986602783 -0.36285439133644104 -0.00139896571636199951
0.208220690488815308 0.115320771932601929 -0.0103754345327615738
-0.289055496454238892 -0.0856338664889335632 -0.0662430301308631897
0.159235388040542603 -0.0834543406963348389 -0.0360820479691028595
-0.339798986911773682 -0.105464041233062744 0.14142201840877533
0.511158525943756104 -0.281571328639984131 -0.313315510749816895
-0.339138895273208618 -0.0796449407935142517 0.0387750975787639618
-0.369260460138320923 0.280502766370773315 -0.0624080337584018707
0.509934306144714355 -0.341215610504150391 0.0649976804852485657
0.302307754755020142 -0.206194579601287842 0.247827380895614624
0.542898774147033691 -0.312275201082229614 -0.0608718022704124451
0.141497597098350525 0.0691886395215988159 0.336394250392913818
-0.594776690006256104 0.267270892858505249 0.0123784160241484642
0.221945911645889282 -0.00740271946415305138 0.29555058479309082
0.230796560645103455 0.0339976735413074493 0.312748044729232788
0.533599555492401123 -0.3198871910572052 -0.0129168685525655746
-0.389177680015563965 -0.0639932379126548767 0.10592157393693924
-0.447408884763717651 -0.040164213627576828 0.126726880669593811
0.495969802141189575 -0.0917133614420890808 0.154349625110626221
0.250825762748718262 0.0627667009830474854 0.316628873348236084
-0.291150182485580444 -0.0928156375885009766 0.307784795761108398
-0.366395652294158936 -0.114744022488594055 0.104208067059516907
-0.563309609889984131 0.127151668071746826 -0.078241690993309021
-0.5013427734375 0.0233838241547346115 0.186887085437774658
0.518217623233795166 -0.297588080167770386 -0.314155995845794678
0.472663432359695435 -0.328475147485733032 -0.299997836351394653
-0.574122607707977295 0.268565922975540161 0.362914919853210449
-0.571062207221984863 0.354597300291061401 0.167256489396095276
-0.191643714904785156 0.304359138011932373 0.101472750306129456
-0.661958813667297363 0.239542335271835327 0.0418695434927940369
-0.504736959934234619 0.144215390086174011 0.353529632091522217
0.507220327854156494 -0.347394764423370361 -0.318438351154327393
-0.200471207499504089 0.304695487022399902 0.102131500840187073
0.475176215171813965 -0.357918143272399902 0.00456739636138081551
0.509819924831390381 -0.331037133932113647 0.0662742480635643005
-0.610609352588653564 0.367290526628494263 0.0879991129040718079
-0.562414646148681641 0.288045972585678101 -0.0557367168366909027
0.219877958297729492 0.0099513959139585495 0.309080719947814941
0.240444287657737732 0.00477641122415661812 0.321534574031829834
-0.359420508146286011 -0.0568668954074382782 -0.137708857655525208
0.399304509162902832 -0.253127813339233398 0.321776926517486572
0.399609595537185669 -0.263496816158294678 0.324526309967041016
0.22409076988697052 -0.32440340518951416 0.320579200983047485
0.411096125841140747 -0.268238455057144165 0.32494276762008667
-0.508982479572296143 0.0493313558399677277 0.195481762290000916
-0.63110816478729248 0.156331256031990051 -0.0524294823408126831
-0.501710176467895508 0.146781861782073975 0.345502644777297974
0.521027565002441406 -0.350955426692962646 -0.323186248540878296
0.495362967252731323 -0.348648011684417725 8.23377777123823762e-05
-0.197792544960975647 0.0160179883241653442 -0.0497802533209323883
-0.557661831378936768 0.341510772705078125 -0.00551317352801561356
0.488570362329483032 -0.360780388116836548 0.0409007072448730469
0.449159413576126099 -0.0746452286839485168 0.00186053162906318903
-0.556159675121307373 0.384912550449371338 0.158035054802894592
0.374600321054458618 -0.0815692096948623657 -0.119974859058856964
-0.389586985111236572 0.319324851036071777 0.168977111577987671
-0.384543091058731079 0.327879130840301514 0.197667345404624939
-0.36405414342880249 0.237796828150749207 -0.0833148136734962463
-0.407191485166549683 0.199325963854789734 0.0410894118249416351
-0.644340932369232178 0.286552757024765015 0.0938445404171943665
0.408582746982574463 -0.34757000207901001 0.136276841163635254
0.222303882241249084 0.0824872329831123352 -0.033512800931930542
0.498567640781402588 -0.161702454090118408 0.123657293617725372
0.500308871269226074 -0.0933201014995574951 0.134584978222846985
0.215288743376731873 0.00151290453504770994 0.299412965774536133
-0.353008091449737549 -0.0681786686182022095 -0.00891603622585535049
-0.385298460721969604 0.265772312879562378 -0.0714950188994407654
0.506500720977783203 -0.347432464361190796 0.0547525510191917419
-0.356841206550598145 -0.0563291683793067932 -0.145301029086112976
0.132125824689865112 0.0722527205944061279 0.322126865386962891
-0.0994823947548866272 -0.26563987135887146 0.00621985085308551788
0.242353305220603943 0.0229092258960008621 0.321844011545181274
-0.480225503444671631 -0.0118303960189223289 0.185469940304756165
0.242385014891624451 0.0478870123624801636 0.317030727863311768
-0.278072863817214966 0.332372546195983887 0.0408155769109725952
0.369793176651000977 -0.0313060544431209564 -0.0400134548544883728
0.520205140113830566 -0.348333209753036499 -0.0364909395575523376
0.293237388134002686 -0.0123934755101799965 0.0369709767401218414
-0.644028067588806152 0.284472554922103882 0.0926919728517532349
0.0356934443116188049 0.136333078145980835 0.0851869359612464905
-0.397301346063613892 -0.0577082186937332153 0.126017078757286072
-0.441266000270843506 -0.0383188053965568542 0.131466284394264221
0.523879587650299072 -0.317928701639175415 -0.0656313449144363403
0.4224567711353302 -0.280425935983657837 0.331002742052078247
0.509666204452514648 -0.345329046249389648 0.0569192469120025635
0.403864383697509766 -0.259303957223892212 0.323421210050582886
-0.480142742395401001 0.0179011691361665726 0.176862224936485291
0.235425084829330444 0.068065837025642395 0.314433574676513672
-0.47929680347442627 -0.00849263556301593781 0.16750703752040863
0.239049762487411499 0.0670737326145172119 0.314834266901016235
0.388083189725875854 0.0254648346453905106 0.105885840952396393
0.219610437750816345 -0.31640288233757019 0.310240775346755981
0.382914513349533081 0.0423703305423259735 0.0689381659030914307
0.462621420621871948 0.0101889939978718758 0.174890488386154175
0.399488866329193115 -0.25909501314163208 0.326995700597763062
-0.499454706907272339 0.020966213196516037 0.181089356541633606
-0.573316216468811035 0.265844732522964478 0.360136419534683228
-0.664424777030944824 0.229611724615097046 0.0220140088349580765
-0.149183675646781921 0.274950891733169556 0.0791762769222259521
0.522068798542022705 -0.335382431745529175 -0.322800397872924805
-0.220285221934318542 0.315262258052825928 0.0968547537922859192
0.499886155128479004 -0.346922308206558228 0.0668107122182846069
-0.189638972282409668 0.302340090274810791 0.114869572222232819
0.313585996627807617 -0.130626216530799866 0.300558596849441528
0.225023403763771057 -0.03568316251039505 0.305045276880264282
0.0574546381831169128 -0.331033945083618164 0.291300475597381592
0.435253262519836426 -0.280464112758636475 0.332511663436889648
0.408974498510360718 -0.28625333309173584 0.330684125423431396
0.385674029588699341 -0.266287624835968018 0.318573355674743652
0.397414743900299072 -0.384990483522415161 -0.225847527384757996
-0.162161663174629211 0.27797544002532959 0.128712981939315796
0.380552619695663452 0.0433924570679664612 0.0768793225288391113
0.390798330307006836 -0.25625041127204895 0.318582206964492798
-0.500173628330230713 0.0242449864745140076 0.185926109552383423
0.49961620569229126 -0.326264500617980957 -0.313421756029129028
0.380586504936218262 -0.376281619071960449 -0.216452658176422119
0.52113419771194458 -0.349601775407791138 -0.325202256441116333
0.520693540573120117 -0.348741501569747925 -0.322141349315643311
0.513313055038452148 -0.319995492696762085 -0.318764299154281616
0.254920452833175659 -0.222745820879936218 0.0573655366897583008
0.185935914516448975 -0.142644926905632019 -0.105669505894184113
0.507786571979522705 -0.320624649524688721 0.0289734452962875366
-0.469322443008422852 -0.0120839113369584084 0.181161284446716309
0.49620431661605835 -0.349296748638153076 -0.31009182333946228
0.521475255489349365 -0.32786831259727478 -0.322272926568984985
0.476005882024765015 -0.320585072040557861 -0.303363710641860962
-0.34108048677444458 0.229568019509315491 -0.0442164316773414612
0.201592057943344116 0.132305741310119629 0.112134844064712524
-0.172529116272926331 0.0219545997679233551 0.0256749540567398071
0.265534460544586182 -0.166218698024749756 0.0059149409644305706
0.544706940650939941 -0.328697293996810913 -0.0481276661157608032
-0.456169605255126953 -0.0532633624970912933 0.162270635366439819
0.469697445631027222 -0.356387704610824585 -0.30741998553276062
0.478447020053863525 -0.270157665014266968 -0.3018454909324646
0.467309504747390747 -0.362193912267684937 -0.308509290218353271
-0.320085495710372925 0.266323268413543701 0.0115958517417311668
0.0330682098865509033 0.0981729105114936829 0.128506496548652649
-0.284459114074707031 -0.100173443555831909 -0.0872803479433059692
-0.616658508777618408 0.216710105538368225 -0.104654751718044281
0.244295984506607056 0.103990145027637482 -0.0298315491527318954
0.46625170111656189 -0.235489889979362488 -0.228801354765892029
-0.293712854385375977 -0.0886346176266670227 -0.0958275198936462402
0.249091804027557373 -0.27630847692489624 0.322347432374954224
0.221924498677253723 0.0663894042372703552 -0.0279803741723299026
-0.250733435153961182 -0.130324721336364746 -0.0554169751703739166
-0.211514294147491455 0.301595419645309448 0.148769006133079529
0.339735925197601318 -0.141081973910331726 0.318095505237579346
0.529674053192138672 -0.356966316699981689 0.0693828389048576355
-0.599741339683532715 0.356267333030700684 0.0605759508907794952
-0.34615623950958252 -0.0558590702712535858 -0.143539860844612122
-0.432646125555038452 0.157348886132240295 -0.0845112279057502747
0.526568889617919922 -0.332093030214309692 0.0200974345207214355
0.528151452541351318 -0.288345187902450562 -0.0704288259148597717
-0.498732179403305054 0.142491459846496582 -0.253764897584915161
0.146397799253463745 0.156271755695343018 0.0587551407516002655
0.253125607967376709 -0.00814186781644821167 0.327502936124801636
0.349883109331130981 -0.147670060396194458 0.320326626300811768
0.442262202501296997 -0.322822749614715576 -0.229610398411750793
-0.223964408040046692 -0.140142977237701416 -0.0537312477827072144
0.522493541240692139 -0.350610047578811646 0.0966488420963287354
-0.645933389663696289 0.253158450126647949 0.0240485705435276031
0.393170416355133057 -0.280553698539733887 0.322019696235656738
-0.474505156278610229 -0.0100356936454772949 0.16495126485824585
0.224378764629364014 -0.325405001640319824 0.318836122751235962
-0.363484084606170654 -0.121310845017433167 0.130433201789855957
-0.238407954573631287 -0.140762344002723694 -0.0538619756698608398
-0.113932393491268158 -0.00941809918731451035 -0.016582392156124115
0.389394998550415039 -0.278824687004089355 0.320351660251617432
-0.506812155246734619 0.0110692009329795837 0.202047660946846008
0.462616086006164551 -0.297193199396133423 -0.294561326503753662
0.351227253675460815 -0.148628473281860352 0.321182131767272949
0.457861363887786865 -0.304002851247787476 -0.229081839323043823
0.0244651045650243759 -0.144002243876457214 -0.0201303567737340927
0.3689555823802948 -0.328179657459259033 0.318499356508255005
0.391621202230453491 -0.28197672963142395 0.316612601280212402
0.128547638654708862 -0.319366663694381714 -0.0971332713961601257
-0.134452596306800842 0.278034985065460205 0.117577657103538513
-0.333186924457550049 0.0943302437663078308 -0.102280363440513611
0.37402111291885376 -0.376143425703048706 -0.215003252029418945
0.519911050796508789 -0.345991671085357666 -0.32281869649887085
0.523478448390960693 -0.358252286911010742 -0.326678872108459473
-0.0682819336652755737 -0.254967212677001953 0.0989096984267234802
0.325669705867767334 -0.13132081925868988 0.314524024724960327
0.424294054508209229 -0.260231286287307739 0.328018486499786377
-0.479758918285369873 0.0317119471728801727 0.196792259812355042
0.526660025119781494 -0.299868971109390259 -0.322282165288925171
0.538098812103271484 -0.292721986770629883 -0.324698716402053833
0.377816468477249146 -0.374383211135864258 -0.213715717196464539
0.371323257684707642 -0.357324987649917603 -0.213715746998786926
0.524100899696350098 -0.35185319185256958 -0.325060904026031494
0.525407612323760986 -0.363627105951309204 -0.323150277137756348
0.515570878982543945 -0.327409625053405762 -0.32013741135597229
0.479505926370620728 -0.352547556161880493 -0.312264561653137207
0.478471130132675171 -0.365813016891479492 -0.312981337308883667
-0.361715257167816162 0.310095667839050293 0.239850625395774841
-0.320735841989517212 0.103906519711017609 0.0223340895026922226
-0.447526663541793823 0.20405241847038269 -0.0402058437466621399
-0.377660840749740601 0.279105007648468018 -0.00714561343193054199
-0.0225495453923940659 -0.260911345481872559 0.143845453858375549
-0.591848015785217285 0.361136436462402344 0.0643742009997367859
0.367520600557327271 -0.373708724975585938 -0.212503388524055481
-0.124071128666400909 -0.0108648817986249924 0.00810292642563581467
0.396599650382995605 -0.353606849908828735 -0.218333825469017029
0.507329642772674561 -0.159961223602294922 0.12504132091999054
0.195341989398002625 0.124335825443267822 0.00643002474680542946
-0.026961909607052803 0.166495963931083679 0.383055269718170166
-0.333976984024047852 -0.121153309941291809 0.100433915853500366
-0.325172334909439087 0.30262640118598938 -0.036581285297870636
0.534111738204956055 -0.347124278545379639 0.0376753434538841248
0.525356590747833252 -0.332161188125610352 0.0343513786792755127
-0.59566575288772583 0.381767392158508301 0.113556660711765289
-0.0111183812841773033 -0.144405215978622437 -0.026740729808807373
-0.235225006937980652 0.171793535351753235 -0.00152086163870990276
-0.485389828681945801 -0.0107235321775078773 0.177373379468917847
-0.277993470430374146 0.335782855749130249 0.0423651374876499176
0.513443291187286377 -0.349397867918014526 0.0969140008091926575
-0.448514491319656372 -0.0358488820493221283 0.11757119745016098
0.43437570333480835 -0.253684192895889282 0.331616371870040894
0.414862394332885742 -0.278779923915863037 0.327089369297027588
-0.468801796436309814 0.0343271940946578979 0.193725764751434326
0.50227653980255127 -0.339875251054763794 0.00781943555921316147
-0.481353402137756348 -0.00288386433385312557 0.177701979875564575
-0.377372652292251587 -0.10671476274728775 0.0930457413196563721
-0.500922024250030518 0.0220983605831861496 0.184487923979759216
0.360625177621841431 -0.287178754806518555 -0.141841515898704529
0.00154387031216174364 -0.231527402997016907 0.0901243984699249268
-0.140235930681228638 0.264751136302947998 0.088559471070766449
-0.129552841186523438 0.254074245691299438 0.0715566128492355347
0.31257358193397522 -0.293525546789169312 -0.131181061267852783
0.428208321332931519 -0.255921423435211182 0.330117285251617432
-0.615262687206268311 0.306281894445419312 0.392411857843399048
0.410761147737503052 -0.35819205641746521 -0.226409971714019775
0.505160093307495117 -0.346716552972793579 -0.319910794496536255
0.507856428623199463 -0.352750808000564575 -0.322619587182998657
0.523642182350158691 -0.298730552196502686 -0.318702787160873413
0.509817361831665039 -0.34706348180770874 -0.320237517356872559
0.269978761672973633 -0.169691115617752075 -0.079532720148563385
0.133673727512359619 0.119975805282592773 0.329138815402984619
0.251824349164962769 -0.285332351922988892 0.328084945678710938
0.324418425559997559 -0.120615668594837189 0.310562670230865479
0.302392244338989258 -0.204767331480979919 0.251093655824661255
0.25000724196434021 -0.00415414012968540192 0.325060248374938965
0.507293045520782471 -0.34343448281288147 0.0874557346105575562
0.241655707359313965 0.0894871354103088379 0.3099936842918396
0.462912589311599731 -0.284318327903747559 -0.231200963258743286
-0.262150555849075317 0.313667714595794678 0.0459962263703346252
0.344077020883560181 -0.140380963683128357 0.329354435205459595
0.373866647481918335 -0.364073902368545532 -0.208711892366409302
0.337617337703704834 -0.129647985100746155 0.320603638887405396
0.526562154293060303 -0.347405135631561279 -0.324063688516616821
0.524327754974365234 -0.352259367704391479 -0.326616942882537842
0.480110883712768555 -0.372522294521331787 -0.313072502613067627
-0.359938830137252808 -0.0650678053498268127 0.0830422714352607727
-0.407416284084320068 0.0885132253170013428 -0.112993761897087097
0.0140500366687774658 0.0978421494364738464 0.217253044247627258
-0.378449887037277222 -0.0932199731469154358 -0.0281586423516273499
0.265438556671142578 0.0680423900485038757 -0.0917594879865646362
-0.108254231512546539 -0.0153462421149015427 0.0461747981607913971
-0.358025550842285156 -0.0920628458261489868 0.0130919739603996277
-0.290311843156814575 0.304492384195327759 0.166732579469680786
-0.355470031499862671 -0.0736256986856460571 0.0407931245863437653
-0.598490715026855469 0.294259518384933472 0.186762198805809021
0.249364092946052551 0.0963909178972244263 -0.034232746809720993
0.37915310263633728 -0.355130881071090698 -0.209385216236114502
0.469758689403533936 -0.325046271085739136 0.137882784008979797
0.464497804641723633 -0.272122621536254883 -0.0930420756340026855
-0.439563155174255371 -0.0431593917310237885 0.0844016149640083313
-0.336242467164993286 -0.124829314649105072 0.127728104591369629
0.528335511684417725 -0.342204481363296509 0.0509101040661334991
0.392675608396530151 0.0466984771192073822 0.133573904633522034
-0.18587099015712738 0.313740521669387817 0.107986725866794586
-0.441515177488327026 -0.0430602207779884338 0.117965444922447205
0.537383735179901123 -0.32646101713180542 -0.0557472482323646545
-0.352982044219970703 0.306106328964233398 0.114347733557224274
0.494138658046722412 -0.346391499042510986 0.0440055578947067261
-0.575438320636749268 0.304815471172332764 0.379556655883789062
0.430959343910217285 -0.281370580196380615 0.333570301532745361
-0.477541089057922363 0.00387553195469081402 0.1642933189868927
0.524983704090118408 -0.350149035453796387 -0.00267158052884042263
-0.0672616586089134216 -0.263054072856903076 0.298467546701431274
-0.511831939220428467 0.00441518984735012054 0.188233166933059692
0.389902353286743164 -0.3605538010597229 -0.215685382485389709
-0.118462517857551575 0.254044562578201294 0.0637859553098678589
-0.500345051288604736 0.00483678560703992844 0.193416669964790344
0.426439344882965088 -0.274874687194824219 0.330504894256591797
-0.333532661199569702 0.103971585631370544 -0.11836310476064682
-0.10582752525806427 0.2539023756980896 0.0937928855419158936
0.510737955570220947 -0.341958284378051758 -0.319715112447738647
-0.61272430419921875 0.302247077226638794 0.39643394947052002
-0.508914947509765625 0.0363975390791893005 0.188755035400390625
-0.291041582822799683 -0.0892331227660179138 -0.0784856304526329041
0.509592533111572266 -0.345236331224441528 -0.321140140295028687
0.0717714801430702209 0.138970509171485901 0.0726301893591880798
0.245511755347251892 0.106797836720943451 0.32144203782081604
0.473193764686584473 -0.287080585956573486 -0.230735227465629578
0.305222749710083008 -0.315046787261962891 0.331633597612380981
0.511807441711425781 -0.350302666425704956 -0.322166323661804199
-0.315327107906341553 -0.0870720818638801575 -0.0341345854103565216
0.51442033052444458 -0.356005638837814331 -0.323133409023284912
-0.625176548957824707 0.180125907063484192 -0.086005091667175293
-0.353506714105606079 -0.0559561885893344879 -0.143838882446289062
-0.331208705902099609 0.269272267818450928 -0.0549338161945343018
-0.177265331149101257 0.138661786913871765 0.00516417436301708221
0.545398294925689697 -0.2178526371717453 0.159048840403556824
0.0305290408432483673 0.102216437458992004 0.0654972940683364868
0.509865164756774902 -0.331176131963729858 -0.319514095783233643
0.585917532444000244 -0.325466573238372803 -0.320123106241226196
0.249690547585487366 -0.288643479347229004 0.318307399749755859
0.255478560924530029 -0.00346319423988461494 0.327997058629989624
0.301517963409423828 -0.282935678958892822 0.331156343221664429
-0.34414324164390564 -0.090877048671245575 0.0181145891547203064
-0.374326199293136597 -0.0900533124804496765 -0.0181182064116001129
-0.0653499588370323181 -0.273614704608917236 0.159441098570823669
-0.630432486534118652 0.275382012128829956 0.0761219561100006104
0.366608262062072754 -0.365893900394439697 -0.212279781699180603
-0.12440025806427002 -0.0293803568929433823 -0.00646343082189559937
-0.598531961441040039 0.342036396265029907 0.0907200351357460022
0.443972170352935791 -0.249759063124656677 -0.28635406494140625
0.382662981748580933 -0.348381400108337402 -0.212152644991874695
0.312381893396377563 -0.372986286878585815 -0.156131431460380554
-0.179504647850990295 0.312378168106079102 0.100177086889743805
0.535143792629241943 -0.319651961326599121 -0.0325575657188892365
-0.655128777027130127 0.238124415278434753 0.0142220444977283478
-0.452963858842849731 -0.0539895258843898773 0.163417026400566101
0.499946832656860352 -0.348946243524551392 0.0712227672338485718
0.440496832132339478 -0.261328518390655518 0.33418002724647522
0.507238805294036865 -0.344163209199905396 0.0297703128308057785
0.264447420835494995 0.121153675019741058 0.027147272601723671
0.399781316518783569 0.032103516161441803 0.139735311269760132
-0.106437891721725464 0.252303749322891235 0.0728249624371528625
0.316635847091674805 -0.381011545658111572 -0.157010599970817566
-0.56662142276763916 0.295284658670425415 -0.0512661002576351166
0.390361398458480835 -0.363067418336868286 -0.22106577455997467
0.358959823846817017 0.0330208465456962585 0.0485583655536174774
0.194546341896057129 -0.365693718194961548 -0.0957910865545272827
0.391238123178482056 -0.355997055768966675 -0.217191755771636963
0.519739747047424316 -0.335474342107772827 -0.322663277387619019
0.522944808006286621 -0.333659380674362183 -0.324104905128479004
0.244195520877838135 0.0237473621964454651 0.323930799961090088
0.212440237402915955 -0.338882386684417725 0.318509697914123535
0.237003505229949951 0.105656810104846954 0.31502002477645874
0.521700382232666016 -0.337382316589355469 -0.325753360986709595
0.3181343674659729 -0.380124181509017944 -0.151165828108787537
0.584246337413787842 -0.318347275257110596 -0.334338396787643433
-0.380935400724411011 -0.0934875383973121643 -0.0176223982125520706
0.458250731229782104 -0.325874924659729004 0.124903157353401184
0.388848334550857544 0.0531199946999549866 0.13156735897064209
-0.173739790916442871 0.306981712579727173 0.106056943535804749
-0.462114244699478149 -0.0301874931901693344 0.134659647941589355
0.439634650945663452 -0.26191219687461853 0.334958374500274658
0.400198459625244141 0.0242998078465461731 0.127868771553039551
0.427308619022369385 -0.264053523540496826 0.331893116235733032
-0.509688913822174072 0.00414008507505059242 0.191022574901580811
-0.131082206964492798 0.253287374973297119 0.081730276346206665
-0.283927410840988159 0.335501343011856079 0.0344371162354946136
0.455325156450271606 -0.259940981864929199 0.336479067802429199
-0.330758661031723022 0.0976426079869270325 -0.117562577128410339
-0.508416473865509033 0.0359117463231086731 0.188712060451507568
0.257983177900314331 0.00711353588849306107 0.32748943567276001
0.445893377065658569 -0.256456971168518066 0.33366730809211731
0.236143916845321655 0.10866343230009079 0.308792859315872192
0.302439361810684204 -0.32952842116355896 0.334275692701339722
-0.32048758864402771 0.26668095588684082 -0.0468224994838237762
-0.133361458778381348 -0.26869887113571167 -0.0047616688534617424
-0.377040565013885498 -0.0755631476640701294 0.0240332596004009247
-0.375653684139251709 -0.0636445805430412292 -0.159898340702056885
-0.494751095771789551 -0.0228759683668613434 0.173965007066726685
-0.527718424797058105 -0.00702221551910042763 0.186820641160011292
0.382087171077728271 -0.366859227418899536 -0.219249740242958069
0.389127433300018311 -0.330500125885009766 0.18643602728843689
-0.577931225299835205 0.291560620069503784 -0.0407475046813488007
0.24158090353012085 0.0879811942577362061 -0.0394459664821624756
0.374554693698883057 -0.351732611656188965 -0.209830492734909058
0.187138557434082031 0.107471928000450134 0.0018566247308626771
-0.341748684644699097 0.272780328989028931 -0.0517529994249343872
0.532466471195220947 -0.354076206684112549 0.0532880425453186035
-0.113792732357978821 0.185052081942558289 0.354662209749221802
-0.215782597661018372 0.313092887401580811 0.112203098833560944
0.470456510782241821 -0.305333763360977173 -0.235810592770576477
0.536454737186431885 -0.32124936580657959 -0.0263395737856626511
-0.266315937042236328 0.309720307588577271 0.0455089285969734192
0.278790086507797241 0.00796626042574644089 -0.0272819772362709045
0.384476929903030396 -0.362443804740905762 -0.216968357563018799
0.0278752371668815613 -0.0958108678460121155 0.0189193263649940491
-0.416770696640014648 -0.0577592179179191589 0.133256390690803528
0.385156005620956421 -0.287916392087936401 -0.109666459262371063
0.382173210382461548 -0.363501667976379395 -0.219550400972366333
0.199758067727088928 -0.366601705551147461 -0.0960238352417945862
0.387636899948120117 -0.354398280382156372 -0.216607838869094849
0.511749088764190674 -0.337141901254653931 -0.319941818714141846
0.513059139251708984 -0.336904168128967285 -0.32212403416633606
0.233041763305664062 0.0338618271052837372 0.318786174058914185
0.241809159517288208 0.0886253491044044495 0.309861928224563599
0.362600594758987427 -0.283280104398727417 0.316043496131896973
0.530512750148773193 -0.34673735499382019 -0.33017238974571228
0.200586304068565369 -0.190757870674133301 -0.0717475414276123047
-0.192921176552772522 0.133326604962348938 0.00902335066348314285
0.321109622716903687 -0.37469404935836792 -0.158578276634216309
0.204503774642944336 -0.325882822275161743 0.315737724304199219
0.322778403759002686 -0.277901291847229004 0.317135900259017944
-0.499267339706420898 0.0160821191966533661 0.183868169784545898
0.347428053617477417 -0.273333102464675903 -0.132249519228935242
0.244754523038864136 0.021027006208896637 0.321682482957839966
0.195418372750282288 -0.167701750993728638 -0.0677087455987930298
0.0375444851815700531 0.131257683038711548 0.105586737394332886
-0.454916059970855713 -0.0508926734328269958 0.155000090599060059
-0.140362322330474854 0.268979161977767944 0.0800545439124107361
0.539967894554138184 -0.226595014333724976 0.172701224684715271
0.236250758171081543 0.104034639894962311 0.309385508298873901
-0.452452212572097778 -0.0276121553033590317 0.124215908348560333
-0.509259223937988281 0.00121324846986681223 0.173490539193153381
0.236175507307052612 0.0832566693425178528 0.310632765293121338
-0.487845838069915771 -0.0230880063027143478 0.177863597869873047
-0.520194292068481445 -0.00196870253421366215 0.186963394284248352
-0.0836920440196990967 0.0734951645135879517 0.0421757623553276062
0.367880284786224365 -0.0233136825263500214 -0.0821404159069061279
-0.231911242008209229 0.0469169951975345612 -0.0684429481625556946
0.495105743408203125 -0.341421931982040405 -0.449877649545669556
-0.627972185611724854 0.291658848524093628 0.17568853497505188
-0.111527025699615479 0.153202608227729797 0.0494313836097717285
0.52278745174407959 -0.345164209604263306 -0.0210293736308813095
-0.583229005336761475 0.374087035655975342 0.185269251465797424
-0.185936078429222107 0.312851607799530029 0.131873607635498047
0.0271549075841903687 -0.125445261597633362 -0.0345500968396663666
0.320129096508026123 0.0745240673422813416 -0.107405871152877808
-0.0375531315803527832 0.156466424465179443 0.385480821132659912
0.476505309343338013 -0.308378607034683228 -0.227295920252799988
0.496182441711425781 -0.291402220726013184 -0.167878955602645874
0.449612945318222046 -0.255559742450714111 0.332796096801757812
0.506820738315582275 -0.359499454498291016 0.041780475527048111
0.425354659557342529 -0.285983622074127197 0.329557508230209351
0.503938674926757812 -0.347860366106033325 0.0196907799690961838
0.400318026542663574 -0.344952404499053955 -0.215876445174217224
-0.490065395832061768 0.0470510721206665039 -0.093909531831741333
-0.12815624475479126 0.260688751935958862 0.0788928717374801636
0.326390087604522705 -0.372958153486251831 -0.155046641826629639
0.319614171981811523 -0.293524712324142456 -0.132330313324928284
0.433597385883331299 -0.296363562345504761 0.333017885684967041
0.40967172384262085 -0.35645487904548645 -0.225944504141807556
0.223587557673454285 -0.336757510900497437 0.317807286977767944
0.240149885416030884 0.0878397673368453979 0.30914151668548584
0.368742167949676514 -0.322331696748733521 0.320041000843048096
0.52131354808807373 -0.358715087175369263 -0.325935959815979004
-0.260094374418258667 -0.145763784646987915 -0.0597049258649349213
0.527196884155273438 -0.340337008237838745 0.0350270606577396393
-0.243675142526626587 0.0741624683141708374 0.00753561733290553093
0.197794869542121887 -0.336394011974334717 0.315967679023742676
0.46708756685256958 -0.275048196315765381 0.338803350925445557
