ply
format ascii 1.0
element vertex 738
property float x
property float y
property float z
end_header
-0.0253279004245996475 -0.18694673478603363 -0.0430740043520927429
-0.617844820022583008 0.277357697486877441 0.0320395231246948242
-0.608617305755615234 0.298667728900909424 0.0931334197521209717
-0.397283583879470825 -0.0625048205256462097 0.119414597749710083
-0.451426714658737183 -0.037823852151632309 0.120048306882381439
0.431438803672790527 -0.27155071496963501 0.329450815916061401
-0.0522163659334182739 0.141173988580703735 0.0921550765633583069
-0.502755641937255859 0.151479035615921021 0.35602879524230957
0.241188138723373413 -0.319093167781829834 0.323075532913208008
0.497443288564682007 -0.370621711015701294 0.0576657019555568695
0.399635493755340576 -0.256666660308837891 0.322730839252471924
-0.158006638288497925 -0.263235121965408325 0.181973934173583984
-0.49890175461769104 0.0143691496923565865 0.15868040919303894
0.417927563190460205 -0.297183424234390259 0.328996717929840088
0.53560030460357666 -0.339984744787216187 -0.0181240681558847427
0.344583064317703247 -0.267170608043670654 -0.127543464303016663
-0.496208846569061279 0.0723257288336753845 0.204586967825889587
0.443980038166046143 -0.27199631929397583 0.333677530288696289
0.522337198257446289 -0.335193991661071777 0.033108983188867569
0.453673243522644043 -0.319701910018920898 -0.292714029550552368
0.474545866250991821 -0.311479479074478149 0.117001213133335114
0.517534017562866211 -0.278219163417816162 -0.312503427267074585
0.502975702285766602 -0.325750857591629028 -0.313998639583587646
0.51842731237411499 -0.326915502548217773 0.102225914597511292
0.479628831148147583 -0.311233699321746826 -0.30185389518737793
0.114805497229099274 0.118875503540039062 0.28940349817276001
-0.121721133589744568 0.268993109464645386 0.159278318285942078
-0.614592075347900391 0.265830963850021362 0.0527448616921901703
-0.479116350412368774 0.0033918104600161314 0.181930094957351685
0.427019685506820679 -0.354838550090789795 0.158863291144371033
-0.29204094409942627 -0.110249891877174377 -0.105308085680007935
0.130781263113021851 0.0657677501440048218 0.321595132350921631
0.253977775573730469 0.0389506891369819641 -0.077463984489440918
0.23572838306427002 0.0941495150327682495 -0.0527319908142089844
0.417987585067749023 -0.261356860399246216 -0.202035620808601379
0.521996974945068359 -0.354466021060943604 -0.01914219930768013
-0.608651995658874512 0.381433755159378052 0.181932315230369568
0.517885446548461914 -0.279119759798049927 -0.314425677061080933
0.499430805444717407 -0.34981614351272583 0.0243903174996376038
-0.587628304958343506 0.369631081819534302 0.113727137446403503
0.506249785423278809 -0.104515515267848969 0.147576197981834412
-0.197828441858291626 0.311919718980789185 0.113456703722476959
0.264411777257919312 -0.286384344100952148 0.320047557353973389
0.237191841006278992 0.0623771362006664276 0.310876220464706421
-0.144249290227890015 -0.0431601442396640778 0.00464139506220817566
-0.657554805278778076 0.215034142136573792 -0.0455536805093288422
-0.288335353136062622 -0.0756300240755081177 -0.0681419968605041504
0.227494418621063232 0.0424316264688968658 -0.0478093214333057404
0.551817476749420166 -0.144285917282104492 0.132331281900405884
0.520065665245056152 -0.295178920030593872 0.0751997381448745728
0.517891108989715576 -0.283879101276397705 -0.180870518088340759
-0.357819437980651855 -0.0167522598057985306 -0.0274306628853082657
0.0916939452290534973 0.0885084271430969238 0.0861698687076568604
0.466957777738571167 -0.361715108156204224 -0.0103612588718533516
-0.432708978652954102 0.158120587468147278 -0.0659276247024536133
0.524101734161376953 -0.335464060306549072 0.0692070722579956055
0.26327139139175415 -0.285752803087234497 0.318771213293075562
0.00960473064333200455 -0.0906841680407524109 -0.0257109049707651138
0.032799847424030304 -0.130095332860946655 0.0222555901855230331
-0.630504608154296875 0.265343248844146729 0.0297015048563480377
0.242392957210540771 0.0745461806654930115 0.319144695997238159
0.240478858351707458 0.0297867022454738617 0.31921812891960144
-0.174621015787124634 0.301195621490478516 0.116825789213180542
0.304946869611740112 -0.15110383927822113 0.308082818984985352
0.262307286262512207 -0.290555030107498169 0.321256190538406372
-0.475940078496932983 -0.00787845999002456665 0.166799142956733704
0.243024393916130066 0.0819857940077781677 0.312505096197128296
0.520527064800262451 -0.351119101047515869 0.0822406485676765442
-0.03462967649102211 -0.237325325608253479 0.124471910297870636
-0.638103067874908447 0.290329456329345703 0.0994951650500297546
-0.233988866209983826 -0.132542520761489868 -0.0575566999614238739
-0.379028171300888062 -0.108509950339794159 0.106048338115215302
-0.236194923520088196 -0.147567480802536011 -0.0574046969413757324
-0.657766163349151611 0.214726999402046204 -0.0332559458911418915
0.529164791107177734 -0.352452069520950317 0.0781849026679992676
-0.620949387550354004 0.270605146884918213 0.053142990916967392
-0.403904080390930176 -0.0640477687120437622 0.112591192126274109
-0.446085900068283081 -0.041211400181055069 0.122549809515476227
0.268374323844909668 -0.285446882247924805 0.323730349540710449
0.127994924783706665 -0.326429039239883423 0.312867522239685059
0.152656614780426025 -0.342926084995269775 0.318132579326629639
0.44800373911857605 -0.335461705923080444 -0.292686372995376587
0.516025066375732422 -0.302794069051742554 -0.107652202248573303
0.515506565570831299 -0.280090957880020142 -0.312521815299987793
0.485142111778259277 -0.327517002820968628 -0.309481829404830933
0.464619874954223633 -0.345726281404495239 -0.302357316017150879
0.549862265586853027 -0.210055425763130188 -0.315675884485244751
0.524374604225158691 -0.299878865480422974 -0.322170138359069824
0.518239676952362061 -0.300689697265625 -0.318066984415054321
0.247117906808853149 0.0572631172835826874 0.316733509302139282
0.241591408848762512 0.087740190327167511 0.313074111938476562
-0.291493386030197144 -0.100249573588371277 -0.101443000137805939
-0.453342050313949585 -0.0516936816275119781 0.117645196616649628
0.405108273029327393 -0.27209058403968811 0.322772473096847534
-0.502154946327209473 0.00405997922644019127 0.189722567796707153
0.401404589414596558 -0.287072360515594482 0.325086057186126709
0.39955022931098938 -0.273386389017105103 0.323567718267440796
0.342505425214767456 -0.2587566077709198 0.0904002413153648376
-0.0185300298035144806 -0.244121015071868896 0.129039168357849121
-0.464264899492263794 0.0362800806760787964 0.190132230520248413
-0.194208323955535889 0.221931412816047668 0.172557666897773743
0.367112517356872559 -0.329076826572418213 -0.0232144221663475037
0.323685497045516968 -0.389905750751495361 -0.158568382263183594
0.535687267780303955 -0.323444545269012451 -0.057916589081287384
-0.441526621580123901 -0.0044332919642329216 0.153264686465263367
-0.0189012568444013596 -0.0592264309525489807 0.142133817076683044
1.6536801922484301e-05 -0.235851466655731201 0.106759555637836456
0.526456654071807861 -0.201606497168540955 -0.0797332897782325745
0.450059384107589722 -0.308145225048065186 -0.292572319507598877
0.527101337909698486 -0.275250881910324097 -0.31537318229675293
0.50017082691192627 -0.32470056414604187 -0.312368720769882202
0.475477695465087891 -0.30486142635345459 -0.297090619802474976
-0.127284780144691467 0.24696311354637146 0.139457494020462036
-0.648805320262908936 0.282352030277252197 0.0948869660496711731
-0.198756754398345947 0.286970078945159912 0.336411446332931519
0.498227894306182861 -0.0865271463990211487 0.136945977807044983
0.201019361615180969 -0.35892874002456665 -0.0904939472675323486
0.505673587322235107 -0.367489755153656006 -0.0224024336785078049
0.527515947818756104 -0.242478489875793457 0.173228219151496887
-0.585774421691894531 0.379656046628952026 0.171321213245391846
0.44527667760848999 -0.31473812460899353 -0.287446945905685425
0.49880605936050415 -0.110891595482826233 0.112458072602748871
-0.655591964721679688 0.175842821598052979 -0.103171952068805695
-0.201803833246231079 0.309120923280715942 0.0896704345941543579
0.201577857136726379 -0.013368549756705761 0.29558485746383667
0.160256549715995789 -0.0618780553340911865 -0.0437046512961387634
-0.579332470893859863 0.302562892436981201 0.369316518306732178
0.275257259607315063 0.0986515730619430542 -0.0287769269198179245
-0.435078948736190796 0.155825421214103699 -0.085453420877456665
0.534701228141784668 -0.332850635051727295 0.01304622832685709
-0.568572282791137695 0.197729185223579407 -0.228516101837158203
-0.497426360845565796 0.0453847572207450867 -0.0862697437405586243
0.0316564366221427917 -0.103697754442691803 0.0334112010896205902
0.534353256225585938 -0.264289945363998413 -0.316018819808959961
0.00996135920286178589 0.198006659746170044 0.0280291587114334106
0.302377313375473022 0.0391492694616317749 -0.0841480046510696411
-0.33193090558052063 -0.015592510811984539 -0.107188381254673004
0.236758410930633545 0.01467179786413908 0.322131901979446411
0.125333487987518311 0.0132495230063796043 0.299314886331558228
0.52778315544128418 -0.354969799518585205 0.0666329711675643921
0.467356294393539429 -0.309635519981384277 -0.232819423079490662
-0.651784181594848633 0.285690367221832275 0.104996241629123688
0.546846210956573486 -0.219753339886665344 0.163791432976722717
0.528300285339355469 -0.323174744844436646 -0.0157407764345407486
-0.382728546857833862 -0.05603037029504776 0.0767640545964241028
0.457180649042129517 -0.310627400875091553 -0.292270034551620483
0.505248904228210449 -0.339623719453811646 -0.317603886127471924
0.479097425937652588 -0.314109534025192261 -0.29921296238899231
0.520647108554840088 -0.301094651222229004 -0.317031383514404297
-0.00201102858409285545 -0.139667406678199768 -0.0243884790688753128
0.397884517908096313 -0.272944331169128418 0.323742866516113281
0.401554077863693237 -0.271371185779571533 0.324048042297363281
0.506373703479766846 -0.331772953271865845 0.106151379644870758
-0.467264533042907715 0.0428210161626338959 0.171249032020568848
0.410352051258087158 -0.345655381679534912 0.156884923577308655
-0.360516995191574097 -0.0348739922046661377 -0.147570833563804626
-0.127876520156860352 -0.26738390326499939 0.112818866968154907
0.512891173362731934 -0.368828237056732178 -0.014346233569085598
-0.213425874710083008 0.312922745943069458 0.0982068479061126709
0.250976979732513428 -0.286895036697387695 0.323197424411773682
0.209210827946662903 0.0097234044224023819 -0.0457404889166355133
0.0702653676271438599 -0.151204079389572144 -0.016831275075674057
-0.169462263584136963 0.305146455764770508 0.119389981031417847
0.471410423517227173 -0.364133626222610474 0.00735937245190143585
-0.290613770484924316 -0.0990397483110427856 -0.102700605988502502
0.0367569662630558014 -0.149359136819839478 -0.0212844796478748322
0.232489883899688721 0.0564945153892040253 0.309560567140579224
0.253782808780670166 -0.28845667839050293 0.32097858190536499
-0.471358597278594971 0.00151677685789763927 0.169263526797294617
0.241307422518730164 0.0629492998123168945 0.313458502292633057
0.509263694286346436 -0.3518105149269104 0.064280293881893158
0.22781623899936676 -0.314603179693222046 0.314885169267654419
-0.375031471252441406 -0.0927576571702957153 0.0867337286472320557
-0.0622995570302009583 -0.241358771920204163 0.302931725978851318
-0.22234150767326355 -0.127283468842506409 -0.0526189617812633514
-0.409521043300628662 -0.0650596544146537781 0.0990876033902168274
-0.444628030061721802 -0.0443361178040504456 0.133321240544319153
0.239370599389076233 -0.293837487697601318 0.31475713849067688
0.154325217008590698 -0.324129939079284668 0.320445716381072998
0.425684899091720581 -0.25585445761680603 0.328895151615142822
0.438557863235473633 -0.342687755823135376 -0.292339175939559937
0.506667494773864746 -0.334325522184371948 -0.317748993635177612
0.445407956838607788 -0.352035850286483765 -0.286397248506546021
0.238572642207145691 0.066013626754283905 0.312739163637161255
0.403631836175918579 -0.28730127215385437 0.326210141181945801
-0.494377642869949341 0.00709600839763879776 0.189005136489868164
0.486073762178421021 -0.0629580244421958923 0.132077917456626892
0.012880668044090271 -0.170397147536277771 0.0102857025340199471
0.531885027885437012 -0.307376652956008911 -0.0618827864527702332
0.315154373645782471 -0.301998555660247803 -0.126471281051635742
0.446242064237594604 -0.291076600551605225 -0.285309493541717529
-0.336517870426177979 0.2251129150390625 0.12631380558013916
-0.400451421737670898 -0.0277477409690618515 -0.00132454500999301672
0.403539538383483887 -0.27151411771774292 0.324431270360946655
-0.13291420042514801 0.196168407797813416 0.168279126286506653
0.399589955806732178 -0.271450847387313843 0.32424473762512207
-0.446104198694229126 -0.0245295688509941101 0.0220203623175621033
-0.137591734528541565 0.245221570134162903 0.192245781421661377
-0.61233675479888916 0.29441484808921814 0.184446156024932861
0.124928124248981476 0.116395197808742523 0.317127406597137451
-0.120537355542182922 0.250960737466812134 0.162379369139671326
-0.582858622074127197 0.348556786775588989 0.0588338077068328857
0.427258968353271484 -0.347829550504684448 0.153369098901748657
-0.566296100616455078 0.29551088809967041 -0.0683253556489944458
0.252239853143692017 0.0270784012973308563 -0.0791908204555511475
0.248024210333824158 0.100767910480499268 -0.0479530841112136841
-0.356990009546279907 -0.0552287474274635315 -0.141310229897499084
0.199071496725082397 0.120599254965782166 0.0361800007522106171
0.545941174030303955 -0.131224587559700012 0.112331859767436981
-0.581180334091186523 0.322190314531326294 -0.0221678167581558228
0.20654703676700592 0.0250218380242586136 0.177248910069465637
-0.594862222671508789 0.375531524419784546 0.172733157873153687
0.445221960544586182 -0.318913578987121582 0.127706572413444519
0.255582213401794434 -0.27841988205909729 0.316824376583099365
0.235971570014953613 0.0241114906966686249 0.316979944705963135
-0.362428992986679077 -0.0492632202804088593 -0.0232068412005901337
-0.182205185294151306 0.118605650961399078 0.0428469851613044739
0.255299121141433716 -0.28786081075668335 0.319639086723327637
0.242405280470848083 0.0334864035248756409 0.322244644165039062
0.400229007005691528 0.0237103793770074844 0.11554408073425293
-0.340027302503585815 -0.0655832216143608093 -0.146763846278190613
0.0763140618801116943 -0.332605481147766113 0.299336403608322144
-0.386250317096710205 -0.060284443199634552 0.0943964719772338867
-0.447661817073822021 -0.0408095866441726685 0.128333404660224915
0.439834266901016235 -0.278983741998672485 0.333963483572006226
0.0349047034978866577 -0.122409656643867493 -0.025188155472278595
0.414803653955459595 -0.280435562133789062 0.327309012413024902
0.433512568473815918 -0.295735001564025879 0.333465099334716797
0.368346929550170898 -0.278304219245910645 -0.129943713545799255
-0.476843178272247314 0.00197940412908792496 0.188964396715164185
-0.29102739691734314 -0.0957487449049949646 -0.104030586779117584
0.241925209760665894 -0.312627553939819336 0.310001939535140991
0.473636209964752197 -0.353855341672897339 0.00737045332789421082
-0.295858502388000488 -0.0959986522793769836 -0.106476292014122009
0.245277851819992065 -0.288209110498428345 0.320394158363342285
0.0628482252359390259 -0.329305261373519897 0.297425150871276855
0.158477097749710083 -0.267293006181716919 -0.105152800679206848
0.250603348016738892 0.0637578368186950684 0.315881699323654175
-0.481957137584686279 -0.00739615084603428841 0.178568989038467407
0.236744195222854614 0.0669295564293861389 0.31524127721786499
0.239270687103271484 -0.331438809633255005 0.321727842092514038
-0.381715595722198486 -0.0914380624890327454 0.0372973941266536713
-0.215604677796363831 -0.139521151781082153 -0.0538564994931221008
-0.382155328989028931 -0.0630904138088226318 0.0841105729341506958
0.150539800524711609 -0.331243813037872314 0.332233846187591553
0.446353942155838013 -0.279515594244003296 0.333886593580245972
0.407916635274887085 -0.280146539211273193 0.325422167778015137
-0.501466035842895508 0.00707472022622823715 0.189321637153625488
-0.321408510208129883 0.0977906733751296997 -0.0697076767683029175
0.532959401607513428 -0.207140490412712097 -0.0523112528026103973
0.451435238122940063 -0.293515622615814209 -0.290198326110839844
0.487902373075485229 -0.324869304895401001 -0.310611933469772339
0.446881353855133057 -0.30935940146446228 -0.290561288595199585
-0.57718271017074585 0.269573450088500977 0.366501957178115845
-0.460915625095367432 0.106351979076862335 -0.230410650372505188
0.375328183174133301 -0.318312644958496094 0.199392840266227722
-0.589236557483673096 0.36729586124420166 0.131947234272956848
0.393032610416412354 -0.353061914443969727 -0.217195108532905579
0.441577881574630737 -0.309901416301727295 -0.288770467042922974
-0.200186803936958313 0.305847823619842529 0.0955297425389289856
-0.155034273862838745 0.268332988023757935 0.152206242084503174
0.530263006687164307 -0.338095545768737793 0.0721238330006599426
0.464282870292663574 -0.265766799449920654 -0.217387989163398743
-0.632965266704559326 0.276100337505340576 0.107741184532642365
0.438899129629135132 -0.308193445205688477 -0.286941409111022949
0.51594853401184082 -0.276834458112716675 -0.316572725772857666
0.517072200775146484 -0.339979708194732666 -0.32048383355140686
0.454843401908874512 -0.30667540431022644 -0.292997181415557861
0.491356462240219116 -0.32157471776008606 0.0946796461939811707
0.0211019031703472137 -0.275349050760269165 -0.0181590300053358078
-0.653523743152618408 0.172381699085235596 -0.107453018426895142
-0.224216923117637634 0.318942040205001831 0.121935896575450897
0.465807735919952393 -0.363738924264907837 0.00619813799858093262
0.481530666351318359 -0.336457878351211548 0.0505711771547794342
0.511974334716796875 -0.339038938283920288 -0.319143503904342651
0.440668374300003052 -0.35618707537651062 -0.297349989414215088
-0.269528508186340332 0.322432518005371094 0.0424689538776874542
0.424621224403381348 -0.312913775444030762 -0.281635105609893799
0.416006535291671753 -0.294893920421600342 0.328753560781478882
-0.325558185577392578 -0.0749153569340705872 0.124016545712947845
-0.36633417010307312 -0.0662417411804199219 0.155240118503570557
-0.337769001722335815 0.215279474854469299 0.133449181914329529
0.010504014790058136 0.119813032448291779 0.105620056390762329
0.542487442493438721 -0.308847784996032715 -0.0459146350622177124
0.0141302850097417831 -0.261341899633407593 0.0399219207465648651
-0.00305227935314178467 -0.236124351620674133 0.0946729034185409546
0.000701100390870124102 -0.21915946900844574 0.0819352567195892334
0.465389043092727661 -0.360595226287841797 0.030600421130657196
-0.268839776515960693 -0.137563586235046387 0.17799299955368042
-0.344543009996414185 -0.0654123425483703613 0.141821444034576416
0.123960591852664948 -0.276277840137481689 0.129341468214988708
-0.133397072553634644 0.0792412459850311279 0.0907964780926704407
0.46390765905380249 -0.0540550276637077332 0.0178853981196880341
-0.0136349815875291824 -0.216470122337341309 0.0807806625962257385
-0.5542144775390625 0.391998708248138428 0.14845980703830719
0.497073829174041748 -0.366470038890838623 0.00553108192980289459
-0.610164880752563477 0.294412612915039062 0.187249854207038879
0.530482470989227295 -0.274900496006011963 -0.317408829927444458
0.370819926261901855 -0.264266073703765869 0.181817874312400818
0.420813083648681641 -0.344144433736801147 0.151136338710784912
0.252377092838287354 0.0395775102078914642 -0.0663204416632652283
0.549847126007080078 -0.149618759751319885 0.124518856406211853
-0.570025980472564697 0.284476697444915771 -0.00566269643604755402
0.501343309879302979 -0.362322211265563965 -0.000998631818220019341
0.208600535988807678 0.116059079766273499 -0.0100712580606341362
-0.288680911064147949 -0.0851377174258232117 -0.0658695027232170105
0.159641727805137634 -0.0828434377908706665 -0.0357909910380840302
-0.339406073093414307 -0.10498480498790741 0.141851708292961121
0.511489152908325195 -0.281061887741088867 -0.312926173210144043
-0.338751077651977539 -0.0791488885879516602 0.0391837693750858307
-0.368869364261627197 0.28121599555015564 -0.0619606785476207733
0.510286331176757812 -0.340663909912109375 0.065404646098613739
0.302743494510650635 -0.205595731735229492 0.248202905058860779
0.543229281902313232 -0.311734020709991455 -0.0604630373418331146
0.141950339078903198 0.0698292255401611328 0.336762666702270508
-0.594350278377532959 0.267944395542144775 0.0128982402384281158
0.222403377294540405 -0.00677331117913126945 0.295918375253677368
0.231248334050178528 0.0346466191112995148 0.313117295503616333
0.533935964107513428 -0.319340229034423828 -0.0125086307525634766
-0.388780862092971802 -0.0634984299540519714 0.106361344456672668
-0.447005182504653931 -0.0396613664925098419 0.127185121178627014
0.496334850788116455 -0.0910359770059585571 0.154738590121269226
0.251270860433578491 0.0634345635771751404 0.316999316215515137
-0.290749937295913696 -0.0923353731632232666 0.308220148086547852
-0.366004467010498047 -0.114274010062217712 0.104637399315834045
-0.562889695167541504 0.12775711715221405 -0.0777553990483283997
-0.500932931900024414 0.0239200666546821594 0.187370255589485168
0.518548429012298584 -0.29708409309387207 -0.313761532306671143
0.473006010055541992 -0.327979803085327148 -0.299616694450378418
-0.573716282844543457 0.269240677356719971 0.363427221775054932
-0.570642232894897461 0.355286061763763428 0.167801365256309509
-0.191269814968109131 0.305096685886383057 0.101887904107570648
-0.661535799503326416 0.240192294120788574 0.0423988364636898041
-0.504330039024353027 0.144821912050247192 0.354015529155731201
0.507557928562164307 -0.346906453371047974 -0.318040549755096436
-0.200096219778060913 0.305430561304092407 0.102550365030765533
0.475535154342651367 -0.357383131980895996 0.00495630037039518356
0.510171651840209961 -0.330480664968490601 0.0666800737380981445
-0.610186457633972168 0.367978930473327637 0.0885498300194740295
-0.561993837356567383 0.288733154535293579 -0.0552257373929023743
0.220334678888320923 0.0105861276388168335 0.309449374675750732
0.240899935364723206 0.00541337206959724426 0.321904480457305908
-0.359040558338165283 -0.0563739016652107239 -0.137305304408073425
0.399717658758163452 -0.252518445253372192 0.322176694869995117
0.400022834539413452 -0.262892544269561768 0.324926823377609253
0.224541440606117249 -0.323893547058105469 0.320961147546768188
0.411505788564682007 -0.267634272575378418 0.325345307588577271
-0.508571624755859375 0.0498828589916229248 0.195969313383102417
-0.63068699836730957 0.156947717070579529 -0.0519224740564823151
-0.501303195953369141 0.147389844059944153 0.345989465713500977
0.521362960338592529 -0.350468575954437256 -0.3227824866771698
0.495714247226715088 -0.348109841346740723 0.000478424364700913429
-0.197416231036186218 0.0166045520454645157 -0.0494314394891262054
-0.557237923145294189 0.342204481363296509 -0.00498553551733493805
0.488928139209747314 -0.360240668058395386 0.0412990450859069824
0.449514120817184448 -0.0739780738949775696 0.00220461701974272728
-0.555741608142852783 0.385605603456497192 0.158583164215087891
0.374961405992507935 -0.0809293240308761597 -0.119665235280990601
-0.389184743165969849 0.320018887519836426 0.169481918215751648
-0.384142220020294189 0.328574687242507935 0.198176354169845581
-0.363665074110031128 0.238492831587791443 -0.0828773900866508484
-0.406787395477294922 0.199985340237617493 0.0415503270924091339
-0.643914699554443359 0.287225723266601562 0.0943901762366294861
0.408976763486862183 -0.347016036510467529 0.136659815907478333
0.222685649991035461 0.0832083001732826233 -0.0332136228680610657
0.498925864696502686 -0.161055609583854675 0.124048665165901184
0.500668942928314209 -0.0926453545689582825 0.134972080588340759
0.215747252106666565 0.00214310875162482262 0.299780994653701782
-0.352621644735336304 -0.0676800161600112915 -0.00851062126457691193
-0.384904265403747559 0.266478180885314941 -0.0710449144244194031
0.506853222846984863 -0.346885025501251221 0.0551579035818576813
-0.356461852788925171 -0.0558365657925605774 -0.144898086786270142
0.132576361298561096 0.0728948935866355896 0.322494447231292725
-0.0991075858473777771 -0.265195518732070923 0.00654474319890141487
0.242806360125541687 0.0235548261553049088 0.322213947772979736
-0.479817688465118408 -0.0113194603472948074 0.185949608683586121
0.242833599448204041 0.0485452525317668915 0.317400693893432617
-0.277693182229995728 0.33310312032699585 0.0412574335932731628
0.370163649320602417 -0.030628325417637825 -0.0396984182298183441
0.520545721054077148 -0.347801297903060913 -0.0360858254134654999
0.293638885021209717 -0.0117145804688334465 0.0372865162789821625
-0.643601834774017334 0.2851448655128479 0.0932369232177734375
0.0360899008810520172 0.137033253908157349 0.0855227410793304443
-0.396902799606323242 -0.0572114028036594391 0.126463174819946289
-0.440862774848937988 -0.0378147996962070465 0.131924420595169067
0.524215579032897949 -0.317390024662017822 -0.0652304738759994507
0.422863155603408813 -0.279826551675796509 0.33140796422958374
0.510017752647399902 -0.344780415296554565 0.0573258586227893829
0.404276221990585327 -0.258696675300598145 0.323822110891342163
-0.479734361171722412 0.0184325408190488815 0.177341833710670471
0.235870823264122009 0.068732433021068573 0.314803838729858398
-0.478889137506484985 -0.00797560624778270721 0.167982101440429688
0.23949529230594635 0.0677407756447792053 0.31520456075668335
0.388473659753799438 0.0261769481003284454 0.106232136487960815
0.220061570405960083 -0.315889716148376465 0.3106212317943573
0.383294969797134399 0.0430920161306858063 0.0692770108580589294
0.463000118732452393 0.0109033947810530663 0.175266295671463013
0.399902254343032837 -0.258488953113555908 0.327396124601364136
-0.499044865369796753 0.0215011592954397202 0.181571647524833679
-0.572909951210021973 0.266517132520675659 0.360648512840270996
-0.664001762866973877 0.230258449912071228 0.0225411020219326019
-0.148812025785446167 0.27568364143371582 0.0795672684907913208
0.522402584552764893 -0.334891140460968018 -0.32239869236946106
-0.219908833503723145 0.315993607044219971 0.0972836092114448547
0.500242114067077637 -0.346372663974761963 0.0672143399715423584
-0.189263656735420227 0.303073644638061523 0.115287110209465027
0.314028173685073853 -0.130004793405532837 0.300938189029693604
0.225482150912284851 -0.0350647084414958954 0.305414080619812012
0.0578965097665786743 -0.330575913190841675 0.291673928499221802
0.435655444860458374 -0.279862463474273682 0.332919389009475708
0.40938529372215271 -0.285659521818161011 0.331087172031402588
0.386091321706771851 -0.265686869621276855 0.318971604108810425
0.397781401872634888 -0.384506672620773315 -0.225487545132637024
-0.161784425377845764 0.278700649738311768 0.129119664430618286
0.380935370922088623 0.0441140942275524139 0.077219255268573761
0.391213983297348022 -0.255644053220748901 0.318980634212493896
-0.499763786792755127 0.0247816797345876694 0.186409145593643188
0.499953210353851318 -0.325769573450088501 -0.313030362129211426
0.380957335233688354 -0.375796139240264893 -0.216100290417671204
0.521469473838806152 -0.349114835262298584 -0.324798643589019775
0.521028816699981689 -0.348253905773162842 -0.32173803448677063
0.513646900653839111 -0.319499194622039795 -0.318368464708328247
0.255331248044967651 -0.222174346446990967 0.0576933212578296661
0.186330407857894897 -0.142069250345230103 -0.105382487177848816
0.508134841918945312 -0.32006990909576416 0.0293732937425374985
-0.46891552209854126 -0.0115722408518195152 0.181637972593307495
0.496544301509857178 -0.348808109760284424 -0.309697955846786499
0.521808385848999023 -0.327374756336212158 -0.321872621774673462
0.476346850395202637 -0.32008776068687439 -0.302982568740844727
-0.34069293737411499 0.230261772871017456 -0.043786216527223587
0.201992377638816833 0.133035674691200256 0.112475126981735229
-0.17214319109916687 0.0225513670593500137 0.0260279476642608643
0.265933752059936523 -0.16562257707118988 0.00622640503570437431
0.545038819313049316 -0.328160315752029419 -0.0477152392268180847
-0.455764979124069214 -0.0527697987854480743 0.162733897566795349
0.470043540000915527 -0.355901718139648438 -0.307035088539123535
0.478782325983047485 -0.269643515348434448 -0.301471143960952759
0.467656642198562622 -0.361709833145141602 -0.308124303817749023
-0.31969839334487915 0.267033487558364868 0.0120308287441730499
0.0334805771708488464 0.0988440439105033875 0.128849789500236511
-0.284091651439666748 -0.0996901541948318481 -0.086924821138381958
-0.616240620613098145 0.217360004782676697 -0.104144684970378876
0.244670853018760681 0.104727305471897125 -0.0295279994606971741
0.466589301824569702 -0.23494759202003479 -0.228437513113021851
-0.293342649936676025 -0.0881462842226028442 -0.0954618081450462341
0.24953952431678772 -0.275766491889953613 0.322730571031570435
0.222310677170753479 0.0671007335186004639 -0.027681402862071991
-0.25036272406578064 -0.129847332835197449 -0.055054880678653717
-0.21113373339176178 0.302318751811981201 0.149202331900596619
0.340171068906784058 -0.140453293919563293 0.318480074405670166
0.530020177364349365 -0.356421411037445068 0.0698005110025405884
-0.599317610263824463 0.356955379247665405 0.0611204244196414948
-0.34577825665473938 -0.0553641393780708313 -0.143141046166419983
-0.43224373459815979 0.157985970377922058 -0.0840608328580856323
0.526910901069641113 -0.331545263528823853 0.0205064713954925537
0.528483986854553223 -0.287795603275299072 -0.0700307115912437439
-0.498324304819107056 0.143092989921569824 -0.253288745880126953
0.146783187985420227 0.157009929418563843 0.0590827912092208862
0.253581523895263672 -0.00750752817839384079 0.327873826026916504
0.350315123796463013 -0.147038713097572327 0.320712953805923462
0.442612439393997192 -0.322315633296966553 -0.229242876172065735
-0.223594993352890015 -0.139665082097053528 -0.0533787831664085388
0.522844433784484863 -0.350058019161224365 0.0970650538802146912
-0.64550936222076416 0.253817498683929443 0.0245778560638427734
0.393585711717605591 -0.279958546161651611 0.322419792413711548
-0.474097877740859985 -0.009519222192466259 0.165424764156341553
0.224829345941543579 -0.324895381927490234 0.319217950105667114
-0.363092571496963501 -0.120843566954135895 0.130866259336471558
-0.238038316369056702 -0.140288397669792175 -0.0535039901733398438
-0.113547950983047485 -0.00882893148809671402 -0.0162574779242277145
0.389811396598815918 -0.278229087591171265 0.320751041173934937
-0.506402552127838135 0.0115981632843613625 0.202530860900878906
0.462956845760345459 -0.296688437461853027 -0.294189512729644775
0.351658821105957031 -0.147996857762336731 0.321568727493286133
0.458206236362457275 -0.303488284349441528 -0.228711381554603577
0.0248641278594732285 -0.143457680940628052 -0.019833788275718689
0.369378358125686646 -0.327619820833206177 0.318895518779754639
0.392036855220794678 -0.281381279230117798 0.317012280225753784
0.128946661949157715 -0.318891555070877075 -0.0968331471085548401
-0.134077847003936768 0.278764069080352783 0.117973625659942627
-0.332805097103118896 0.0949430465698242188 -0.101875379681587219
0.374393284320831299 -0.375658571720123291 -0.214653059840202332
0.520246207714080811 -0.345503389835357666 -0.322416126728057861
0.523814022541046143 -0.357767879962921143 -0.326272964477539062
-0.067886054515838623 -0.254497140645980835 0.099256664514541626
0.326109200716018677 -0.130695641040802002 0.314906179904937744
0.424699515104293823 -0.259620875120162964 0.328423202037811279
-0.479350626468658447 0.0322510898113250732 0.197273984551429749
0.526989638805389404 -0.299366980791091919 -0.321883916854858398
0.538425803184509277 -0.292218208312988281 -0.324296921491622925
0.378188103437423706 -0.37389722466468811 -0.213364765048027039
0.37169349193572998 -0.356833845376968384 -0.213368535041809082
0.524435818195343018 -0.351366788148880005 -0.324655801057815552
0.525743246078491211 -0.363143652677536011 -0.322742700576782227
0.515905022621154785 -0.3269156813621521 -0.31973952054977417
0.479849547147750854 -0.352060675621032715 -0.311876624822616577
0.478816300630569458 -0.365329980850219727 -0.312591493129730225
-0.361317962408065796 0.310790836811065674 0.240349322557449341
-0.320345968008041382 0.10452686995267868 0.0227476675063371658
-0.447117477655410767 0.204713344573974609 -0.0397427305579185486
-0.377260178327560425 0.279820531606674194 -0.00669247563928365707
-0.0221356730908155441 -0.260431081056594849 0.144198015332221985
-0.591424047946929932 0.361825883388519287 0.0649189278483390808
0.367893815040588379 -0.373223453760147095 -0.212155550718307495
-0.123684175312519073 -0.0102782156318426132 0.00843547563999891281
0.396963924169540405 -0.353112250566482544 -0.217978686094284058
0.50768512487411499 -0.159313663840293884 0.125435873866081238
0.195723503828048706 0.125075384974479675 0.00673872744664549828
-0.0265398453921079636 0.167154878377914429 0.383432537317276001
-0.333588778972625732 -0.120679818093776703 0.100852511823177338
-0.324789524078369141 0.303351402282714844 -0.0361442528665065765
0.534453451633453369 -0.346580177545547485 0.0380910411477088928
0.525700271129608154 -0.331610947847366333 0.0347609855234622955
-0.595243573188781738 0.38245856761932373 0.114109411835670471
-0.0107256434857845306 -0.143871128559112549 -0.0264416616410017014
-0.234847426414489746 0.17247675359249115 -0.00113767781294882298
-0.484981745481491089 -0.010208960622549057 0.17785094678401947
-0.277613818645477295 0.336513757705688477 0.0428083352744579315
0.513797581195831299 -0.348844975233078003 0.0973262786865234375
-0.448110610246658325 -0.0353435240685939789 0.118028894066810608
0.434778094291687012 -0.253068834543228149 0.332022994756698608
0.415270984172821045 -0.278180688619613647 0.327493011951446533
-0.468394160270690918 0.0348679982125759125 0.194205805659294128
0.502625763416290283 -0.339332252740859985 0.00821787770837545395
-0.48094525933265686 -0.00236670859158039093 0.178181573748588562
-0.376979291439056396 -0.106244847178459167 0.0934774428606033325
-0.500512182712554932 0.0226339269429445267 0.184970751404762268
0.360994189977645874 -0.28664863109588623 -0.141507893800735474
0.00195443886332213879 -0.231027424335479736 0.0904560014605522156
-0.13986264169216156 0.265480190515518188 0.0889475718140602112
-0.129180848598480225 0.254803091287612915 0.0719356462359428406
0.312952876091003418 -0.293002814054489136 -0.13085763156414032
0.428612679243087769 -0.255308270454406738 0.330522686243057251
-0.614862143993377686 0.306960821151733398 0.392933905124664307
0.411122232675552368 -0.357698738574981689 -0.226048916578292847
0.505498051643371582 -0.346228301525115967 -0.319513887166976929
0.508194446563720703 -0.352264553308486938 -0.322220683097839355
0.523972153663635254 -0.298227638006210327 -0.318305939435958862
0.510154426097869873 -0.346575260162353516 -0.319838762283325195
0.270364910364151001 -0.169107973575592041 -0.0792313367128372192
0.134114652872085571 0.120641574263572693 0.3295096755027771
0.252271562814712524 -0.284793972969055176 0.328469216823577881
0.324858903884887695 -0.119988121092319489 0.310943692922592163
0.302828550338745117 -0.204167917370796204 0.251469701528549194
0.250462979078292847 -0.00351871270686388016 0.325430780649185181
0.50764840841293335 -0.342880129814147949 0.0878639519214630127
0.242096230387687683 0.0901667550206184387 0.31036454439163208
0.46325451135635376 -0.28379666805267334 -0.230831488966941833
-0.261772185564041138 0.314397245645523071 0.0464284420013427734
0.344511717557907104 -0.139751538634300232 0.329740434885025024
0.37423822283744812 -0.363584280014038086 -0.208363577723503113
0.338054060935974121 -0.129017829895019531 0.320987462997436523
0.526896178722381592 -0.346917390823364258 -0.32365831732749939
0.524662613868713379 -0.351773291826248169 -0.326211690902709961
0.480456352233886719 -0.372040987014770508 -0.312680900096893311
-0.359545499086380005 -0.0645681619644165039 0.0834690332412719727
-0.407023251056671143 0.089106924831867218 -0.112559400498867035
0.0144758885726332664 0.0984928533434867859 0.217614546418190002
-0.378063291311264038 -0.0927434489130973816 -0.027748793363571167
0.265809714794158936 0.0687612518668174744 -0.0914677679538726807
-0.107860080897808075 -0.0147591400891542435 0.0465118288993835449
-0.357638567686080933 -0.0915801078081130981 0.0135000403970479965
-0.289920955896377563 0.305204182863235474 0.167201101779937744
-0.35508042573928833 -0.0731293335556983948 0.0412079878151416779
-0.598070919513702393 0.294936001300811768 0.187298446893692017
0.24973943829536438 0.0971247851848602295 -0.0339304804801940918
0.379522085189819336 -0.354637473821640015 -0.209036082029342651
0.470131844282150269 -0.324475467205047607 0.138281702995300293
0.464845091104507446 -0.271570503711700439 -0.0926770269870758057
-0.439161211252212524 -0.0426565483212471008 0.0848509669303894043
-0.335852742195129395 -0.124358713626861572 0.128152921795845032
0.528680086135864258 -0.341655939817428589 0.0513236783444881439
0.393065512180328369 0.0474192164838314056 0.133928492665290833
-0.185497507452964783 0.314476370811462402 0.108404934406280518
-0.441112369298934937 -0.0425584129989147186 0.118420809507369995
0.537717044353485107 -0.325924307107925415 -0.0553386658430099487
-0.352584421634674072 0.306807756423950195 0.114827752113342285
0.494494199752807617 -0.345845252275466919 0.0444047003984451294
-0.575033664703369141 0.305503696203231812 0.380073457956314087
0.431363046169281006 -0.280770272016525269 0.333977282047271729
-0.47713315486907959 0.00439994689077138901 0.164769098162651062
0.52532505989074707 -0.349612534046173096 -0.0022620796225965023
-0.0668559595942497253 -0.26257893443107605 0.298850953578948975
-0.511421680450439453 0.00494170468300580978 0.188715621829032898
0.390269249677658081 -0.360061943531036377 -0.215331807732582092
-0.118091918528079987 0.254775971174240112 0.0641602352261543274
-0.499935835599899292 0.00536131067201495171 0.193898573517799377
0.426844328641891479 -0.274271577596664429 0.330910682678222656
-0.333151549100875854 0.104589767754077911 -0.117956861853599548
-0.10545378178358078 0.254632174968719482 0.0941697359085083008
0.511074423789978027 -0.341468572616577148 -0.3193168044090271
-0.612323760986328125 0.302925229072570801 0.396954357624053955
-0.508504211902618408 0.0369420535862445831 0.18924066424369812
-0.290669053792953491 -0.0887417197227478027 -0.0781155452132225037
0.509929478168487549 -0.344747781753540039 -0.320741772651672363
0.0721659883856773376 0.139681577682495117 0.0729611888527870178
0.245948955416679382 0.107485562562942505 0.321814239025115967
0.473533689975738525 -0.286559641361236572 -0.230361402034759521
0.305660486221313477 -0.314503401517868042 0.332023829221725464
0.512144505977630615 -0.349815607070922852 -0.321766257286071777
-0.314947307109832764 -0.0865788310766220093 -0.0337467864155769348
0.514757394790649414 -0.355520188808441162 -0.322731375694274902
-0.624757349491119385 0.180757090449333191 -0.0854974985122680664
-0.353127777576446533 -0.0554625615477561951 -0.143437251448631287
-0.330825179815292358 0.269987106323242188 -0.0545026883482933044
-0.176888644695281982 0.139334738254547119 0.00552330911159515381
0.545744001865386963 -0.217223331332206726 0.15946844220161438
0.0309293530881404877 0.102899067103862762 0.0658247247338294983
0.510200738906860352 -0.330683290958404541 -0.319117844104766846
0.586240410804748535 -0.324971646070480347 -0.319699108600616455
0.250137865543365479 -0.288106471300125122 0.318690776824951172
0.255933880805969238 -0.00282636960037052631 0.328367918729782104
0.301956236362457275 -0.282376796007156372 0.331545978784561157
-0.343757301568984985 -0.0903896093368530273 0.0185198429971933365
-0.373939037322998047 -0.0895745307207107544 -0.0177095513790845871
-0.0649450793862342834 -0.273149222135543823 0.159805908799171448
-0.630007922649383545 0.276050060987472534 0.0766566693782806396
0.366980612277984619 -0.3654060959815979 -0.211933061480522156
-0.124015524983406067 -0.0288053639233112335 -0.00613378779962658882
-0.598108410835266113 0.342722058296203613 0.0912628024816513062
0.444313108921051025 -0.249234527349472046 -0.285995155572891235
0.383029937744140625 -0.347885578870773315 -0.211803033947944641
0.312766671180725098 -0.372499138116836548 -0.155798554420471191
-0.179132357239723206 0.313115805387496948 0.100591056048870087
0.535478770732879639 -0.319108337163925171 -0.032149922102689743
-0.654705345630645752 0.238776415586471558 0.0147492196410894394
-0.452559500932693481 -0.0534963831305503845 0.163879826664924622
0.500303328037261963 -0.348396807909011841 0.0716270282864570618
0.440897256135940552 -0.26071593165397644 0.334588348865509033
0.507588565349578857 -0.343618452548980713 0.0301733557134866714
0.264826327562332153 0.121901817619800568 0.027465498074889183
0.400172233581542969 0.0328176729381084442 0.14009229838848114
-0.106066420674324036 0.253035306930541992 0.0731975063681602478
0.31702035665512085 -0.380526453256607056 -0.156675592064857483
-0.56620025634765625 0.295972615480422974 -0.050752006471157074
0.390727996826171875 -0.362577110528945923 -0.220711484551429749
0.359343200922012329 0.0337344855070114136 0.048888280987739563
0.194953665137290955 -0.36522066593170166 -0.0954826623201370239
0.391603976488113403 -0.355503648519515991 -0.216838210821151733
0.520073950290679932 -0.334983080625534058 -0.322262465953826904
0.523278236389160156 -0.333167761564254761 -0.323703140020370483
0.244648441672325134 0.0243935491889715195 0.324300915002822876
0.212892189621925354 -0.338383406400680542 0.318890959024429321
0.237441271543502808 0.10634264349937439 0.315391838550567627
0.522034406661987305 -0.336891978979110718 -0.325351506471633911
0.318518877029418945 -0.379637479782104492 -0.150830447673797607
0.584569156169891357 -0.317852497100830078 -0.333916187286376953
-0.380547612905502319 -0.0930122733116149902 -0.0172121450304985046
0.45862618088722229 -0.325307309627532959 0.125296741724014282
0.389238119125366211 0.0538436025381088257 0.131920874118804932
-0.173366978764533997 0.307718247175216675 0.106468848884105682
-0.461708694696426392 -0.0296798869967460632 0.135123148560523987
0.440035432577133179 -0.261300116777420044 0.335366576910018921
0.400588124990463257 0.0250114575028419495 0.128223061561584473
0.427713334560394287 -0.263444751501083374 0.332298815250396729
-0.509278953075408936 0.00466598104685544968 0.191504925489425659
-0.130708873271942139 0.254014462232589722 0.082111746072769165
-0.283547371625900269 0.336232364177703857 0.0348802506923675537
0.455720633268356323 -0.259324908256530762 0.336890667676925659
-0.330377966165542603 0.0982570424675941467 -0.117158375680446625
-0.508005797863006592 0.0364559441804885864 0.189197570085525513
0.258437097072601318 0.00775557709857821465 0.327860176563262939
0.446291953325271606 -0.255840808153152466 0.334076553583145142
0.236580431461334229 0.109351545572280884 0.309164494276046753
0.302878111600875854 -0.32899436354637146 0.334665805101394653
-0.320105493068695068 0.267396539449691772 -0.046395428478717804
-0.132991030812263489 -0.268264889717102051 -0.00442636851221323013
-0.376649916172027588 -0.0750727131962776184 0.0244506187736988068
-0.375272661447525024 -0.0631625577807426453 -0.159488201141357422
-0.494342803955078125 -0.0223655141890048981 0.174440145492553711
-0.527307093143463135 -0.00649968301877379417 0.187303870916366577
0.382456123828887939 -0.366370916366577148 -0.218897834420204163
0.38953360915184021 -0.32993394136428833 0.186821341514587402
-0.57750856876373291 0.292245388031005859 -0.0402304492890834808
0.241958171129226685 0.0887085869908332825 -0.0391456708312034607
0.374923884868621826 -0.35123857855796814 -0.209483101963996887
0.187526971101760864 0.108208417892456055 0.00215333234518766403
-0.341362684965133667 0.273493766784667969 -0.0513166114687919617
0.5328102707862854 -0.353532552719116211 0.0537051521241664886
-0.113385953009128571 0.185720100998878479 0.355054646730422974
-0.215405374765396118 0.313822835683822632 0.112632989883422852
0.470798522233963013 -0.304820477962493896 -0.235434934496879578
0.536789655685424805 -0.320705384016036987 -0.0259307250380516052
-0.265936762094497681 0.310448497533798218 0.0459414683282375336
0.279180765151977539 0.0086538754403591156 -0.0269834063947200775
0.384845167398452759 -0.361953437328338623 -0.216616317629814148
0.028283730149269104 -0.0952362492680549622 0.0192228760570287704
-0.41637033224105835 -0.0572644844651222229 0.133707672357559204
0.385521918535232544 -0.287376135587692261 -0.10933057963848114
0.382541775703430176 -0.363012224435806274 -0.219198837876319885
0.200164496898651123 -0.366127490997314453 -0.0957140251994132996
0.388003349304199219 -0.353904664516448975 -0.216255694627761841
0.512084901332855225 -0.336650848388671875 -0.319543898105621338
0.513394653797149658 -0.336413294076919556 -0.321725636720657349
0.233493924140930176 0.0345104336738586426 0.319155842065811157
0.242249846458435059 0.089304603636264801 0.310232758522033691
0.363024324178695679 -0.282694548368453979 0.316438883543014526
0.530846118927001953 -0.346250236034393311 -0.329765588045120239
0.20098365843296051 -0.190198644995689392 -0.0714527741074562073
-0.192543059587478638 0.133993268013000488 0.00938765145838260651
0.321492850780487061 -0.374206364154815674 -0.158242955803871155
0.204956471920013428 -0.325380027294158936 0.316117852926254272
0.323211669921875 -0.277330398559570312 0.317526251077651978
-0.498857706785202026 0.0166138447821140289 0.184350296854972839
0.347799301147460938 -0.272796750068664551 -0.131921052932739258
0.245207563042640686 0.021672440692782402 0.322052478790283203
0.195816591382026672 -0.167131379246711731 -0.0674150437116622925
0.0379458479583263397 0.131952017545700073 0.105927251279354095
-0.454511642456054688 -0.0503972619771957397 0.155462399125099182
-0.139990419149398804 0.269710659980773926 0.080441795289516449
0.54031670093536377 -0.225967064499855042 0.17312157154083252
0.236688479781150818 0.104720301926136017 0.309756994247436523
-0.452047556638717651 -0.0271026715636253357 0.124676607549190521
-0.508849024772644043 0.00173848110716789961 0.173971056938171387
0.236618012189865112 0.0839315727353096008 0.311003386974334717
-0.487438023090362549 -0.0225787591189146042 0.17833845317363739
-0.519783556461334229 -0.00144446350168436766 0.187446057796478271
-0.0833018049597740173 0.0741410702466964722 0.0425114817917346954
0.368245750665664673 -0.0226348806172609329 -0.0818338468670845032
-0.231535986065864563 0.0475176498293876648 -0.0680816173553466797
0.495446741580963135 -0.340950340032577515 -0.449483931064605713
-0.627552986145019531 0.292330116033554077 0.176228061318397522
-0.111146494746208191 0.153891041874885559 0.0497829467058181763
0.523128092288970947 -0.344628572463989258 -0.0206227656453847885
-0.58280491828918457 0.374781310558319092 0.185825377702713013
-0.185560330748558044 0.313582748174667358 0.132297113537788391
0.0275531373918056488 -0.124891132116317749 -0.0342565737664699554
0.320487469434738159 0.0752514824271202087 -0.107105530798435211
-0.0371302776038646698 0.157118454575538635 0.385859519243240356
0.476846396923065186 -0.30786481499671936 -0.226917609572410583
0.496518999338150024 -0.290871620178222656 -0.167496129870414734
0.450010180473327637 -0.254942387342453003 0.333205997943878174
0.50717240571975708 -0.358959168195724487 0.0421863570809364319
0.425760060548782349 -0.285386651754379272 0.32996329665184021
0.504288792610168457 -0.347318738698959351 0.0200920533388853073
0.4006805419921875 -0.344454050064086914 -0.21552121639251709
-0.489657431840896606 0.0476077497005462646 -0.0934532806277275085
-0.127784177660942078 0.261419206857681274 0.0792744383215904236
