ply
format ascii 1.0
element vertex 738
property float x
property float y
property float z
end_header
0.481699645519256592 -0.312198638916015625 -0.302047699689865112
0.468360275030136108 -0.331049621105194092 -0.00248446385376155376
0.457452058792114258 -0.305636286735534668 -0.291987776756286621
0.524358272552490234 -0.262301594018936157 -0.101541861891746521
-0.408828258514404297 0.318665653467178345 0.163163751363754272
-0.560799300670623779 0.267623156309127808 0.365677028894424438
-0.576114118099212646 0.210545942187309265 -0.200539559125900269
0.447596997022628784 -0.296941965818405151 -0.222596287727355957
0.310638189315795898 -0.0765574052929878235 0.14935477077960968
0.53474956750869751 -0.248618632555007935 0.101739153265953064
-0.56253582239151001 0.119726128876209259 -0.232982933521270752
-0.40816226601600647 0.0765599831938743591 -0.116144895553588867
-0.579746901988983154 0.356439739465713501 0.082922518253326416
0.0415654890239238739 0.114288769662380219 0.312854290008544922
-0.456638932228088379 0.00878753233700990677 0.182101964950561523
0.409671306610107422 -0.344268172979354858 0.160469725728034973
-0.554746568202972412 0.28851693868637085 -0.0489469394087791443
0.543249070644378662 -0.256274938583374023 0.114182256162166595
0.0243217106908559799 -0.250014275312423706 0.205559507012367249
0.195641219615936279 0.129744216799736023 0.0353167429566383362
0.315785765647888184 -0.370837092399597168 -0.156583890318870544
0.110818229615688324 0.0592921413481235504 0.319566398859024048
-0.314937472343444824 0.306460440158843994 0.284691035747528076
-0.254343509674072266 -0.1328839510679245 -0.0727330818772315979
-0.386475801467895508 -0.0603258535265922546 0.106886573135852814
0.453289389610290527 -0.0730917975306510925 -0.115997254848480225
0.316151052713394165 -0.333395391702651978 0.196342065930366516
0.297902703285217285 0.0378421023488044739 0.0505456291139125824
0.476067781448364258 -0.331306755542755127 0.136925667524337769
0.440001815557479858 -0.267827212810516357 -0.281845062971115112
0.461618781089782715 -0.273395627737045288 0.138487249612808228
0.504206538200378418 -0.346731066703796387 0.0179398898035287857
0.519095003604888916 -0.269892573356628418 -0.0866702497005462646
0.498794347047805786 -0.0884224474430084229 0.162341997027397156
0.542389631271362305 -0.215586736798286438 0.11136946827173233
-0.577163577079772949 0.326940387487411499 0.0807405635714530945
0.246783629059791565 0.111007601022720337 -0.0539878644049167633
0.0337741486728191376 0.068137630820274353 0.273027122020721436
-0.562114298343658447 0.27528044581413269 0.024244844913482666
-0.614030778408050537 0.272073328495025635 0.038823932409286499
0.535762488842010498 -0.239564716815948486 0.103396065533161163
-0.576081573963165283 0.212710708379745483 -0.116449981927871704
-0.425037533044815063 0.0305433794856071472 -0.188164129853248596
0.304727107286453247 -0.126740723848342896 -0.107906706631183624
-0.385093003511428833 -0.0558416768908500671 0.101125851273536682
-0.603328466415405273 0.259599119424819946 0.0177218466997146606
-0.46080288290977478 0.306333869695663452 0.0816216543316841125
0.505058526992797852 -0.264260798692703247 -0.108793273568153381
0.534736394882202148 -0.192685067653656006 0.0291840918362140656
-0.616241753101348877 0.210495620965957642 -0.055869564414024353
0.452736139297485352 -0.123932085931301117 0.0898590683937072754
0.0339176580309867859 -0.279732823371887207 -0.0353872813284397125
0.402235507965087891 -0.31911042332649231 0.131427809596061707
-0.0937026664614677429 0.0738307833671569824 0.293718427419662476
0.243468672037124634 -0.137063473463058472 0.0115646934136748314
0.161672487854957581 -0.271771609783172607 0.0443504564464092255
-0.590691626071929932 0.36923864483833313 0.09051533043384552
0.0272248871624469757 -0.0119555629789829254 0.0283715110272169113
0.195955470204353333 0.0337353833019733429 0.178657084703445435
-0.305999338626861572 -0.0915274545550346375 0.306005865335464478
0.493899136781692505 -0.367154806852340698 0.0203178580850362778
0.52176356315612793 -0.311711132526397705 0.0465510599315166473
0.502774298191070557 -0.153809383511543274 0.119496673345565796
0.0811599642038345337 -0.272274255752563477 -0.0591006502509117126
-0.325351297855377197 -0.103370353579521179 0.0888979285955429077
-0.586282014846801758 0.334877848625183105 0.0188655238598585129
-0.0735338553786277771 -0.235900908708572388 0.302180230617523193
0.194670051336288452 -0.340135961771011353 -0.0619000308215618134
-0.398941516876220703 0.27203744649887085 -0.0542048327624797821
-0.521754086017608643 0.0440397337079048157 -0.0573915652930736542
-0.257815331220626831 0.14210878312587738 0.0918047428131103516
-0.213385209441184998 -0.135925456881523132 -0.0628132149577140808
0.508628904819488525 -0.104989401996135712 0.144825905561447144
0.21444365382194519 -0.279902040958404541 -0.00883038528263568878
0.238358154892921448 -0.0763336941599845886 0.127368465065956116
-0.140473544597625732 0.296482592821121216 0.148342028260231018
-0.656007051467895508 0.171467944979667664 -0.112246491014957428
0.253541469573974609 -0.00971310213208198547 0.250469058752059937
0.250556737184524536 -0.179053694009780884 0.303228229284286499
-0.262923747301101685 -0.137171998620033264 -0.0672132372856140137
-0.200872108340263367 0.314326167106628418 0.0994619578123092651
0.258109241724014282 -0.278249114751815796 0.323558956384658813
0.179056957364082336 -0.0543231964111328125 -0.0505491793155670166
-0.443263798952102661 -0.0667761117219924927 0.129532948136329651
-0.503782510757446289 0.029992392286658287 0.247602537274360657
-0.497045338153839111 0.0364077165722846985 -0.0113081410527229309
0.232860833406448364 0.0225893929600715637 0.314576208591461182
-0.371347635984420776 -0.0458873584866523743 0.143858343362808228
-0.348942965269088745 0.106449991464614868 0.0664649605751037598
0.307865530252456665 -0.199036300182342529 0.243432477116584778
0.308567732572555542 -0.00578491576015949249 0.220086202025413513
-0.4428444504737854 0.266565114259719849 -0.0368702225387096405
0.517266273498535156 -0.326828837394714355 -0.0808223485946655273
-0.538781404495239258 0.138398915529251099 -0.0968580171465873718
0.465899676084518433 -0.124722324311733246 0.00247447122819721699
-0.385414421558380127 0.255302339792251587 0.0332210548222064972
0.494091153144836426 -0.302187263965606689 0.121649138629436493
0.465432405471801758 -0.10646887868642807 0.0600882880389690399
0.203907772898674011 0.0149293979629874229 -0.0417659543454647064
-0.224624320864677429 0.295713841915130615 0.159219726920127869
-0.12496582418680191 -0.049162447452545166 0.0113648874685168266
-0.231677144765853882 0.228337973356246948 0.348731309175491333
-0.380736023187637329 -0.0544448159635066986 0.145968735218048096
0.34138798713684082 -0.074039652943611145 0.0481758676469326019
-0.435918718576431274 -0.012353961355984211 0.0344926603138446808
0.205546543002128601 0.0163611937314271927 0.070901624858379364
0.0565043091773986816 -0.0861677378416061401 0.239828869700431824
-0.383826106786727905 -0.0596363358199596405 0.117069467902183533
-0.13649807870388031 -0.264989495277404785 -0.000709845800884068012
-0.243659168481826782 0.0634367093443870544 0.245385661721229553
-0.542145252227783203 0.210842177271842957 0.16315498948097229
-0.590748250484466553 0.28718113899230957 -0.00697856303304433823
0.307104408740997314 0.0173457823693752289 0.0433700084686279297
0.478698581457138062 -0.315019726753234863 -0.304926931858062744
0.503930389881134033 -0.345786780118942261 -0.0632326379418373108
0.471849024295806885 -0.305403739213943481 0.11565745621919632
0.527269601821899414 -0.303149640560150146 -0.108818851411342621
-0.402944564819335938 0.311492115259170532 0.135198324918746948
0.518092691898345947 -0.251519948244094849 -0.306902557611465454
0.507791817188262939 -0.329295098781585693 -0.314282804727554321
0.518989980220794678 -0.331611961126327515 0.0922044068574905396
0.477583169937133789 -0.304492175579071045 -0.302563309669494629
0.527723491191864014 -0.285892099142074585 -0.10743211954832077
-0.55991518497467041 0.267238527536392212 0.366064071655273438
-0.640160679817199707 0.289605259895324707 0.0854902341961860657
0.371712625026702881 -0.401399791240692139 -0.217049747705459595
-0.44971013069152832 -0.00113168137613683939 0.175589859485626221
0.176587119698524475 0.0726972818374633789 0.00714457733556628227
-0.453485459089279175 0.134595662355422974 -0.213273689150810242
0.403388738632202148 -0.336115509271621704 0.129567041993141174
-0.598883569240570068 0.207365453243255615 0.00113553530536592007
0.247818633913993835 -0.11477699875831604 -0.0703061223030090332
-0.483096063137054443 0.182663574814796448 -0.209700271487236023
-0.375996559858322144 -0.0631881356239318848 0.0921999514102935791
0.523086786270141602 -0.321208775043487549 0.0364801883697509766
0.542532086372375488 -0.21765272319316864 0.108895458281040192
0.525885105133056641 -0.273781031370162964 0.0559288151562213898
0.111400775611400604 0.0838532224297523499 0.317864596843719482
-0.350758135318756104 -0.0480067208409309387 0.0454997941851615906
0.105320848524570465 0.0719921141862869263 0.296100825071334839
-0.165190160274505615 0.132891133427619934 0.151907071471214294
0.502960145473480225 -0.256736129522323608 -0.101908430457115173
0.429193019866943359 -0.304108470678329468 0.136552527546882629
-0.355536609888076782 -0.101505577564239502 0.159576952457427979
0.498812198638916016 -0.201882690191268921 -0.107371725142002106
-0.578454136848449707 0.348112195730209351 0.152525246143341064
0.105267949402332306 -0.0117573346942663193 0.0216828472912311554
-0.341017186641693115 -0.123452238738536835 0.1051134392619133
-0.120332956314086914 -0.275747507810592651 0.174619138240814209
-0.160992130637168884 0.167177274823188782 0.325776010751724243
0.515210807323455811 -0.358839660882949829 0.0274017360061407089
0.521232724189758301 -0.287827968597412109 -0.0110782412812113762
0.479048579931259155 -0.140241563320159912 0.108260743319988251
-0.180689379572868347 0.0291438065469264984 0.0264250952750444412
-0.341734528541564941 -0.121673688292503357 0.104256220161914825
-0.60015946626663208 0.376837551593780518 0.188778802752494812
-0.119315214455127716 -0.266853600740432739 0.218882381916046143
0.523649454116821289 -0.309068202972412109 -0.0742044821381568909
0.516540467739105225 -0.252333760261535645 -0.309027105569839478
0.455255389213562012 -0.30844464898109436 -0.293978273868560791
0.240884840488433838 -0.0962126776576042175 0.159240439534187317
-0.620118439197540283 0.272262454032897949 0.0375107713043689728
-0.429780274629592896 -0.00387638714164495468 0.177839741110801697
-0.250123590230941772 -0.136948257684707642 -0.0705953389406204224
0.317658990621566772 -0.319199562072753906 0.123142890632152557
0.539474666118621826 -0.249966830015182495 0.107276156544685364
0.452913522720336914 -0.140048250555992126 0.0160269346088171005
0.429631024599075317 -0.321257591247558594 0.124335065484046936
0.41360202431678772 -0.331028848886489868 -0.209289386868476868
0.473986715078353882 -0.128822028636932373 0.110144875943660736
-0.548925578594207764 0.3786277174949646 0.173019871115684509
0.190922453999519348 -0.339983195066452026 -0.0127726197242736816
-0.201393187046051025 -0.135486438870429993 -0.0679375529289245605
-0.185508280992507935 0.312040448188781738 0.118462301790714264
0.103502161800861359 0.107526868581771851 0.175068438053131104
-0.444122105836868286 -0.0543490760028362274 0.0923346802592277527
-0.489200741052627563 0.0300376415252685547 0.0172882098704576492
0.231643170118331909 0.0107930740341544151 0.315652608871459961
-0.0244802925735712051 0.113031499087810516 0.313084423542022705
0.243504792451858521 -0.0388559326529502869 0.20527900755405426
-0.384758651256561279 0.24531477689743042 0.0348134823143482208
-0.653911948204040527 0.216763481497764587 -0.038920179009437561
0.483157843351364136 -0.116503216326236725 0.0240566767752170563
0.122368402779102325 0.0793105438351631165 0.13916972279548645
-0.381698757410049438 -0.0726178362965583801 0.096147581934928894
0.319929778575897217 -0.0725970044732093811 0.0630058422684669495
-0.440460026264190674 -0.0116820931434631348 0.00732857687398791313
-0.502045273780822754 0.233696162700653076 -0.0706898942589759827
-0.547092258930206299 0.203456461429595947 -0.0681279599666595459
0.088756948709487915 0.0914960205554962158 0.0806260779500007629
-0.519733846187591553 0.204554006457328796 -0.0467530302703380585
-0.168009445071220398 0.0722976550459861755 0.233109235763549805
-0.0569610781967639923 -0.186925694346427917 0.0273614134639501572
-0.212441712617874146 0.290737360715866089 0.109711334109306335
0.249857872724533081 -0.00564642064273357391 0.0229399669915437698
-0.555674433708190918 0.204368174076080322 0.118784978985786438
-0.457210749387741089 0.216425538063049316 0.0250113457441329956
-0.462513744831085205 0.266483694314956665 -0.00226322398521006107
-0.575287163257598877 0.247620001435279846 -0.0760794878005981445
-0.38923296332359314 0.275134086608886719 -0.0836276710033416748
0.344093501567840576 -0.134882166981697083 0.319466769695281982
-0.49846959114074707 0.206830725073814392 -0.0111727016046643257
-0.345879733562469482 0.292830586433410645 -0.0496210791170597076
0.526201188564300537 -0.361264705657958984 0.0423108041286468506
-0.539844632148742676 0.215138792991638184 0.201536566019058228
-0.569176793098449707 0.294404566287994385 -0.0027947078924626112
0.316772043704986572 0.0234680753201246262 0.0493571199476718903
0.482314079999923706 -0.30716589093208313 -0.303232192993164062
0.479956209659576416 -0.326520323753356934 0.125937297940254211
0.523421108722686768 -0.307202726602554321 -0.098204389214515686
0.490660905838012695 -0.310931533575057983 -0.306992977857589722
0.516441702842712402 -0.325242906808853149 0.120406627655029297
0.444867044687271118 -0.300365597009658813 -0.290215939283370972
0.523437321186065674 -0.304754137992858887 -0.096866317093372345
0.13445688784122467 0.116166353225708008 0.337716639041900635
-0.642267048358917236 0.242625921964645386 -0.00910119712352752686
-0.292337745428085327 -0.11391756683588028 -0.105175159871578217
0.539411365985870361 -0.255704373121261597 0.0927697494626045227
0.129329577088356018 0.0973756164312362671 0.317988067865371704
-0.234915941953659058 -0.143592461943626404 -0.0708278045058250427
0.252665877342224121 0.0298103764653205872 -0.0853853970766067505
0.531165957450866699 -0.323350995779037476 0.00736091332510113716
-0.599275708198547363 0.307376354932785034 0.104883268475532532
0.53227078914642334 -0.244880467653274536 0.0871199071407318115
-0.373882651329040527 -0.0608857870101928711 0.0928608402609825134
0.5267791748046875 -0.27551877498626709 -0.122748076915740967
-0.501025736331939697 0.148704633116722107 0.353573769330978394
0.385480165481567383 -0.297850668430328369 0.132389917969703674
0.133153170347213745 -0.332128524780273438 -0.0999463647603988647
0.522983253002166748 -0.355071216821670532 -0.0144183998927474022
-0.436340570449829102 0.150475636124610901 -0.0845377072691917419
0.515973329544067383 -0.300323992967605591 0.0652572810649871826
0.393454849720001221 -0.368066579103469849 -0.213253334164619446
0.50070720911026001 -0.171705380082130432 0.130630195140838623
0.533435702323913574 -0.334219425916671753 0.0289239175617694855
-0.579847276210784912 0.348890542984008789 0.0406736806035041809
0.520216226577758789 -0.241093441843986511 -0.308268159627914429
-0.6009635329246521 0.370675414800643921 0.105041131377220154
-0.500525951385498047 0.147075444459915161 0.355779141187667847
0.234392136335372925 -0.278023511171340942 0.317953556776046753
-0.181033387780189514 -0.137116536498069763 -0.0550957433879375458
-0.228081300854682922 -0.138056397438049316 -0.0529909506440162659
-0.204250410199165344 0.298341810703277588 0.12729974091053009
0.262943476438522339 -0.28984031081199646 0.324244648218154907
-0.36211925745010376 -0.0305977649986743927 0.120093300938606262
-0.499975025653839111 0.0193818733096122742 0.0323209092020988464
0.243132531642913818 -0.000129684602143242955 0.322891652584075928
0.141799047589302063 -0.290564417839050293 0.31229633092880249
0.308447450399398804 -0.207748860120773315 0.248769894242286682
-0.386072933673858643 0.254842489957809448 0.0348658524453639984
0.531293749809265137 -0.262493401765823364 0.1034969761967659
0.224331125617027283 0.0225135143846273422 0.306053310632705688
0.530792891979217529 -0.147578954696655273 -0.307785183191299438
-0.64476698637008667 0.231409847736358643 -0.0471521951258182526
0.541467130184173584 -0.311145693063735962 -0.0439290888607501984
0.508070230484008789 -0.267911940813064575 -0.311055451631546021
0.514555752277374268 -0.316258370876312256 -0.294650644063949585
0.459150046110153198 -0.2910442054271698 -0.29614749550819397
-0.542980849742889404 0.268195092678070068 -0.188990473747253418
-0.621367156505584717 0.289016515016555786 0.0670347511768341064
0.363846451044082642 -0.384394526481628418 -0.205672860145568848
-0.0924424827098846436 0.267180562019348145 0.18995240330696106
-0.448301136493682861 0.131308317184448242 -0.208373472094535828
-0.57532656192779541 0.203821957111358643 -0.12673671543598175
-0.629969537258148193 0.191753238439559937 -0.0395699143409729004
-0.469599992036819458 0.138964846730232239 -0.230700895190238953
0.257915586233139038 -0.0172675829380750656 -0.0715814977884292603
0.230728089809417725 0.0536658279597759247 -0.0446393713355064392
0.113274157047271729 0.109583213925361633 0.302255451679229736
-0.583965301513671875 0.218454152345657349 -0.221130728721618652
-0.5981292724609375 0.235281437635421753 -0.0104243932291865349
-0.366826623678207397 -0.0917466357350349426 0.123339347541332245
-0.329778373241424561 -0.125374659895896912 0.137796938419342041
-0.634501159191131592 0.199674084782600403 -0.0379884093999862671
-0.425531119108200073 -0.0549214519560337067 0.0997101515531539917
-0.477942079305648804 0.0201416220515966415 -0.0361327491700649261
0.208933159708976746 0.00838648248463869095 0.30143052339553833
-0.634099006652832031 0.24815388023853302 -0.00566944340243935585
-0.128007650375366211 0.269848287105560303 0.132804051041603088
0.271455585956573486 -0.33042532205581665 0.180636197328567505
0.533219039440155029 -0.210294619202613831 -0.0983551517128944397
-0.126177027821540833 -0.112703658640384674 -0.0543175786733627319
0.454466640949249268 -0.339007407426834106 -0.297677665948867798
-0.212430432438850403 0.0361917056143283844 -0.0591876432299613953
-0.553113400936126709 0.175814509391784668 0.0131699703633785248
-0.198415398597717285 0.139590665698051453 0.0216624587774276733
-0.0122486818581819534 -0.102597929537296295 -0.042472008615732193
0.265125811100006104 -0.275043368339538574 0.202994778752326965
0.349018573760986328 -0.321238517761230469 0.000452788866823539138
-0.155790135264396667 0.0697319209575653076 0.0280461125075817108
-0.249087855219841003 0.130775243043899536 -0.0339332148432731628
0.199348583817481995 0.00150070211384445429 0.0196022503077983856
0.0765352770686149597 0.0807388797402381897 0.0244680624455213547
-0.283411771059036255 0.28832361102104187 -0.00540910288691520691
0.477213919162750244 -0.289929658174514771 -0.301307797431945801
-0.55681765079498291 0.265833824872970581 -0.0168947316706180573
-0.237259745597839355 0.097612038254737854 -0.0319500677287578583
0.138247475028038025 -0.280938237905502319 0.150596827268600464
0.296724200248718262 -0.297510683536529541 0.057425178587436676
-0.285996377468109131 0.25729253888130188 0.0010607836302369833
-0.0208172369748353958 -0.0404511243104934692 0.0895123109221458435
0.204693421721458435 0.0425930619239807129 0.0662417709827423096
-0.143476366996765137 -0.0852324292063713074 0.092228621244430542
0.372732281684875488 -0.0735594332218170166 0.032072313129901886
0.521529257297515869 -0.199237227439880371 -0.0980480164289474487
0.487348049879074097 -0.297926008701324463 -0.304964423179626465
0.480674326419830322 -0.314982146024703979 0.122834548354148865
0.513808488845825195 -0.307314783334732056 -0.101956114172935486
0.496264129877090454 -0.309553265571594238 -0.309333622455596924
0.506371676921844482 -0.327960610389709473 -0.00364873860962688923
0.511946737766265869 -0.324679404497146606 0.118869133293628693
0.466151654720306396 -0.288833051919937134 -0.296162426471710205
0.438253849744796753 -0.263545066118240356 -0.193866267800331116
0.135263562202453613 0.116813585162162781 0.337632507085800171
0.396867364645004272 -0.244478851556777954 0.319315969944000244
-0.601622700691223145 0.354434162378311157 0.0659122690558433533
-0.505256712436676025 0.357311338186264038 0.178780749440193176
0.542788147926330566 -0.282652050256729126 0.0984393954277038574
0.256600469350814819 0.0367686450481414795 -0.0715818628668785095
-0.233110502362251282 0.15597139298915863 -0.00477777142077684402
0.506363034248352051 -0.332127779722213745 -0.00207183975726366043
0.44505387544631958 -0.250128000974655151 -0.227594360709190369
-0.639120697975158691 0.25463789701461792 0.0549125298857688904
0.532769381999969482 -0.262827694416046143 0.0937538370490074158
-0.393067002296447754 -0.0592548884451389313 0.100913383066654205
0.524093151092529297 -0.2897816002368927 -0.0916446447372436523
0.0283487681299448013 -0.274215906858444214 -0.0348498784005641937
0.385446369647979736 -0.306185275316238403 0.119310438632965088
-0.582325339317321777 0.36697763204574585 0.132124736905097961
0.240388721227645874 0.00279636960476636887 0.181674808263778687
-0.112941384315490723 0.165471911430358887 0.348113328218460083
0.482418417930603027 -0.368496507406234741 -0.0216105002909898758
0.41252562403678894 -0.321272075176239014 -0.210623681545257568
0.507416307926177979 -0.155672416090965271 0.124546036124229431
0.528992176055908203 -0.334852397441864014 0.0132911456748843193
-0.584242403507232666 0.336569219827651978 0.0344931408762931824
-0.590902030467987061 0.382082045078277588 0.131679043173789978
0.526504218578338623 -0.244450047612190247 -0.310243487358093262
0.474686294794082642 -0.290852159261703491 -0.29905971884727478
-0.597363054752349854 0.353855133056640625 0.170087262988090515
-0.587487936019897461 0.371619164943695068 0.10150638222694397
-0.211895018815994263 -0.129573449492454529 -0.0572163499891757965
0.234726503491401672 -0.29311525821685791 0.315520405769348145
0.23819085955619812 0.0670125409960746765 0.320651799440383911
0.542024672031402588 -0.313982665538787842 -0.0576546415686607361
-0.444677859544754028 -0.0483753159642219543 0.127543166279792786
0.359885960817337036 -0.388469547033309937 -0.208619728684425354
-0.556611478328704834 0.211281180381774902 -0.113293647766113281
0.521009922027587891 -0.279676675796508789 -0.176682814955711365
0.2420758455991745 0.0346513837575912476 0.315123796463012695
0.24291326105594635 0.000340751546900719404 0.0241711977869272232
0.380771070718765259 0.038737121969461441 0.0124040078371763229
0.526972353458404541 -0.230749517679214478 -0.309748291969299316
0.327070027589797974 0.0961062014102935791 -0.0354070700705051422
-0.374169796705245972 -0.0602439902722835541 -0.132460042834281921
0.513044655323028564 -0.167669802904129028 0.136442482471466064
-0.574618875980377197 0.322163373231887817 0.0498722754418849945
-0.559102892875671387 0.28355833888053894 0.36460074782371521
0.224581420421600342 0.0318777225911617279 -0.0576983876526355743
-0.57435142993927002 0.214767158031463623 -0.220760002732276917
-0.0442906022071838379 0.156572639942169189 0.08174162358045578
0.114151246845722198 0.110009230673313141 0.0259760450571775436
0.343025296926498413 -0.247090309858322144 -0.0964310392737388611
-0.285199016332626343 0.300535351037979126 -0.0023128860630095005
0.153456658124923706 -0.00444498937577009201 -0.00306401634588837624
0.0690871700644493103 0.138807624578475952 0.0762013047933578491
-0.270181477069854736 0.280273079872131348 0.00221816496923565865
0.503566503524780273 -0.292728900909423828 -0.158921778202056885
0.137136757373809814 -0.0258679706603288651 0.0136226415634155273
-0.339014917612075806 -0.0319810472428798676 0.02328532375395298
0.373555362224578857 -0.0919520482420921326 0.0447881743311882019
0.199997827410697937 0.101181872189044952 -0.00128917722031474113
-0.297245800495147705 -0.0250211730599403381 0.0364345237612724304
0.131942212581634521 -0.0178572256118059158 -0.0255942530930042267
0.101516477763652802 0.0159919653087854385 0.0917582511901855469
0.17572532594203949 0.119311995804309845 0.0385669209063053131
-0.230427488684654236 -0.0636697337031364441 0.105172336101531982
0.486332923173904419 -0.296789795160293579 -0.303192436695098877
-0.603318095207214355 0.289649784564971924 0.185540929436683655
0.467404723167419434 -0.308861434459686279 0.120590046048164368
0.378378450870513916 -0.0145788062363862991 0.00686936546117067337
0.51455390453338623 -0.295449525117874146 -0.103046111762523651
0.519049942493438721 -0.23984210193157196 -0.307249575853347778
0.478175878524780273 -0.309856802225112915 -0.299948722124099731
0.483635008335113525 -0.274643450975418091 -0.299570649862289429
0.117310084402561188 0.118710145354270935 0.29820096492767334
-0.58433067798614502 0.356497645378112793 0.0661399811506271362
0.384006291627883911 -0.337471097707748413 0.125998586416244507
-0.574574172496795654 0.317829877138137817 -0.0262455232441425323
-0.60450136661529541 0.217255502939224243 -0.0866154581308364868
0.267873287200927734 0.0391645133495330811 -0.0857816040515899658
-0.356362909078598022 -0.0221578311175107956 -0.130739733576774597
-0.564389169216156006 0.31445583701133728 -0.00759376678615808487
0.190997451543807983 -0.340911060571670532 -0.0743383988738059998
0.404469192028045654 -0.357758820056915283 -0.223690122365951538
-0.500274300575256348 0.145659089088439941 0.355122745037078857
0.509712874889373779 -0.151634112000465393 0.115516409277915955
0.497082561254501343 -0.264048308134078979 -0.304049789905548096
0.458237051963806152 -0.281008303165435791 -0.289407968521118164
0.44120323657989502 -0.265090107917785645 -0.28335842490196228
-0.588145732879638672 0.357602804899215698 0.0620508268475532532
0.505308806896209717 -0.126958444714546204 0.124940440058708191
-0.206357672810554504 0.312511175870895386 0.109277278184890747
0.26852792501449585 -0.284156084060668945 0.319703519344329834
0.232729583978652954 0.00341186975128948689 0.318417668342590332
0.513442754745483398 -0.175800323486328125 -0.281395077705383301
-0.115135170519351959 0.00985071901232004166 0.00637255469337105751
0.404201775789260864 -0.359787553548812866 -0.224314242601394653
0.417863845825195312 -0.31341060996055603 0.144268155097961426
-0.555657863616943359 0.376631081104278564 0.187167957425117493
-0.175771415233612061 0.309172928333282471 0.118963047862052917
-0.389829576015472412 0.276106536388397217 -0.084629058837890625
0.365328192710876465 0.0516765080392360687 0.0251160543411970139
0.129287213087081909 0.115603700280189514 0.319429159164428711
-0.286380410194396973 -0.100577987730503082 -0.0915843397378921509
0.25820845365524292 0.100793085992336273 -0.0615376755595207214
-0.361176609992980957 -0.0598032698035240173 -0.143720775842666626
0.134245231747627258 0.113564476370811462 0.338375508785247803
-0.56311410665512085 0.199416935443878174 -0.228733137249946594
-0.276522517204284668 0.288048744201660156 -0.00040627809357829392
0.455144792795181274 -0.24658086895942688 -0.287943989038467407
0.46049770712852478 -0.275539577007293701 -0.29047432541847229
-0.634970307350158691 0.308288276195526123 0.170725002884864807
0.512675285339355469 -0.317620664834976196 -0.0381260178983211517
0.469194173812866211 -0.265936076641082764 -0.297602623701095581
0.478410571813583374 -0.295151978731155396 -0.299885034561157227
0.458399921655654907 -0.246364042162895203 -0.289515852928161621
0.381450921297073364 -0.361123621463775635 -0.213501334190368652
-0.479426860809326172 -0.0125406328588724136 0.186300322413444519
-0.516627967357635498 0.365889281034469604 0.174472108483314514
-0.618578612804412842 0.202146902680397034 -0.0868847295641899109
-0.237221673130989075 0.0187949743121862411 -0.0720908120274543762
-0.382525831460952759 -0.0590344071388244629 0.0241522584110498428
0.475100576877593994 -0.368495345115661621 0.0222722385078668594
-0.649327933788299561 0.23687782883644104 0.0325315296649932861
0.412886202335357666 -0.346857517957687378 -0.221283048391342163
0.526241719722747803 -0.337297797203063965 0.0805606991052627563
0.506255805492401123 -0.239145606756210327 -0.307711601257324219
0.24988730251789093 -0.282333999872207642 0.318760782480239868
0.239344432950019836 0.0664419382810592651 0.31519627571105957
0.5397452712059021 -0.301976233720779419 -0.0932210236787796021
-0.447837859392166138 -0.0413779467344284058 0.126974239945411682
-0.043728020042181015 0.104411937296390533 0.318366020917892456
0.248143166303634644 0.0208939537405967712 0.322750002145767212
-0.284703493118286133 -0.0997118502855300903 -0.0986058562994003296
-0.13762916624546051 -0.0151390582323074341 -0.0483558550477027893
-0.277997761964797974 0.337935030460357666 0.0474900417029857635
-0.254799425601959229 0.289949923753738403 -0.00274766189977526665
-0.219019725918769836 0.321938544511795044 0.0703581869602203369
-0.573277711868286133 0.152349919080734253 -0.0741725116968154907
-0.290052115917205811 0.292759150266647339 0.0165326371788978577
0.525807738304138184 -0.320808708667755127 0.0276595316827297211
0.346272677183151245 -0.030650697648525238 -0.0339980311691761017
0.522437930107116699 -0.363060086965560913 0.0898931920528411865
-0.0831040292978286743 -0.111885622143745422 0.0789624825119972229
-0.404119729995727539 0.326132386922836304 0.121699787676334381
0.504972398281097412 -0.367219656705856323 -0.00402621366083621979
-0.11878533661365509 0.266096174716949463 0.121488377451896667
0.518915772438049316 -0.343102008104324341 0.0363264940679073334
0.130658090114593506 -0.334724634885787964 0.301756680011749268
0.466849774122238159 -0.3112049400806427 0.0729546099901199341
0.483095347881317139 -0.374152779579162598 0.0528044402599334717
0.421203285455703735 -0.0262248702347278595 0.0653735250234603882
0.494376212358474731 -0.363680183887481689 -0.015079091303050518
-0.233059599995613098 0.287193506956100464 0.0846527963876724243
0.531403303146362305 -0.331902474164962769 -0.0067541864700615406
-0.272073864936828613 0.315461248159408569 0.114482514560222626
0.308378845453262329 0.00243574194610118866 0.0468060486018657684
0.467676013708114624 -0.263545066118240356 -0.295673191547393799
0.474042296409606934 -0.304483622312545776 0.114743493497371674
0.51138383150100708 -0.3137778639793396 -0.103947103023529053
0.509403228759765625 -0.245492160320281982 -0.308031022548675537
0.448223978281021118 -0.29263836145401001 -0.292367786169052124
0.466652154922485352 -0.283403456211090088 -0.296885371208190918
0.138477548956871033 0.112681686878204346 0.337315261363983154
-0.652203261852264404 0.285871326923370361 0.0983103141188621521
-0.638348221778869629 0.244960561394691467 -0.0379050187766551971
0.136496052145957947 0.0691597610712051392 0.338429063558578491
-0.577159881591796875 0.303951084613800049 -0.0552496947348117828
0.262652724981307983 0.0303441397845745087 -0.0729879513382911682
0.542087733745574951 -0.216885074973106384 0.112093783915042877
-0.359986305236816406 -0.0357957705855369568 -0.133922010660171509
-0.574817121028900146 0.327638864517211914 -0.0292543563991785049
-0.361684888601303101 -0.0709680095314979553 -0.0335638932883739471
-0.130288735032081604 -0.267649292945861816 0.119547434151172638
0.495345801115036011 -0.365977615118026733 8.84022811078466475e-05
0.374144524335861206 -0.359521329402923584 -0.209666162729263306
-0.378303289413452148 -0.106932796537876129 0.10176531970500946
-0.0667509362101554871 -0.264093309640884399 0.29698142409324646
0.520074307918548584 -0.243443712592124939 -0.309049665927886963
0.509652972221374512 -0.330712735652923584 0.0157456304877996445
-0.593468546867370605 0.369152635335922241 0.120931550860404968
-0.655371189117431641 0.175797790288925171 -0.102752067148685455
-0.222833707928657532 -0.14420647919178009 -0.053297482430934906
-0.191352948546409607 0.316690504550933838 0.101231291890144348
0.256989598274230957 -0.283626526594161987 0.320194453001022339
0.239344581961631775 0.032082628458738327 0.319660007953643799
-0.119969002902507782 -0.0461694225668907166 0.00776165444403886795
-0.641644418239593506 0.30880427360534668 0.102194704115390778
0.36503976583480835 -0.374065577983856201 -0.206584557890892029
0.53788912296295166 -0.217907130718231201 0.162389576435089111
-0.552873790264129639 0.382629871368408203 0.158359631896018982
-0.122563853859901428 0.259311139583587646 0.115619339048862457
0.119519181549549103 0.102352149784564972 0.0899623334407806396
-0.375491470098495483 0.265944033861160278 -0.0891625434160232544
0.517073333263397217 -0.349211901426315308 0.0992637947201728821
-0.293375402688980103 -0.107195399701595306 -0.108886465430259705
0.275117605924606323 0.102841734886169434 -0.0571769550442695618
-0.575089395046234131 0.219676405191421509 -0.212352678179740906
-0.115605644881725311 0.268599420785903931 0.18032410740852356
0.236348837614059448 -0.288101106882095337 0.31488075852394104
0.310425817966461182 -0.187484636902809143 0.241533339023590088
0.541925132274627686 -0.325985252857208252 -0.0204522740095853806
0.0793401896953582764 -0.337808728218078613 0.28270384669303894
-0.006153834518045187 -0.171942189335823059 0.00469799758866429329
-0.282322943210601807 0.261797696352005005 0.00750228622928261757
0.51333153247833252 -0.237216100096702576 -0.309045583009719849
-0.646995484828948975 0.278420835733413696 0.0798549428582191467
-0.64630889892578125 0.183309674263000488 -0.0905949622392654419
0.514281809329986572 -0.322672933340072632 0.0247615072876214981
-0.406878829002380371 -0.063649199903011322 0.113953210413455963
0.517014622688293457 -0.355854988098144531 -0.0201677288860082626
-0.566681504249572754 0.374503105878829956 0.152856186032295227
0.236090213060379028 0.0428965836763381958 0.314209818840026855
-0.664842367172241211 0.227275267243385315 0.0234085023403167725
-0.448047995567321777 -0.0384797900915145874 0.127483353018760681
0.503213346004486084 -0.302407264709472656 -0.178457722067832947
-0.589210450649261475 0.361212193965911865 0.0864211693406105042
-0.19419415295124054 0.314964532852172852 0.105350024998188019
0.247125238180160522 0.0237982515245676041 0.324344545602798462
0.531089305877685547 -0.323946774005889893 -0.0576280727982521057
-0.182938218116760254 0.307059645652770996 0.128971666097640991
0.247385561466217041 0.00687213987112045288 0.324473112821578979
0.058765314519405365 0.1395883709192276 0.346271097660064697
-0.50569993257522583 0.149462640285491943 0.357322245836257935
0.271053910255432129 -0.311375200748443604 0.326735466718673706
-0.253661125898361206 0.0235365256667137146 -0.0703030452132225037
0.241400808095932007 -0.295414447784423828 0.322982698678970337
0.249139100313186646 0.0436798706650733948 0.3149375319480896
0.468504488468170166 -0.102133318781852722 0.0350999869406223297
-0.12477845698595047 0.195091009140014648 0.115891382098197937
0.240301430225372314 -0.326732933521270752 0.318429887294769287
0.500444710254669189 -0.366755485534667969 0.0751250088214874268
0.523604094982147217 -0.324875950813293457 0.0266815442591905594
0.444870263338088989 -0.253430724143981934 0.332877635955810547
0.3217429518699646 -0.131585538387298584 -0.106238298118114471
0.0635838732123374939 -0.0108571285381913185 0.322198539972305298
0.51148676872253418 -0.361052334308624268 0.0479806624352931976
0.135909438133239746 -0.100805133581161499 0.0409851409494876862
0.0496859773993492126 0.0114496545866131783 0.0301654618233442307
0.0209145359694957733 0.0481448844075202942 0.0430334433913230896
0.0883824676275253296 -0.0661784633994102478 0.290130347013473511
-0.161835834383964539 -0.265731692314147949 0.14844280481338501
0.265117347240447998 -0.0203167535364627838 0.0620143525302410126
-0.0286954399198293686 -0.0291174724698066711 0.296044737100601196
0.50241011381149292 -0.240463629364967346 -0.301629215478897095
0.476215571165084839 -0.315089195966720581 -0.301584839820861816
-0.630950629711151123 0.306436985731124878 0.167710497975349426
0.47568848729133606 -0.320997834205627441 0.121506631374359131
0.509293556213378906 -0.301004856824874878 -0.105107583105564117
0.528444170951843262 -0.275032222270965576 -0.316813260316848755
0.493818312883377075 -0.33255353569984436 -0.310339659452438354
0.50370633602142334 -0.320315539836883545 0.0985005199909210205
0.474462807178497314 -0.30592423677444458 -0.297735810279846191
-0.559333920478820801 0.268203586339950562 0.364928394556045532
0.125149562954902649 0.116735845804214478 0.314730525016784668
-0.633581340312957764 0.282386660575866699 0.054594825953245163
-0.587402105331420898 0.362966567277908325 0.102763652801513672
0.371875643730163574 -0.374217987060546875 -0.212362736463546753
0.438725531101226807 -0.348172575235366821 0.154829531908035278
0.0582609027624130249 0.121208414435386658 0.321643322706222534
-0.574625313282012939 0.368978232145309448 0.215922996401786804
0.264909029006958008 0.0244505535811185837 -0.0581885650753974915
0.369109064340591431 -0.33698272705078125 0.161101743578910828
0.510736286640167236 -0.30172353982925415 -0.111557915806770325
0.134040474891662598 -0.320751070976257324 -0.0973640233278274536
0.516791284084320068 -0.348980307579040527 -0.019822973757982254
0.389648109674453735 -0.346945405006408691 -0.213712692260742188
-0.577039361000061035 0.319225341081619263 0.041124541312456131
0.536255180835723877 -0.278000950813293457 -0.32021746039390564
0.468178898096084595 -0.311060339212417603 -0.298873752355575562
0.507415175437927246 -0.347324281930923462 0.0184060204774141312
-0.555946171283721924 0.309857457876205444 0.102619513869285583
0.194302082061767578 -0.339530467987060547 -0.0587438084185123444
0.0705209523439407349 -0.282377004623413086 -0.0774791687726974487
0.252849757671356201 -0.250483155250549316 0.320662319660186768
0.24013933539390564 0.0307244565337896347 0.317437618970870972
-0.120829068124294281 -0.0479679331183433533 0.00861608143895864487
0.17905406653881073 -0.10037270188331604 -0.0143333235755562782
0.532664954662322998 -0.332508206367492676 -0.0126945730298757553
0.370732218027114868 -0.349670112133026123 -0.208493247628211975
0.535162031650543213 -0.24606788158416748 0.177802205085754395
0.561372697353363037 -0.315949052572250366 -0.33055385947227478
0.554695546627044678 -0.211950972676277161 0.134453698992729187
-0.543339073657989502 0.380928248167037964 0.164906829595565796
0.123011425137519836 0.117014460265636444 0.133647307753562927
-0.582280337810516357 0.352081984281539917 0.0981589779257774353
-0.481538921594619751 0.18600010871887207 -0.0911365002393722534
0.515858352184295654 -0.339399844408035278 0.0393204577267169952
0.253870010375976562 -0.27940136194229126 0.322479605674743652
0.278935909271240234 -0.356162577867507935 -0.125649943947792053
0.508189380168914795 -0.286817342042922974 -0.313289374113082886
-0.432021200656890869 -0.0573233701288700104 0.117167264223098755
0.202138185501098633 0.0902834609150886536 0.223905891180038452
0.244462326169013977 0.104349114000797272 -0.0567444972693920135
-0.19560125470161438 0.201477944850921631 0.34984356164932251
0.250705480575561523 0.0246848538517951965 0.323868840932846069
0.24007067084312439 0.0187782719731330872 0.321560055017471313
-0.0312690474092960358 0.162587076425552368 0.383207499980926514
-0.482413053512573242 -0.015750247985124588 0.180647403001785278
0.484092205762863159 -0.36932063102722168 0.0465578921139240265
-0.64352184534072876 0.287236839532852173 0.086572401225566864
0.276305049657821655 -0.16605105996131897 -0.0700321793556213379
-0.411684423685073853 -0.0569985136389732361 0.079382576048374176
-0.642966032028198242 0.175769895315170288 -0.0816712751984596252
-0.225680917501449585 -0.134100407361984253 -0.0517552793025970459
0.255367010831832886 -0.265815019607543945 0.321642875671386719
-0.345198303461074829 0.0171965472400188446 -0.116460606455802917
-0.28690105676651001 -0.091703854501247406 -0.106042295694351196
-0.584983706474304199 0.209887385368347168 -0.217664539813995361
0.26803174614906311 -0.297273933887481689 0.315716356039047241
-0.0252423603087663651 -0.187483608722686768 -0.0430141575634479523
-0.618059098720550537 0.277022242546081543 0.0317715667188167572
-0.608855664730072021 0.298344224691390991 0.0928659886121749878
-0.397420614957809448 -0.06300324946641922 0.119378566741943359
-0.451585680246353149 -0.0383085161447525024 0.119963735342025757
0.431464731693267822 -0.272058874368667603 0.329747587442398071
-0.0523241497576236725 0.140638619661331177 0.092237912118434906
-0.50296705961227417 0.151086553931236267 0.355939000844955444
0.24126124382019043 -0.319557815790176392 0.323329150676727295
0.497459888458251953 -0.371141970157623291 0.0578809790313243866
0.399672061204910278 -0.257177293300628662 0.323017984628677368
-0.157978489995002747 -0.263718068599700928 0.182084709405899048
-0.499090909957885742 0.0139127867296338081 0.15855485200881958
0.417963862419128418 -0.297684937715530396 0.329290151596069336
0.53558957576751709 -0.340497195720672607 -0.0179269667714834213
0.34469527006149292 -0.267690718173980713 -0.127396136522293091
-0.496418863534927368 0.0718843340873718262 0.204467341303825378
0.444000452756881714 -0.272504121065139771 0.333978265523910522
0.52233123779296875 -0.335713088512420654 0.033323243260383606
0.453753262758255005 -0.320196241140365601 -0.292616665363311768
0.474565982818603516 -0.312010854482650757 0.117245875298976898
0.517558395862579346 -0.27870514988899231 -0.312398284673690796
0.503019750118255615 -0.326236516237258911 -0.313904255628585815
0.518418967723846436 -0.327439695596694946 0.102465525269508362
0.479689717292785645 -0.311724662780761719 -0.301754295825958252
0.114740036427974701 0.118340164422988892 0.28959009051322937
-0.121918611228466034 0.26854214072227478 0.159333541989326477
-0.614811301231384277 0.265490144491195679 0.0524818785488605499
-0.479322254657745361 0.00291439052671194077 0.181831613183021545
0.427073001861572266 -0.3553638756275177 0.159107953310012817
-0.292070120573043823 -0.110779441893100739 -0.10531008243560791
0.130743801593780518 0.0652369484305381775 0.32179298996925354
0.253974795341491699 0.038378152996301651 -0.077303566038608551
0.235693499445915222 0.0935752019286155701 -0.0525683946907520294
0.418072700500488281 -0.261866897344589233 -0.201899424195289612
0.521999359130859375 -0.354978561401367188 -0.0189488735049962997
-0.608922600746154785 0.381159812211990356 0.181666716933250427
0.517909824848175049 -0.279605329036712646 -0.314321428537368774
0.499445676803588867 -0.350335925817489624 0.0245981253683567047
-0.587888836860656738 0.369341224431991577 0.113452516496181488
0.506191015243530273 -0.105084598064422607 0.147849991917610168
-0.198052883148193359 0.311498343944549561 0.113470248878002167
0.264478504657745361 -0.28686058521270752 0.320306718349456787
0.237145259976387024 0.0618381313979625702 0.311105966567993164
-0.144279062747955322 -0.0437034070491790771 0.00468239327892661095
-0.657732546329498291 0.214683055877685547 -0.0458249486982822418
-0.28838697075843811 -0.0761621445417404175 -0.0681424438953399658
0.227483928203582764 0.0418579466640949249 -0.047648891806602478
0.551741957664489746 -0.144841000437736511 0.132603555917739868
0.520051300525665283 -0.29570615291595459 0.0754359513521194458
0.517904043197631836 -0.284381687641143799 -0.18071649968624115
-0.35793718695640564 -0.0172823537141084671 -0.0274698082357645035
0.0916372612118721008 0.0879290774464607239 0.0863163918256759644
0.467003583908081055 -0.362235158681869507 -0.0101682981476187706
-0.432876616716384888 0.157641440629959106 -0.0660327672958374023
0.524091958999633789 -0.335985302925109863 0.0694335699081420898
0.263338208198547363 -0.286229342222213745 0.31902998685836792
0.00965322181582450867 -0.0912355482578277588 -0.0256416890770196915
0.0328611321747303009 -0.130643963813781738 0.0223554596304893494
-0.630714833736419678 0.265007257461547852 0.0294301602989435196
0.242339953780174255 0.0740096569061279297 0.319375962018966675
0.240448698401451111 0.0292492695152759552 0.319450497627258301
-0.174839124083518982 0.300764918327331543 0.116850025951862335
0.304983019828796387 -0.151623278856277466 0.308338642120361328
0.262374788522720337 -0.291029691696166992 0.321514993906021118
-0.476124465465545654 -0.00834849569946527481 0.166700750589370728
0.242967113852500916 0.0814478248357772827 0.312735855579376221
0.520521581172943115 -0.351639717817306519 0.0824688449501991272
-0.0345532745122909546 -0.237843096256256104 0.124589338898658752
-0.638339877128601074 0.290016442537307739 0.0992068275809288025
-0.233998581767082214 -0.133071854710578918 -0.057541925460100174
-0.379144340753555298 -0.109014712274074554 0.106029778718948364
-0.236200228333473206 -0.148094877600669861 -0.0573907941579818726
-0.65794748067855835 0.214376449584960938 -0.0335278511047363281
0.529152929782867432 -0.352971255779266357 0.0784113556146621704
-0.621168971061706543 0.270269185304641724 0.0528756231069564819
-0.404041141271591187 -0.0645460635423660278 0.112548522651195526
-0.446242362260818481 -0.0416970662772655487 0.122471213340759277
0.268440365791320801 -0.2859230637550354 0.323990881443023682
0.128078043460845947 -0.326881051063537598 0.313090890645980835
0.152739405632019043 -0.343375533819198608 0.318363070487976074
0.44808998703956604 -0.335956096649169922 -0.292593240737915039
0.516034603118896484 -0.303301900625228882 -0.107476569712162018
0.515533030033111572 -0.280577152967453003 -0.312417179346084595
0.485200822353363037 -0.328005671501159668 -0.309388041496276855
0.464697182178497314 -0.346218019723892212 -0.302267223596572876
0.549848675727844238 -0.210540980100631714 -0.315558731555938721
0.524397194385528564 -0.300361067056655884 -0.322071969509124756
0.518267333507537842 -0.301173478364944458 -0.31796795129776001
0.247072786092758179 0.056724943220615387 0.316966265439987183
0.241531431674957275 0.087202899158000946 0.313304305076599121
-0.291523665189743042 -0.100780881941318512 -0.101429656147956848
-0.45349419116973877 -0.0521784387528896332 0.117560788989067078
0.40514567494392395 -0.272598236799240112 0.323061823844909668
-0.502345621585845947 0.00360756972804665565 0.189603164792060852
0.401446044445037842 -0.287575721740722656 0.325375229120254517
0.399590045213699341 -0.273893028497695923 0.323855936527252197
0.342583686113357544 -0.259294331073760986 0.0906149223446846008
-0.0184478741139173508 -0.244638055562973022 0.129162415862083435
-0.464461177587509155 0.0358166657388210297 0.190043717622756958
-0.19439755380153656 0.221462428569793701 0.17260877788066864
0.367210924625396729 -0.329599708318710327 -0.0230378825217485428
0.323828339576721191 -0.390414416790008545 -0.158457934856414795
0.53567880392074585 -0.323954224586486816 -0.0577287487685680389
-0.441701650619506836 -0.00491434428840875626 0.15319293737411499
-0.0188988801091909409 -0.0597738176584243774 0.142252698540687561
0.000104060236481018364 -0.236375808715820312 0.106880582869052887
0.526431858539581299 -0.202130869030952454 -0.0795306786894798279
0.450140476226806641 -0.308640331029891968 -0.292472988367080688
0.52711719274520874 -0.27573511004447937 -0.315267890691757202
0.500217020511627197 -0.32518690824508667 -0.312273800373077393
0.475541651248931885 -0.305353879928588867 -0.296988010406494141
-0.12746979296207428 0.246495693922042847 0.139513060450553894
-0.649042844772338867 0.282044768333435059 0.0945769026875495911
-0.198953330516815186 0.286569178104400635 0.336465895175933838
0.498166859149932861 -0.0871010124683380127 0.137215837836265564
0.201172217726707458 -0.359451770782470703 -0.0903741493821144104
