ply
format ascii 1.0
element vertex 738
property float x
property float y
property float z
end_header
-0.502249836921691895 0.233572438359260559 -0.0709721073508262634
-0.54730457067489624 0.203315824270248413 -0.0683747380971908569
0.0888112336397171021 0.0916267186403274536 0.0801003128290176392
-0.519935488700866699 0.204418495297431946 -0.0470348522067070007
-0.168185919523239136 0.0722432360053062439 0.23254673182964325
-0.0572227463126182556 -0.187116175889968872 0.0268594101071357727
-0.212488889694213867 0.290712177753448486 0.109211884438991547
0.249930500984191895 -0.00547157274559140205 0.0224514752626419067
-0.555839121341705322 0.204225122928619385 0.118446908891201019
-0.457376033067703247 0.216305717825889587 0.0246476717293262482
-0.462684750556945801 0.266376644372940063 -0.00259746750816702843
-0.575501382350921631 0.247487381100654602 -0.0762889385223388672
-0.389418333768844604 0.275042444467544556 -0.0839893966913223267
0.344079762697219849 -0.134756386280059814 0.318931698799133301
-0.498655378818511963 0.20670066773891449 -0.011487952433526516
-0.346039235591888428 0.292757987976074219 -0.0500112809240818024
0.526278793811798096 -0.361244738101959229 0.0418403558433055878
-0.54001230001449585 0.214992344379425049 0.201148197054862976
-0.569370567798614502 0.29429161548614502 -0.00299490801990032196
0.316916465759277344 0.0236990191042423248 0.048868965357542038
0.482236593961715698 -0.307166934013366699 -0.303620427846908569
0.480011165142059326 -0.326481014490127563 0.125442206859588623
0.523469388484954834 -0.307176113128662109 -0.0986507460474967957
0.490587830543518066 -0.31093442440032959 -0.307381272315979004
0.51652979850769043 -0.325202882289886475 0.119907625019550323
0.444765388965606689 -0.300365179777145386 -0.290603905916213989
0.523487269878387451 -0.304726332426071167 -0.097313515841960907
0.134483322501182556 0.11630634218454361 0.337137490510940552
-0.642463862895965576 0.242481157183647156 -0.00930226966738700867
-0.292647570371627808 -0.114194273948669434 -0.105631157755851746
0.539555788040161133 -0.255633831024169922 0.0922619625926017761
0.129341349005699158 0.0975068211555480957 0.317410737276077271
-0.235225364565849304 -0.143858805298805237 -0.0712972357869148254
0.252713233232498169 0.0300050172954797745 -0.0858419761061668396
0.531256616115570068 -0.323319494724273682 0.00689032254740595818
-0.599437117576599121 0.307247281074523926 0.104610078036785126
0.532411873340606689 -0.244803309440612793 0.0866139382123947144
-0.374112576246261597 -0.0611230321228504181 0.0923861712217330933
0.526833117008209229 -0.275479823350906372 -0.123193889856338501
-0.50125432014465332 0.148552000522613525 0.353100806474685669
0.385467052459716797 -0.297814846038818359 0.131898701190948486
0.132897228002548218 -0.332291990518569946 -0.100406043231487274
0.523045122623443604 -0.355053573846817017 -0.0148744573816657066
-0.436549633741378784 0.150338679552078247 -0.0848894491791725159
0.516073524951934814 -0.300276875495910645 0.0647689923644065857
0.393318593502044678 -0.368089824914932251 -0.213639482855796814
0.500855565071105957 -0.171576857566833496 0.130111485719680786
0.533528745174407959 -0.334190338850021362 0.0284497905522584915
-0.580017626285552979 0.348773539066314697 0.0404362007975578308
0.52019202709197998 -0.241066023707389832 -0.308669120073318481
-0.601118385791778564 0.370552510023117065 0.104787662625312805
-0.500755727291107178 0.146922692656517029 0.355305075645446777
0.234208643436431885 -0.27804487943649292 0.317417770624160767
-0.181327983736991882 -0.13734811544418335 -0.0555737800896167755
-0.228382006287574768 -0.138312727212905884 -0.0534649081528186798
-0.20429016649723053 0.298317670822143555 0.126793399453163147
0.262774467468261719 -0.289846688508987427 0.323713749647140503
-0.362336069345474243 -0.0308046601712703705 0.11960466206073761
-0.500191330909729004 0.019173918291926384 0.0319628827273845673
0.243149071931838989 3.39727448590565473e-05 0.322343409061431885
0.141537919640541077 -0.290660440921783447 0.311748087406158447
0.308382928371429443 -0.20768854022026062 0.248246192932128906
-0.386212557554244995 0.254749804735183716 0.0344557017087936401
0.531427145004272461 -0.26242530345916748 0.102988913655281067
0.224359050393104553 0.0226784348487854004 0.30550074577331543
0.530811905860900879 -0.147487431764602661 -0.308186858892440796
-0.644974470138549805 0.231262058019638062 -0.0473390556871891022
0.54155266284942627 -0.311114370822906494 -0.0443907007575035095
0.50802534818649292 -0.267898261547088623 -0.311451762914657593
0.514508545398712158 -0.316261321306228638 -0.295044243335723877
0.459061324596405029 -0.291039347648620605 -0.296536475419998169
-0.543226778507232666 0.268077313899993896 -0.189181387424468994
-0.621539413928985596 0.28888276219367981 0.0667923986911773682
0.36368522047996521 -0.38443148136138916 -0.206055834889411926
-0.0924077481031417847 0.267202436923980713 0.189397230744361877
-0.448556184768676758 0.131159424781799316 -0.208680301904678345
-0.5755576491355896 0.203677579760551453 -0.126939326524734497
-0.630178093910217285 0.191596239805221558 -0.0397741571068763733
-0.469865322113037109 0.138813942670822144 -0.230980813503265381
0.257940024137496948 -0.0171030163764953613 -0.0720424801111221313
0.230801060795783997 0.0538636185228824615 -0.0451108552515506744
0.113288648426532745 0.109708540141582489 0.301674336194992065
-0.584223508834838867 0.218314617872238159 -0.221293836832046509
-0.59832531213760376 0.235141769051551819 -0.0106506766751408577
-0.367071926593780518 -0.0920049995183944702 0.122851066291332245
-0.330049961805343628 -0.125643134117126465 0.137294545769691467
-0.634708523750305176 0.199518829584121704 -0.0381891503930091858
-0.425762265920639038 -0.0551634877920150757 0.0992626547813415527
-0.478171885013580322 0.0199341289699077606 -0.0364819355309009552
0.208936035633087158 0.00853867549449205399 0.30087694525718689
-0.634294211864471436 0.248011678457260132 -0.00587462028488516808
-0.128002926707267761 0.269861340522766113 0.132283374667167664
0.271331518888473511 -0.330456763505935669 0.180132001638412476
0.533316910266876221 -0.210213690996170044 -0.0988173037767410278
-0.126441210508346558 -0.112883739173412323 -0.0547934360802173615
0.454355210065841675 -0.339019536972045898 -0.298057526350021362
-0.212635859847068787 0.0360839851200580597 -0.0596486106514930725
-0.553305327892303467 0.175665095448493958 0.0128931095823645592
-0.198540762066841125 0.139548301696777344 0.0211788788437843323
-0.0124552873894572258 -0.102698095142841339 -0.0429498814046382904
0.265012413263320923 -0.275049358606338501 0.202478975057601929
0.348955214023590088 -0.321239858865737915 -8.26712266643880866e-07
-0.155930280685424805 0.0696825757622718811 0.0275557059794664383
-0.249254599213600159 0.130700036883354187 -0.0343927182257175446
0.199398890137672424 0.00165455334354192019 0.0191045086830854416
0.0765481442213058472 0.0808507725596427917 0.0239683371037244797
-0.283541709184646606 0.288281828165054321 -0.00585481384769082069
0.477138996124267578 -0.289923876523971558 -0.30169755220413208
-0.557010889053344727 0.265710055828094482 -0.0171342380344867706
-0.23743458092212677 0.0975280627608299255 -0.0324148349463939667
0.138051718473434448 -0.281043499708175659 0.15007174015045166
0.296648323535919189 -0.297522544860839844 0.0569486059248447418
-0.286125391721725464 0.257238179445266724 0.000617398472968488932
-0.0209556873887777328 -0.0404846817255020142 0.0889945030212402344
0.204785570502281189 0.042769990861415863 0.0657318010926246643
-0.143704071640968323 -0.0853789970278739929 0.0917094424366950989
0.372831106185913086 -0.0733775272965431213 0.0315947607159614563
0.521620035171508789 -0.199147745966911316 -0.0985089465975761414
0.487277507781982422 -0.297923773527145386 -0.305354416370391846
0.48073655366897583 -0.314937949180603027 0.122338339686393738
0.513846039772033691 -0.30728873610496521 -0.10239989310503006
0.496195554733276367 -0.309556096792221069 -0.309722602367401123
0.506433844566345215 -0.32793116569519043 -0.00411111442372202873
0.512031376361846924 -0.32463914155960083 0.118371143937110901
0.466069936752319336 -0.288826644420623779 -0.296551704406738281
0.438203036785125732 -0.263515681028366089 -0.194282591342926025
0.135291367769241333 0.116954304277896881 0.337053447961807251
0.396824866533279419 -0.244395062327384949 0.318785041570663452
-0.601786971092224121 0.35431256890296936 0.0656747147440910339
-0.505392789840698242 0.357190430164337158 0.1784096360206604
0.542930841445922852 -0.282597541809082031 0.0979314297437667847
0.256662696599960327 0.0369711406528949738 -0.0720417946577072144
-0.233252197504043579 0.155915528535842896 -0.0052468576468527317
0.506423890590667725 -0.332099825143814087 -0.00253368052653968334
0.444998621940612793 -0.250094503164291382 -0.228004410862922668
-0.639301002025604248 0.254494756460189819 0.0546775832772254944
0.53290480375289917 -0.262760668992996216 0.0932480320334434509
-0.393296778202056885 -0.0594946518540382385 0.100445881485939026
0.524152457714080811 -0.289746373891830444 -0.092096179723739624
0.0280707571655511856 -0.274419546127319336 -0.0353361219167709351
0.385432809591293335 -0.306154489517211914 0.11882387101650238
-0.582475662231445312 0.366854190826416016 0.131841003894805908
0.240466684103012085 0.00296567846089601517 0.181138738989830017
-0.113079637289047241 0.165478736162185669 0.347528904676437378
0.482436954975128174 -0.368482679128646851 -0.022054256871342659
0.412424385547637939 -0.321276187896728516 -0.211023926734924316
0.507580995559692383 -0.155531913042068481 0.124026797711849213
0.52907717227935791 -0.334824740886688232 0.0128220533952116966
-0.584416210651397705 0.336450368165969849 0.0342585891485214233
-0.591050386428833008 0.381959050893783569 0.13140377402305603
0.526484131813049316 -0.244425341486930847 -0.310644537210464478
0.474610000848770142 -0.290846496820449829 -0.299449056386947632
-0.597517073154449463 0.353725701570510864 0.169786795973777771
-0.587643325328826904 0.371498167514801025 0.101254686713218689
-0.21219150722026825 -0.129815146327018738 -0.0576912686228752136
0.234537124633789062 -0.293144375085830688 0.314986228942871094
0.238266140222549438 0.0672034546732902527 0.320096254348754883
0.54210352897644043 -0.313954174518585205 -0.0581123977899551392
-0.444908171892166138 -0.0486144497990608215 0.127097234129905701
0.35971948504447937 -0.388510346412658691 -0.209001913666725159
-0.556837677955627441 0.211141839623451233 -0.1135130375623703
0.521034538745880127 -0.27964705228805542 -0.177112728357315063
0.242126092314720154 0.034831613302230835 0.314572572708129883
0.242986112833023071 0.000515125866513699293 0.0236809160560369492
0.380951911211013794 0.0390089713037014008 0.0119355581700801849
0.526957035064697266 -0.230717182159423828 -0.310150384902954102
0.3272361159324646 0.0963875576853752136 -0.035867154598236084
-0.374451547861099243 -0.0604984760284423828 -0.13286609947681427
0.51320493221282959 -0.167537987232208252 0.135919719934463501
-0.57478797435760498 0.322043150663375854 0.0496181696653366089
-0.559319734573364258 0.283431947231292725 0.364188343286514282
0.224627375602722168 0.0320563651621341705 -0.0581673458218574524
-0.57461017370223999 0.214628100395202637 -0.220931351184844971
-0.0442976802587509155 0.156628653407096863 0.0812284871935844421
0.114216223359107971 0.110161900520324707 0.0254740901291370392
0.34295085072517395 -0.247069418430328369 -0.0968733802437782288
-0.285321325063705444 0.300488650798797607 -0.0027485736645758152
0.153453439474105835 -0.00433506490662693977 -0.00355597888119518757
0.0691522210836410522 0.138936743140220642 0.0756828784942626953
-0.270300835371017456 0.28023114800453186 0.00177114142570644617
0.503576576709747314 -0.292703151702880859 -0.159351125359535217
0.137108162045478821 -0.0257870443165302277 0.0131256673485040665
-0.33924257755279541 -0.0321881808340549469 0.022820761427283287
0.373645663261413574 -0.0917849540710449219 0.0443059913814067841
0.200126677751541138 0.101404719054698944 -0.00178156874608248472
-0.297466874122619629 -0.0252058412879705429 0.0359511114656925201
0.131900966167449951 -0.0177771821618080139 -0.0260794442147016525
0.101520471274852753 0.0160912107676267624 0.0912305489182472229
0.175849735736846924 0.11951051652431488 0.0380633622407913208
-0.230662211775779724 -0.063847370445728302 0.10465424507856369
0.486262768507003784 -0.29678681492805481 -0.303582608699798584
-0.603480398654937744 0.289510518312454224 0.185220286250114441
0.467459321022033691 -0.308815568685531616 0.12009536474943161
0.378521442413330078 -0.0143302874639630318 0.00641432637348771095
0.514596819877624512 -0.295418351888656616 -0.10349205881357193
0.519025444984436035 -0.239813685417175293 -0.30765068531036377
0.478095203638076782 -0.309858411550521851 -0.300336509943008423
0.483571350574493408 -0.274630516767501831 -0.299964100122451782
0.117338754236698151 0.118840977549552917 0.297621160745620728
-0.58449321985244751 0.356378704309463501 0.0658936500549316406
0.383975833654403687 -0.337453931570053101 0.125515103340148926
-0.574767172336578369 0.31771281361579895 -0.0264587104320526123
-0.604720354080200195 0.217109978199005127 -0.0868090987205505371
0.267936348915100098 0.0393756143748760223 -0.08623553067445755
-0.356627225875854492 -0.0223748963326215744 -0.131152629852294922
-0.564576447010040283 0.314340114593505859 -0.00782043114304542542
0.190789148211479187 -0.341030895709991455 -0.0747956037521362305
0.404341667890548706 -0.357777833938598633 -0.224077776074409485
-0.500504136085510254 0.1455058753490448 0.354648590087890625
0.509883224964141846 -0.151490584015846252 0.114998988807201385
0.497031956911087036 -0.264031052589416504 -0.304446280002593994
0.458154052495956421 -0.280998110771179199 -0.289799481630325317
0.441113471984863281 -0.265073597431182861 -0.283753126859664917
-0.58830946683883667 0.357483804225921631 0.061808951199054718
0.505490660667419434 -0.126794949173927307 0.124420009553432465
-0.206394553184509277 0.31248849630355835 0.108782045543193817
0.268367141485214233 -0.284156233072280884 0.319173187017440796
0.232742443680763245 0.00357139040715992451 0.317867517471313477
0.513446629047393799 -0.175723597407341003 -0.281803131103515625
-0.115295983850955963 0.00979095511138439178 0.00589246535673737526
0.40407291054725647 -0.359807223081588745 -0.224701195955276489
0.417866438627243042 -0.31337273120880127 0.143773600459098816
-0.555806457996368408 0.376506775617599487 0.18684367835521698
-0.175786912441253662 0.309163868427276611 0.118458472192287445
-0.390015393495559692 0.276014745235443115 -0.0849901512265205383
0.365513801574707031 0.05194898322224617 0.0246411431580781937
0.129315465688705444 0.115740559995174408 0.318850457668304443
-0.286708831787109375 -0.10087130218744278 -0.0920844897627830505
0.258323967456817627 0.101037293672561646 -0.061999000608921051
-0.361461788415908813 -0.0600546486675739288 -0.144130557775497437
0.134268760681152344 0.113703519105911255 0.337796479463577271
-0.563377022743225098 0.199274405837059021 -0.228914737701416016
-0.276647031307220459 0.288008809089660645 -0.000854694517329335213
0.455069988965988159 -0.246553584933280945 -0.288341432809829712
0.460417866706848145 -0.275526881217956543 -0.290866762399673462
-0.635133147239685059 0.308148682117462158 0.170436859130859375
0.51273423433303833 -0.317590892314910889 -0.0385829955339431763
0.469121247529983521 -0.265919387340545654 -0.297996431589126587
0.478335559368133545 -0.295148015022277832 -0.300274461507797241
0.45832708477973938 -0.246336579322814941 -0.289913296699523926
0.381308943033218384 -0.361148953437805176 -0.213889136910438538
-0.479636579751968384 -0.0127617334946990013 0.185846641659736633
-0.516765058040618896 0.365768551826477051 0.174113944172859192
-0.618798315525054932 0.201994776725769043 -0.0870719924569129944
-0.23744530975818634 0.0186614226549863815 -0.0725484490394592285
-0.38276633620262146 -0.0592769905924797058 0.0237072203308343887
0.475127816200256348 -0.368477225303649902 0.0218179542571306229
-0.649516046047210693 0.236729651689529419 0.0323094949126243591
0.412770658731460571 -0.346871107816696167 -0.221674755215644836
0.526335835456848145 -0.337265878915786743 0.0800737142562866211
0.506218969821929932 -0.239116236567497253 -0.308111220598220825
0.249713689088821411 -0.282346278429031372 0.318227797746658325
0.239422112703323364 0.0666336491703987122 0.314641267061233521
0.539814293384552002 -0.301947742700576782 -0.0936730951070785522
-0.448064893484115601 -0.0416126027703285217 0.126530736684799194
-0.0438533388078212738 0.104438811540603638 0.317785441875457764
0.248182743787765503 0.0210713930428028107 0.32220083475112915
-0.285031020641326904 -0.100001752376556396 -0.0991014540195465088
-0.137834995985031128 -0.0152405919507145882 -0.0488232895731925964
-0.278085500001907349 0.337886393070220947 0.0470442585647106171
-0.254909634590148926 0.289913296699523926 -0.00319023849442601204
-0.219070643186569214 0.321913570165634155 0.0698858946561813354
-0.573498785495758057 0.152187809348106384 -0.0744076371192932129
-0.290169209241867065 0.292708545923233032 0.0160901378840208054
0.525899648666381836 -0.320773959159851074 0.0271840076893568039
0.346358776092529297 -0.0304476767778396606 -0.0344572514295578003
0.522519290447235107 -0.363037317991256714 0.0894094929099082947
-0.0833255648612976074 -0.112019136548042297 0.07844582200050354
-0.404233068227767944 0.326034814119338989 0.121277749538421631
0.50501716136932373 -0.367203831672668457 -0.00447848299518227577
-0.118772678077220917 0.26611599326133728 0.120971843600273132
0.518993258476257324 -0.343075275421142578 0.0358546897768974304
0.13037446141242981 -0.334850907325744629 0.301212906837463379
0.466903805732727051 -0.311163634061813354 0.0724737197160720825
0.483131647109985352 -0.374136000871658325 0.0523399673402309418
0.421382367610931396 -0.0259902980178594589 0.0648827329277992249
0.494409412145614624 -0.363664001226425171 -0.0155276181176304817
-0.2331257164478302 0.287160098552703857 0.0841688588261604309
0.531485557556152344 -0.331875652074813843 -0.00721912924200296402
-0.272147208452224731 0.315408200025558472 0.114000037312507629
0.308502107858657837 0.0026491689495742321 0.0463182702660560608
0.467603355646133423 -0.263526946306228638 -0.296067625284194946
0.474107980728149414 -0.30443534255027771 0.114249035716056824
0.511415421962738037 -0.313754796981811523 -0.104388654232025146
0.509367525577545166 -0.245466485619544983 -0.308430403470993042
0.448126912117004395 -0.292634785175323486 -0.292756766080856323
0.46657225489616394 -0.283394813537597656 -0.297275453805923462
0.138504475355148315 0.112823322415351868 0.336737006902694702
-0.652362465858459473 0.285732507705688477 0.098094061017036438
-0.638552188873291016 0.244817212224006653 -0.0380956605076789856
0.136480346322059631 0.0692851841449737549 0.337854623794555664
-0.577363491058349609 0.303831100463867188 -0.0554519817233085632
0.262713611125946045 0.0305466931313276291 -0.0734467208385467529
0.542251527309417725 -0.216790124773979187 0.1115751713514328
-0.360257714986801147 -0.0360253453254699707 -0.13433307409286499
-0.575010061264038086 0.327523261308670044 -0.0294646956026554108
-0.361944973468780518 -0.0712202787399291992 -0.0340021625161170959
-0.130617439746856689 -0.26791730523109436 0.11903005838394165
0.495385497808456421 -0.365959733724594116 -0.000363194412784650922
0.373999595642089844 -0.359548479318618774 -0.210055306553840637
-0.378539741039276123 -0.107215836644172668 0.101280413568019867
-0.0671229436993598938 -0.264299720525741577 0.29642447829246521
0.520048916339874268 -0.243417739868164062 -0.309450298547744751
0.509722769260406494 -0.330682605504989624 0.0152782062068581581
-0.593620896339416504 0.369029074907302856 0.120662957429885864
-0.655593276023864746 0.175632715225219727 -0.102903641760349274
-0.223137244582176208 -0.144465252757072449 -0.0537722259759902954
-0.191378429532051086 0.316676139831542969 0.100738093256950378
0.25682029128074646 -0.283634275197982788 0.319662481546401978
0.239388555288314819 0.0322598405182361603 0.319108337163925171
-0.120170757174491882 -0.0462792031466960907 0.00727576110512018204
-0.641809284687042236 0.308668941259384155 0.101951278746128082
0.364883452653884888 -0.37409934401512146 -0.206970095634460449
0.538036465644836426 -0.217808663845062256 0.161859795451164246
-0.553015351295471191 0.382508724927902222 0.158042415976524353
-0.122558705508708954 0.259329289197921753 0.115104891359806061
0.119601964950561523 0.102504417300224304 0.0894353911280632019
-0.375677913427352905 0.265855073928833008 -0.0895322412252426147
0.51715463399887085 -0.349182933568954468 0.0987752825021743774
-0.293683767318725586 -0.107468202710151672 -0.109342329204082489
0.275247573852539062 0.103098616003990173 -0.0576371625065803528
-0.575344979763031006 0.219538956880569458 -0.212524756789207458
-0.115594871342182159 0.268611520528793335 0.17977885901927948
0.236163243651390076 -0.288126558065414429 0.314346432685852051
0.310378223657608032 -0.187411263585090637 0.241009443998336792
0.542014479637145996 -0.32595786452293396 -0.0209167934954166412
0.0790246129035949707 -0.337974637746810913 0.282156616449356079
-0.00639004306867718697 -0.172098919749259949 0.00420027505606412888
-0.282447308301925659 0.261745870113372803 0.00705566816031932831
0.513301372528076172 -0.237186267971992493 -0.309445887804031372
-0.647165298461914062 0.278281062841415405 0.0796250700950622559
-0.646527647972106934 0.183148026466369629 -0.0907548218965530396
0.514361679553985596 -0.322638839483261108 0.0242891237139701843
-0.40711250901222229 -0.0638941451907157898 0.11348908394575119
0.517068147659301758 -0.355838000774383545 -0.0206210985779762268
-0.566827297210693359 0.374380350112915039 0.152550473809242249
0.23614366352558136 0.0430767051875591278 0.313656777143478394
-0.665034472942352295 0.227122724056243896 0.023196052759885788
-0.448273718357086182 -0.0387124344706535339 0.127039894461631775
0.503211021423339844 -0.302388399839401245 -0.178880080580711365
-0.589369118213653564 0.361091345548629761 0.0861711129546165466
-0.194221749901771545 0.314948379993438721 0.104854904115200043
0.247166097164154053 0.0239762980490922928 0.323794841766357422
0.531153857707977295 -0.323922127485275269 -0.0580818913877010345
-0.182960093021392822 0.307045489549636841 0.12846316397190094
0.247411161661148071 0.00704215560108423233 0.323925018310546875
0.0587428174912929535 0.139686554670333862 0.345683455467224121
-0.505929768085479736 0.149309903383255005 0.356851190328598022
0.270880699157714844 -0.311386644840240479 0.326207548379898071
-0.25388452410697937 0.0233981404453516006 -0.0707599371671676636
0.241213142871856689 -0.295438975095748901 0.322449296712875366
0.249203473329544067 0.0438682176172733307 0.314386576414108276
0.468658626079559326 -0.101950332522392273 0.0346114411950111389
-0.124813355505466461 0.19510217010974884 0.11536792665719986
0.24010111391544342 -0.326773732900619507 0.317900180816650391
0.500504255294799805 -0.366733789443969727 0.0746493563055992126
0.523691892623901367 -0.324842900037765503 0.0262075494974851608
0.444858044385910034 -0.253341853618621826 0.332338899374008179
0.321709543466567993 -0.131489366292953491 -0.106684409081935883
0.0634401217103004456 -0.0108170518651604652 0.321625113487243652
0.511552274227142334 -0.361031323671340942 0.0475107431411743164
0.13582591712474823 -0.100788451731204987 0.040478784590959549
0.049626477062702179 0.0114983962848782539 0.0296680126339197159
0.0208652801811695099 0.0481979697942733765 0.0425332114100456238
0.0882262587547302246 -0.0661624372005462646 0.289563179016113281
-0.162176951766014099 -0.266009032726287842 0.147920966148376465
0.265199512243270874 -0.0201438292860984802 0.0615161433815956116
-0.0289094038307666779 -0.0291451979428529739 0.29547688364982605
0.502372205257415771 -0.240433543920516968 -0.30202949047088623
0.476130485534667969 -0.315093010663986206 -0.301971346139907837
-0.631113350391387939 0.306297808885574341 0.167420923709869385
0.475743472576141357 -0.320956677198410034 0.121012486517429352
0.509328246116638184 -0.300976574420928955 -0.105551153421401978
0.528414011001586914 -0.275024384260177612 -0.317210614681243896
0.493738472461700439 -0.332563817501068115 -0.310723990201950073
0.503788650035858154 -0.320274651050567627 0.0980086997151374817
0.474381387233734131 -0.30592423677444458 -0.298123955726623535
-0.559550285339355469 0.268073797225952148 0.364511311054229736
0.125176981091499329 0.116870470345020294 0.31415131688117981
-0.633758127689361572 0.282250255346298218 0.0543646141886711121
-0.587557971477508545 0.362844675779342651 0.102505192160606384
0.371721714735031128 -0.374249756336212158 -0.212746739387512207
0.438727974891662598 -0.34814491868019104 0.154335498809814453
0.0582312047481536865 0.121301054954528809 0.321058899164199829
-0.574779629707336426 0.368849635124206543 0.215591073036193848
0.264975190162658691 0.0246511604636907578 -0.058651365339756012
0.369058787822723389 -0.336967885494232178 0.16060955822467804
0.510769307613372803 -0.301696211099624634 -0.11199980229139328
0.133789882063865662 -0.320909112691879272 -0.0978266596794128418
0.516847729682922363 -0.348960787057876587 -0.0202780552208423615
0.389517992734909058 -0.346964508295059204 -0.214104905724525452
-0.577211737632751465 0.319104969501495361 0.0408769585192203522
0.536230087280273438 -0.277995854616165161 -0.32061496376991272
0.468089491128921509 -0.311062812805175781 -0.299260377883911133
0.507476508617401123 -0.347300171852111816 0.0179420970380306244
-0.556100606918334961 0.309735894203186035 0.102318957448005676
0.194102436304092407 -0.339645117521286011 -0.0592037439346313477
0.0702485516667366028 -0.282563984394073486 -0.0779580101370811462
0.252693682909011841 -0.250476181507110596 0.320127129554748535
0.240183517336845398 0.0309016760438680649 0.316886335611343384
-0.1210322305560112 -0.0480797365307807922 0.00812975410372018814
0.178991064429283142 -0.100327171385288239 -0.0148234376683831215
0.532745897769927979 -0.332482278347015381 -0.0131580391898751259
0.370589584112167358 -0.349696069955825806 -0.208885908126831055
0.535287737846374512 -0.245984748005867004 0.177272886037826538
0.561353027820587158 -0.315961927175521851 -0.330948233604431152
0.554867804050445557 -0.211851760745048523 0.133927240967750549
-0.543479204177856445 0.380807340145111084 0.164578437805175781
0.123102732002735138 0.117167115211486816 0.1331072598695755
-0.582437336444854736 0.351960182189941406 0.0978945717215538025
-0.481754541397094727 0.1858673095703125 -0.0914540886878967285
0.515935301780700684 -0.339371353387832642 0.038847457617521286
0.253699570894241333 -0.279408901929855347 0.321946650743484497
0.278763830661773682 -0.356230646371841431 -0.126073241233825684
0.508137762546539307 -0.286812514066696167 -0.313682883977890015
-0.432254284620285034 -0.057567402720451355 0.116717137396335602
0.20224839448928833 0.0904690027236938477 0.223350852727890015
0.24457453191280365 0.104585550725460052 -0.0572092421352863312
-0.195771455764770508 0.201452910900115967 0.349268496036529541
0.250750154256820679 0.0248655211180448532 0.323319703340530396
0.240102261304855347 0.0189498178660869598 0.321009725332260132
-0.0313627868890762329 0.162640869617462158 0.382615566253662109
-0.482629895210266113 -0.0159738808870315552 0.180201828479766846
0.484129995107650757 -0.369302541017532349 0.0460942313075065613
-0.643688738346099854 0.287098973989486694 0.0863405615091323853
0.276237577199935913 -0.166005939245223999 -0.0704925060272216797
-0.411916434764862061 -0.0572409816086292267 0.0789342895150184631
-0.64318537712097168 0.175606191158294678 -0.0818474814295768738
-0.225979074835777283 -0.134352162480354309 -0.0522297322750091553
0.255204707384109497 -0.265814483165740967 0.321109086275100708
-0.34544295072555542 0.0170132443308830261 -0.116879068315029144
-0.287207543849945068 -0.0919676274061203003 -0.106508709490299225
-0.585241258144378662 0.209745198488235474 -0.217829704284667969
0.267865866422653198 -0.297281414270401001 0.3151874840259552
-0.0255056936293840408 -0.18766552209854126 -0.043500557541847229
-0.618241429328918457 0.276888281106948853 0.0315448716282844543
-0.609020709991455078 0.298213064670562744 0.0926038399338722229
-0.397653788328170776 -0.0632455572485923767 0.118907392024993896
-0.451810777187347412 -0.0385416038334369659 0.119525358080863953
0.431432753801345825 -0.271981745958328247 0.329213112592697144
-0.0523480735719203949 0.140683472156524658 0.0917195379734039307
-0.503196001052856445 0.150934591889381409 0.355466693639755249
0.241062954068183899 -0.319594055414199829 0.322798341512680054
0.497510910034179688 -0.371123522520065308 0.0574122779071331024
0.399623781442642212 -0.25709909200668335 0.322487473487854004
-0.158328726887702942 -0.263986647129058838 0.181554362177848816
-0.499300897121429443 0.0137028563767671585 0.158136293292045593
0.41790810227394104 -0.297622978687286377 0.328760445117950439
0.535667836666107178 -0.340474963188171387 -0.0183877050876617432
0.34460034966468811 -0.267684757709503174 -0.127827763557434082
-0.496616333723068237 0.0716989636421203613 0.204031586647033691
0.44397696852684021 -0.272425085306167603 0.333441287279129028
0.522414445877075195 -0.33568379282951355 0.0328500643372535706
0.453650772571563721 -0.32020220160484314 -0.293001443147659302
0.474626123905181885 -0.311966001987457275 0.116751700639724731
0.517518699169158936 -0.278697162866592407 -0.31279444694519043
0.502949237823486328 -0.326245725154876709 -0.314290672540664673
0.518510341644287109 -0.327401876449584961 0.101971574127674103
0.479608893394470215 -0.311727195978164673 -0.302141755819320679
0.114769488573074341 0.1184697225689888 0.289010435342788696
-0.121912375092506409 0.268554419279098511 0.158799514174461365
-0.614989101886749268 0.26535344123840332 0.052237633615732193
-0.479520559310913086 0.00270195771008729935 0.181377649307250977
0.427061378955841064 -0.355340808629989624 0.158615455031394958
-0.292379587888717651 -0.111054681241512299 -0.105767637491226196
0.130725830793380737 0.065357401967048645 0.321219116449356079
0.254033356904983521 0.0385796278715133667 -0.0777621343731880188
0.235794812440872192 0.0938000530004501343 -0.0530360713601112366
0.418002486228942871 -0.261841684579849243 -0.20231233537197113
0.522058427333831787 -0.354961365461349487 -0.0194036290049552917
-0.609073519706726074 0.381031036376953125 0.181372970342636108
0.517869234085083008 -0.2795981764793396 -0.314717143774032593
0.499500274658203125 -0.350312292575836182 0.024134468287229538
-0.588042020797729492 0.369218975305557251 0.113188356161117554
0.506385147571563721 -0.104904487729072571 0.147322088479995728
-0.198083803057670593 0.311479270458221436 0.112971395254135132
0.264313250780105591 -0.286864787340164185 0.319776058197021484
0.237218409776687622 0.06202688068151474 0.310551255941390991
-0.1444893479347229 -0.0438259616494178772 0.00419672252610325813
-0.657941222190856934 0.214528828859329224 -0.0460099801421165466
-0.288664907217025757 -0.0763991624116897583 -0.0686032623052597046
0.227544441819190979 0.0420457608997821808 -0.0481201298534870148
0.551951229572296143 -0.144692808389663696 0.13207399845123291
0.520159065723419189 -0.295656353235244751 0.074943147599697113
0.517922103404998779 -0.284354835748672485 -0.181144058704376221
-0.358168840408325195 -0.0174876097589731216 -0.0279104951769113541
0.0916987136006355286 0.0880647078156471252 0.0857854858040809631
0.467016845941543579 -0.362218409776687622 -0.0106141911819577217
-0.433077752590179443 0.157508239150047302 -0.0663917437195777893
0.524183332920074463 -0.335953503847122192 0.0689498782157897949
0.263172775506973267 -0.286234140396118164 0.318499207496643066
0.00947098061442375183 -0.0913091674447059631 -0.0261214282363653183
0.0326792225241661072 -0.130729392170906067 0.0218554828315973282
-0.630899608135223389 0.264868676662445068 0.0292087793350219727
0.242425590753555298 0.074205935001373291 0.318820476531982422
0.240491017699241638 0.0294259246438741684 0.318899363279342651
-0.174856424331665039 0.300757080316543579 0.116344206035137177
0.304930508136749268 -0.151526495814323425 0.307805120944976807
0.262205690145492554 -0.29103735089302063 0.320984363555908203
-0.476338416337966919 -0.00856685079634189606 0.166258633136749268
0.243062704801559448 0.0816478356719017029 0.312180131673812866
0.520604908466339111 -0.351613014936447144 0.0819851905107498169
-0.0348348617553710938 -0.238038957118988037 0.124063171446323395
-0.638505339622497559 0.289878934621810913 0.0989631041884422302
-0.234298586845397949 -0.13332761824131012 -0.0580140687525272369
-0.37938806414604187 -0.109295502305030823 0.105547711253166199
-0.236507788300514221 -0.148363903164863586 -0.0578627735376358032
-0.658152997493743896 0.214222118258476257 -0.0337173566222190857
0.529243528842926025 -0.352945804595947266 0.0779278874397277832
-0.621346652507781982 0.270132392644882202 0.0526361428201198578
-0.404274791479110718 -0.0647913813591003418 0.11208314448595047
-0.446469128131866455 -0.0419317670166492462 0.1220284104347229
0.268277347087860107 -0.285923779010772705 0.32346034049987793
0.127791076898574829 -0.327004283666610718 0.312544971704483032
0.152463436126708984 -0.343487590551376343 0.317822098731994629
0.447976678609848022 -0.335967481136322021 -0.292974084615707397
0.516073644161224365 -0.303274691104888916 -0.107920043170452118
0.51549077033996582 -0.280569851398468018 -0.312812775373458862
0.485115319490432739 -0.328014552593231201 -0.30977216362953186
0.464589536190032959 -0.346231549978256226 -0.302645564079284668
0.549859583377838135 -0.210501000285148621 -0.315962731838226318
0.524352371692657471 -0.300364255905151367 -0.322464525699615479
0.518218338489532471 -0.301175713539123535 -0.318360179662704468
0.247146949172019958 0.0569173283874988556 0.316413521766662598
0.241630986332893372 0.0874040722846984863 0.312747687101364136
-0.291835159063339233 -0.101055867969989777 -0.10189896821975708
-0.453725993633270264 -0.0524218529462814331 0.117123872041702271
0.405093550682067871 -0.272526592016220093 0.322532117366790771
-0.502562046051025391 0.00339130125939846039 0.189172163605690002
0.401382565498352051 -0.287512123584747314 0.324847251176834106
0.39953237771987915 -0.27382311224937439 0.323327004909515381
0.342559069395065308 -0.259259700775146484 0.0901286229491233826
-0.0187260285019874573 -0.244828715920448303 0.128634870052337646
-0.464665383100509644 0.0356227941811084747 0.189589768648147583
-0.194471970200538635 0.22143302857875824 0.172069340944290161
0.367149114608764648 -0.329599291086196899 -0.0234831664711236954
0.323658287525177002 -0.390470892190933228 -0.158857583999633789
0.535747349262237549 -0.323929667472839355 -0.058183278888463974
-0.441914558410644531 -0.00512427883222699165 0.152736738324165344
-0.019060058519244194 -0.0598203614354133606 0.141715660691261292
-0.000156428257469087839 -0.236554205417633057 0.106357336044311523
0.526534855365753174 -0.20204123854637146 -0.0799970850348472595
0.450039297342300415 -0.308642715215682983 -0.292859494686126709
0.527086257934570312 -0.275727123022079468 -0.315665274858474731
0.50014495849609375 -0.325195431709289551 -0.312660247087478638
0.475461751222610474 -0.305353492498397827 -0.297376424074172974
-0.12747935950756073 0.246507063508033752 0.138986185193061829
-0.64920574426651001 0.281905382871627808 0.0943524166941642761
-0.199079647660255432 0.286546379327774048 0.335902482271194458
0.498368620872497559 -0.0869063436985015869 0.13669198751449585
0.200959518551826477 -0.359573692083358765 -0.0908246785402297974
0.505729019641876221 -0.367989897727966309 -0.0226611271500587463
0.527606427669525146 -0.242929384112358093 0.172976836562156677
-0.58619922399520874 0.37925034761428833 0.170758441090583801
0.44525599479675293 -0.315238505601882935 -0.287733942270278931
0.498945116996765137 -0.111283890902996063 0.112205274403095245
-0.655971884727478027 0.175316467881202698 -0.103600852191448212
-0.20206122100353241 0.308677136898040771 0.0891911312937736511
0.201552748680114746 -0.0137744368985295296 0.295260399580001831
0.160239070653915405 -0.0623815283179283142 -0.0440488457679748535
-0.579786896705627441 0.30214044451713562 0.368730038404464722
0.275353580713272095 0.098329886794090271 -0.0290670786052942276
-0.435448765754699707 0.155210807919502258 -0.0859124809503555298
0.53477776050567627 -0.333338916301727295 0.0127845257520675659
-0.568955779075622559 0.197188869118690491 -0.228923112154006958
-0.497811079025268555 0.0447091087698936462 -0.0867477431893348694
0.0315409377217292786 -0.104311354458332062 0.0330111309885978699
0.534340381622314453 -0.264761298894882202 -0.3163108229637146
0.009896804578602314 0.197581678628921509 0.0276197623461484909
0.30245208740234375 0.038806520402431488 -0.0844287946820259094
-0.332272857427597046 -0.0163296423852443695 -0.107650212943553925
0.236760854721069336 0.0143029671162366867 0.321813851594924927
0.125258058309555054 0.0128064034506678581 0.298943400382995605
0.527859926223754883 -0.35546448826789856 0.0663755014538764954
0.467358648777008057 -0.310128509998321533 -0.233097612857818604
-0.652185797691345215 0.285246998071670532 0.10445713996887207
0.546949684619903564 -0.220195457339286804 0.163536697626113892
0.528371989727020264 -0.323660552501678467 -0.016003461554646492
-0.383088260889053345 -0.0567768141627311707 0.0762641504406929016
0.457161486148834229 -0.311124265193939209 -0.292556643486022949
0.505218088626861572 -0.340122073888778687 -0.317896813154220581
0.479077726602554321 -0.314603865146636963 -0.299500465393066406
0.520626306533813477 -0.301580518484115601 -0.317324548959732056
-0.0021623044740408659 -0.140336260199546814 -0.024804355576634407
0.397866040468215942 -0.27338111400604248 0.323501914739608765
0.401537686586380005 -0.271806955337524414 0.323807239532470703
0.506453216075897217 -0.332261711359024048 0.105898886919021606
-0.467660307884216309 0.0421655438840389252 0.170708313584327698
0.410392224788665771 -0.346158891916275024 0.156634792685508728
-0.360870242118835449 -0.0356339737772941589 -0.148035034537315369
-0.128149464726448059 -0.268157452344894409 0.112392984330654144
0.512949109077453613 -0.369328051805496216 -0.0146052064374089241
-0.213692933320999146 0.312476813793182373 0.0977233648300170898
0.250868320465087891 -0.287381827831268311 0.322921007871627808
0.209243431687355042 0.00930581800639629364 -0.0460603125393390656
0.0701661780476570129 -0.151835918426513672 -0.0172186344861984253
-0.169693216681480408 0.304712414741516113 0.118908025324344635
0.471477121114730835 -0.364636272192001343 0.00711002154275774956
-0.290955245494842529 -0.0998451933264732361 -0.103156261146068573
0.0366326794028282166 -0.150011256337165833 -0.0216862782835960388
0.232511207461357117 0.0561387650668621063 0.309234410524368286
0.253676354885101318 -0.288943171501159668 0.320703297853469849
-0.471756845712661743 0.000832203950267285109 0.168721944093704224
0.241336137056350708 0.0626021251082420349 0.313135266304016113
0.509338498115539551 -0.352306008338928223 0.0640251711010932922
0.227686136960983276 -0.315113812685012817 0.314602017402648926
-0.375382721424102783 -0.0935475379228591919 0.0862311571836471558
-0.062607988715171814 -0.242006987333297729 0.302540123462677002
-0.22264435887336731 -0.128059118986129761 -0.0530749522149562836
-0.409891188144683838 -0.0658072382211685181 0.0985797494649887085
-0.445012956857681274 -0.0450563915073871613 0.132799446582794189
0.239254996180534363 -0.294335991144180298 0.314476490020751953
0.154137864708900452 -0.324684649705886841 0.32013469934463501
0.425682365894317627 -0.256281733512878418 0.328654676675796509
0.438527792692184448 -0.343197464942932129 -0.292627304792404175
0.506637990474700928 -0.334822356700897217 -0.318042069673538208
0.44537922739982605 -0.352546066045761108 -0.286683201789855957
0.23860110342502594 0.0656661316752433777 0.312414348125457764
0.403610378503799438 -0.287740498781204224 0.3259715735912323
-0.494783967733383179 0.00642401771619915962 0.188454717397689819
0.486217886209487915 -0.0633241012692451477 0.131823256611824036
0.0127378227189183235 -0.171079814434051514 0.0098735075443983078
0.531947672367095947 -0.307857006788253784 -0.0621492341160774231
0.315154999494552612 -0.302542895078659058 -0.126763671636581421
0.446227967739105225 -0.291568905115127563 -0.285594969987869263
-0.336858391761779785 0.224566280841827393 0.125806570053100586
-0.400815010070800781 -0.0284902509301900864 -0.00181759882252663374
0.403523832559585571 -0.271949589252471924 0.324190676212310791
-0.133124068379402161 0.195677608251571655 0.167806953191757202
0.399572581052780151 -0.271886855363845825 0.324003726243972778
-0.446480751037597656 -0.0252588018774986267 0.02151479572057724
-0.137808546423912048 0.244763419032096863 0.191761389374732971
-0.61275404691696167 0.293961793184280396 0.183879807591438293
0.12489018589258194 0.116002023220062256 0.316740036010742188
-0.120729386806488037 0.250510841608047485 0.161903262138366699
-0.583264052867889404 0.348127216100692749 0.0583244562149047852
0.427304297685623169 -0.348330527544021606 0.153120413422584534
-0.566693902015686035 0.295039832592010498 -0.0687730461359024048
0.252291709184646606 0.0266993213444948196 -0.0794902220368385315
0.248099803924560547 0.100430108606815338 -0.0482523590326309204
-0.357343435287475586 -0.0560035258531570435 -0.141776517033576965
0.199145346879959106 0.120241887867450714 0.0358517728745937347
0.546081662178039551 -0.131624087691307068 0.112075209617614746
-0.581580460071563721 0.321742087602615356 -0.0226361192762851715
0.20658990740776062 0.0246158093214035034 0.176914602518081665
-0.595284879207611084 0.375123888254165649 0.172172799706459045
0.445287764072418213 -0.319405704736709595 0.127456218004226685
0.2554817795753479 -0.278904169797897339 0.316548466682434082
0.235979050397872925 0.0237452276051044464 0.316660195589065552
-0.362780719995498657 -0.050022076815366745 -0.0236879121512174606
-0.182451903820037842 0.118036828935146332 0.0423931106925010681
0.255194395780563354 -0.288346797227859497 0.319364219903945923
0.242419317364692688 0.0331289917230606079 0.321926116943359375
0.400372028350830078 0.0233871843665838242 0.115274764597415924
-0.340376287698745728 -0.0663636177778244019 -0.147228032350540161
0.0760771706700325012 -0.333218961954116821 0.298992663621902466
-0.38661271333694458 -0.0610310658812522888 0.0938936471939086914
-0.448046445846557617 -0.0415281429886817932 0.127810925245285034
0.43982735276222229 -0.279414713382720947 0.33372768759727478
0.034783780574798584 -0.123042777180671692 -0.0255899857729673386
0.414788812398910522 -0.280871331691741943 0.327070713043212891
0.433498084545135498 -0.296171277761459351 0.333230316638946533
0.368369251489639282 -0.278811365365982056 -0.130221962928771973
-0.477253526449203491 0.00126032484695315361 0.188391730189323425
-0.291368067264556885 -0.0965506881475448608 -0.104486472904682159
0.241807803511619568 -0.313131660223007202 0.309723436832427979
0.473700881004333496 -0.35435563325881958 0.00711738085374236107
-0.296198189258575439 -0.0967965200543403625 -0.106934793293476105
0.24516594409942627 -0.288700520992279053 0.320115566253662109
0.0626040324568748474 -0.32992592453956604 0.297076135873794556
0.158405080437660217 -0.267941653728485107 -0.105508334934711456
0.250637739896774292 0.0634166225790977478 0.31556236743927002
-0.482360035181045532 -0.00808572303503751755 0.178021997213363647
0.23677101731300354 0.0665819793939590454 0.31491553783416748
0.239141002297401428 -0.331944376230239868 0.321450918912887573
-0.382074475288391113 -0.0922208726406097412 0.0368055440485477448
-0.215905860066413879 -0.1403026282787323 -0.054312095046043396
-0.382515281438827515 -0.0638415366411209106 0.083610042929649353
0.150342941284179688 -0.331797331571578979 0.331923037767410278
0.446349054574966431 -0.279946178197860718 0.333651512861251831
0.407899618148803711 -0.280583560466766357 0.32518315315246582
-0.501872897148132324 0.00640755239874124527 0.188771188259124756
-0.321739405393600464 0.0971398055553436279 -0.0701607242226600647
0.533046603202819824 -0.207577750086784363 -0.0525744706392288208
0.45142015814781189 -0.294007927179336548 -0.290483921766281128
0.487875998020172119 -0.325365811586380005 -0.310902535915374756
0.446861147880554199 -0.309857875108718872 -0.290848493576049805
-0.577635645866394043 0.269130200147628784 0.365915358066558838
-0.46129116415977478 0.105705060064792633 -0.230852231383323669
0.375348567962646484 -0.318809390068054199 0.199140682816505432
-0.589650332927703857 0.366880089044570923 0.131404325366020203
0.393019020557403564 -0.35358622670173645 -0.217475920915603638
0.441557198762893677 -0.31040114164352417 -0.289057880640029907
-0.20044293999671936 0.305402666330337524 0.0950494483113288879
-0.1552572101354599 0.267880558967590332 0.15172344446182251
0.530345022678375244 -0.338585197925567627 0.0718659907579421997
0.464299023151397705 -0.266243636608123779 -0.2176627516746521
-0.633367836475372314 0.275638103485107422 0.107205741107463837
0.438879102468490601 -0.308693170547485352 -0.28722873330116272
0.515931606292724609 -0.277312278747558594 -0.316864371299743652
0.517041325569152832 -0.340476930141448975 -0.320778191089630127
0.454824537038803101 -0.307171493768692017 -0.29328387975692749
0.491438984870910645 -0.322063028812408447 0.0944279134273529053
0.0209442600607872009 -0.276086896657943726 -0.0185692533850669861
-0.65390467643737793 0.171850726008415222 -0.107884787023067474
-0.22449435293674469 0.318496137857437134 0.121444135904312134
0.465871632099151611 -0.364242583513259888 0.00594773422926664352
0.481603950262069702 -0.336952537298202515 0.0503170154988765717
0.511943638324737549 -0.339536458253860474 -0.319437205791473389
0.44063374400138855 -0.356699585914611816 -0.297638177871704102
-0.269837230443954468 0.321970611810684204 0.0419948771595954895
0.42459985613822937 -0.313418269157409668 -0.281922906637191772
0.4159870445728302 -0.295333117246627808 0.328516900539398193
-0.325909316539764404 -0.0756536871194839478 0.123528264462947845
-0.366705268621444702 -0.0669728964567184448 0.154739215970039368
-0.338110893964767456 0.214726105332374573 0.132940232753753662
0.010426761582493782 0.119342297315597534 0.105201631784439087
0.542555868625640869 -0.309327751398086548 -0.0461813211441040039
0.0139703536406159401 -0.262063920497894287 0.0395170077681541443
-0.00322472630068659782 -0.236832335591316223 0.094268500804901123
0.000538222142495214939 -0.219861671328544617 0.0815303027629852295
0.465451508760452271 -0.361098796129226685 0.0303474292159080505
-0.269193857908248901 -0.138304963707923889 0.177528396248817444
-0.344904303550720215 -0.066142544150352478 0.141326859593391418
0.123864412307739258 -0.276917546987533569 0.128988802433013916
-0.133611917495727539 0.0786752179265022278 0.0903421565890312195
0.464036166667938232 -0.0544094108045101166 0.0176298413425683975
-0.0138080427423119545 -0.217178478837013245 0.0803714171051979065
-0.554629325866699219 0.391588032245635986 0.147913753986358643
0.497138500213623047 -0.366970360279083252 0.0052773146890103817
-0.610582888126373291 0.293959379196166992 0.186682209372520447
0.530467033386230469 -0.275376468896865845 -0.317701518535614014
0.370863199234008789 -0.264751523733139038 0.181560546159744263
0.420858293771743774 -0.344645977020263672 0.150886669754981995
0.252434819936752319 0.0392056591808795929 -0.0666201412677764893
0.549980103969573975 -0.150028660893440247 0.124261558055877686
-0.570428907871246338 0.284013599157333374 -0.00613324949517846107
0.501406669616699219 -0.362821251153945923 -0.00125444564037024975
