ply
format ascii 1.0
element vertex 738
property float x
property float y
property float z
end_header
0.399130791425704956 -0.257226675748825073 0.322611391544342041
-0.158551737666130066 -0.264044076204299927 0.181534349918365479
-0.499419152736663818 0.0134580619633197784 0.157997235655784607
0.417404145002365112 -0.297743082046508789 0.328881740570068359
0.53507840633392334 -0.340654641389846802 -0.018216421827673912
0.34413611888885498 -0.267868101596832275 -0.127666875720024109
-0.496702075004577637 0.071429915726184845 0.203888073563575745
0.443457543849945068 -0.272558897733688354 0.3335723876953125
0.521824240684509277 -0.335849136114120483 0.0330176316201686859
0.45317310094833374 -0.320448517799377441 -0.292807459831237793
0.474055469036102295 -0.312106609344482422 0.116911135613918304
0.517014384269714355 -0.278975814580917358 -0.312587946653366089
0.502456784248352051 -0.326509475708007812 -0.314093947410583496
0.517919540405273438 -0.327553540468215942 0.102133654057979584
0.479118704795837402 -0.311984509229660034 -0.301941186189651489
0.11452203243970871 0.11819111555814743 0.289030730724334717
-0.12204241007566452 0.26817774772644043 0.158704355359077454
-0.615038633346557617 0.264965653419494629 0.0519423298537731171
-0.479635924100875854 0.00246134051121771336 0.18126244843006134
0.426528006792068481 -0.355453044176101685 0.15875011682510376
-0.292555779218673706 -0.11125665158033371 -0.105804681777954102
0.130470916628837585 0.0651128590106964111 0.321253359317779541
0.253656864166259766 0.0382278598845005035 -0.0776627883315086365
0.235430061817169189 0.0934183970093727112 -0.0529580600559711456
0.41751447319984436 -0.262069284915924072 -0.202124863862991333
0.521476805210113525 -0.355133622884750366 -0.019235977903008461
-0.609092652797698975 0.38062596321105957 0.18107287585735321
0.517365634441375732 -0.279877126216888428 -0.314510732889175415
0.498921751976013184 -0.350469231605529785 0.0242987778037786484
-0.588054835796356201 0.368794411420822144 0.112873010337352753
0.505809426307678223 -0.10514967143535614 0.147500544786453247
-0.198168382048606873 0.311051726341247559 0.112834692001342773
0.263909965753555298 -0.286944687366485596 0.319852948188781738
0.236871108412742615 0.0617567375302314758 0.310618758201599121
-0.144672080874443054 -0.0440350137650966644 0.00416359631344676018
-0.658024430274963379 0.214153483510017395 -0.0463252216577529907
-0.288832783699035645 -0.0766209438443183899 -0.0686512142419815063
0.227184399962425232 0.0417116656899452209 -0.0480338111519813538
0.551347911357879639 -0.144929513335227966 0.132258474826812744
0.519564270973205566 -0.295823842287063599 0.0751150846481323242
0.517374098300933838 -0.284592568874359131 -0.180950000882148743
-0.358312755823135376 -0.0177541002631187439 -0.0280010383576154709
0.0914462059736251831 0.0877733677625656128 0.0858112946152687073
0.466454505920410156 -0.36237102746963501 -0.0104499934241175652
-0.433143883943557739 0.157099291682243347 -0.0665716230869293213
0.523590266704559326 -0.33611103892326355 0.0691140294075012207
0.262770295143127441 -0.286313742399215698 0.318575799465179443
0.00922985561192035675 -0.0914752110838890076 -0.0261052083224058151
0.0324183143675327301 -0.130863338708877563 0.0218849498778581619
-0.630955815315246582 0.264479577541351318 0.0289002265781164169
0.242073222994804382 0.0739268958568572998 0.318888098001480103
0.240143150091171265 0.0291768647730350494 0.318971842527389526
-0.174956262111663818 0.300341337919235229 0.116219162940979004
0.304510831832885742 -0.151674002408981323 0.30791020393371582
0.261803776025772095 -0.291115522384643555 0.321059972047805786
-0.476463645696640015 -0.00879981555044651031 0.166137352585792542
0.242708683013916016 0.081363290548324585 0.312246769666671753
0.520013809204101562 -0.351761996746063232 0.0821447893977165222
-0.0350827835500240326 -0.23809640109539032 0.124071702361106873
-0.638556003570556641 0.289496034383773804 0.0986621230840682983
-0.234491303563117981 -0.133499875664710999 -0.0580424517393112183
-0.37956923246383667 -0.109466798603534698 0.105471223592758179
-0.236704811453819275 -0.148526012897491455 -0.0578902475535869598
-0.658235907554626465 0.213850349187850952 -0.0340305119752883911
0.528648555278778076 -0.353097587823867798 0.0780879184603691101
-0.621397137641906738 0.269743859767913818 0.0523368790745735168
-0.404431551694869995 -0.0649957954883575439 0.111989937722682953
-0.446614205837249756 -0.0421515926718711853 0.121916525065898895
0.267871499061584473 -0.286005526781082153 0.32353857159614563
0.127482891082763672 -0.327033132314682007 0.312578469514846802
0.152137473225593567 -0.343518972396850586 0.317859649658203125
0.447504341602325439 -0.336209326982498169 -0.292785078287124634
0.515510439872741699 -0.303484529256820679 -0.107734225690364838
0.514987468719482422 -0.280847460031509399 -0.312606513500213623
0.484629571437835693 -0.328272402286529541 -0.309576064348220825
0.464112997055053711 -0.34647899866104126 -0.302455425262451172
0.549340784549713135 -0.210814058780670166 -0.315748214721679688
0.523850083351135254 -0.300640672445297241 -0.322262048721313477
0.517717301845550537 -0.301449567079544067 -0.318157821893692017
0.246791541576385498 0.0566479749977588654 0.316485017538070679
0.241277694702148438 0.0871162638068199158 0.312813013792037964
-0.292004764080047607 -0.101261645555496216 -0.101927682757377625
-0.453876614570617676 -0.0526348277926445007 0.117010638117790222
0.404596775770187378 -0.272650301456451416 0.322655022144317627
-0.502682209014892578 0.00315903429873287678 0.189040452241897583
0.400888055562973022 -0.287630468606948853 0.324966609477996826
0.39903905987739563 -0.273945033550262451 0.323448270559310913
0.342072963714599609 -0.259393632411956787 0.0902636200189590454
-0.0189790204167366028 -0.244881883263587952 0.12864665687084198
-0.464766919612884521 0.0353669673204421997 0.189464882016181946
-0.194556534290313721 0.221070230007171631 0.17197120189666748
0.3666495680809021 -0.329740762710571289 -0.023334994912147522
0.323211014270782471 -0.390619724988937378 -0.158722743391990662
0.535165905952453613 -0.324124962091445923 -0.0580055974423885345
-0.442038595676422119 -0.00536365574225783348 0.152623444795608521
-0.0192635748535394669 -0.0599827542901039124 0.141720101237297058
-0.000418195937527343631 -0.23661273717880249 0.106375575065612793
0.525962769985198975 -0.202292382717132568 -0.0797974467277526855
0.449561744928359985 -0.308890581130981445 -0.29266279935836792
0.526578307151794434 -0.276009500026702881 -0.315458595752716064
0.499653011560440063 -0.325458288192749023 -0.312463313341140747
0.474968254566192627 -0.305609405040740967 -0.297172904014587402
-0.127609193325042725 0.24613545835018158 0.138894900679588318
-0.649263620376586914 0.281527429819107056 0.0940429121255874634
-0.199113458395004272 0.286168277263641357 0.335796386003494263
0.497797310352325439 -0.0871644243597984314 0.136870101094245911
0.200564667582511902 -0.359665989875793457 -0.0907280072569847107
0.505156278610229492 -0.368155092000961304 -0.0224963929504156113
0.527019619941711426 -0.243102550506591797 0.173144042491912842
-0.586204290390014648 0.378837734460830688 0.170462042093276978
0.444780498743057251 -0.315482109785079956 -0.287540674209594727
0.498368591070175171 -0.111530981957912445 0.11238861083984375
-0.656073033809661865 0.174949929118156433 -0.10392654687166214
-0.20214526355266571 0.308242738246917725 0.0890522673726081848
0.201244056224822998 -0.0139818126335740089 0.295320510864257812
0.159917399287223816 -0.0626072660088539124 -0.0439702346920967102
-0.579791367053985596 0.301791518926620483 0.368517488241195679
0.274952203035354614 0.0979350656270980835 -0.0289789047092199326
-0.435516804456710815 0.154797211289405823 -0.0860926881432533264
0.534183025360107422 -0.333512663841247559 0.0129551608115434647
-0.569030582904815674 0.196745097637176514 -0.229203954339027405
-0.497929275035858154 0.0443909987807273865 -0.0869328528642654419
0.0312882177531719208 -0.104460939764976501 0.033036310225725174
0.533829152584075928 -0.2650490403175354 -0.316102802753448486
0.00967780128121376038 0.197207093238830566 0.0275772474706172943
0.302041411399841309 0.0384318456053733826 -0.0843124166131019592
-0.332417994737625122 -0.0166154913604259491 -0.107727639377117157
0.236416801810264587 0.0140653736889362335 0.321886688470840454
0.125009328126907349 0.0125976409763097763 0.298980802297592163
0.527266561985015869 -0.355617761611938477 0.0665358975529670715
0.466852754354476929 -0.310361921787261963 -0.232907310128211975
-0.652243494987487793 0.284870445728302002 0.104148358106613159
0.546351611614227295 -0.220384895801544189 0.163710534572601318
0.527784049510955811 -0.323842793703079224 -0.0158285107463598251
-0.38324439525604248 -0.0569930486381053925 0.0761750116944313049
0.456679433584213257 -0.311373203992843628 -0.292359113693237305
0.504728138446807861 -0.340384960174560547 -0.317703187465667725
0.478587210178375244 -0.314859688282012939 -0.299300998449325562
0.520123660564422607 -0.301854521036148071 -0.317122489213943481
-0.00241318601183593273 -0.140470102429389954 -0.0247819032520055771
0.397373735904693604 -0.27350279688835144 0.323622822761535645
0.401043236255645752 -0.271930158138275146 0.323929280042648315
0.50586855411529541 -0.332407772541046143 0.106058709323406219
-0.467761188745498657 0.0419022738933563232 0.170577451586723328
0.409867852926254272 -0.346270292997360229 0.156767383217811584
-0.361022800207138062 -0.0359136834740638733 -0.148118779063224792
-0.128387242555618286 -0.268214017152786255 0.11238117516040802
0.512371599674224854 -0.369492620229721069 -0.0144411548972129822
-0.213769078254699707 0.312040269374847412 0.0975797101855278015
0.250475496053695679 -0.287457913160324097 0.322993338108062744
0.208895310759544373 0.00900662783533334732 -0.0459739863872528076
0.069880366325378418 -0.151968896389007568 -0.017168831080198288
-0.169796392321586609 0.304296493530273438 0.118782758712768555
0.4709053635597229 -0.364783614873886108 0.00727472454309463501
-0.2911243736743927 -0.100052103400230408 -0.10318455845117569
0.0363633334636688232 -0.150142088532447815 -0.0216489862650632858
0.232168450951576233 0.0558737963438034058 0.309301108121871948
0.253281086683273315 -0.28901943564414978 0.320776373147964478
-0.471876621246337891 0.000592852768022567034 0.168601751327514648
0.240985289216041565 0.0623305626213550568 0.313204079866409302
0.508753478527069092 -0.352455794811248779 0.0641856789588928223
0.227308019995689392 -0.31517377495765686 0.31466338038444519
-0.375561952590942383 -0.0937315970659255981 0.0861553847789764404
-0.0628179311752319336 -0.242046654224395752 0.302542746067047119
-0.222837239503860474 -0.128232508897781372 -0.0531015843152999878
-0.410049587488174438 -0.0660133138298988342 0.0984836071729660034
-0.445158511400222778 -0.0452716648578643799 0.13268984854221344
0.238869771361351013 -0.294405460357666016 0.314544200897216797
0.153812319040298462 -0.324721395969390869 0.320174664258956909
0.425173640251159668 -0.256416440010070801 0.328784674406051636
0.438061326742172241 -0.343435347080230713 -0.292441517114639282
0.506146669387817383 -0.335086464881896973 -0.317847222089767456
0.444907218217849731 -0.352782458066940308 -0.286498725414276123
0.238252446055412292 0.0653933435678482056 0.312481820583343506
0.403114676475524902 -0.287859499454498291 0.32609143853187561
-0.494901210069656372 0.00618785200640559196 0.188327163457870483
0.485655486583709717 -0.0635980367660522461 0.131997823715209961
0.0124736782163381577 -0.171181559562683105 0.00990145746618509293
0.531367242336273193 -0.308057427406311035 -0.0619675144553184509
0.314704686403274536 -0.302703022956848145 -0.126616626977920532
0.445747852325439453 -0.291818082332611084 -0.285395294427871704
-0.336895972490310669 0.224165111780166626 0.12565845251083374
-0.400961607694625854 -0.028742913156747818 -0.00192446704022586346
0.403028160333633423 -0.272073268890380859 0.324313193559646606
-0.133245661854743958 0.195341035723686218 0.167731776833534241
0.399079352617263794 -0.272009491920471191 0.324125289916992188
-0.446623831987380981 -0.0255077537149190903 0.0213838797062635422
-0.137921109795570374 0.244403690099716187 0.191672027111053467
-0.612785756587982178 0.293592333793640137 0.183616563677787781
0.124635875225067139 0.115724891424179077 0.316764920949935913
-0.12085927277803421 0.250144153833389282 0.161814481019973755
-0.583283782005310059 0.347693830728530884 0.0580037236213684082
0.426769822835922241 -0.348445594310760498 0.153257116675376892
-0.566720485687255859 0.294588923454284668 -0.0690968036651611328
0.251915842294692993 0.0263576358556747437 -0.0793885737657546997
0.247724294662475586 0.100039124488830566 -0.0481722839176654816
-0.357503116130828857 -0.0562633536756038666 -0.141854852437973022
0.198798522353172302 0.119882211089134216 0.0359049737453460693
0.545478582382202148 -0.131871789693832397 0.112262830138206482
-0.581606090068817139 0.321296513080596924 -0.022969244047999382
0.206253021955490112 0.0243637803941965103 0.176983952522277832
-0.595296382904052734 0.374715268611907959 0.171876206994056702
0.444737941026687622 -0.319536834955215454 0.127606034278869629
0.255085647106170654 -0.278983652591705322 0.316623508930206299
0.235635295510292053 0.023501228541135788 0.316731691360473633
-0.362937808036804199 -0.0502601489424705505 -0.0237738862633705139
-0.182576492428779602 0.117708615958690643 0.0423204526305198669
0.254797905683517456 -0.288423538208007812 0.319437891244888306
0.242069751024246216 0.0328770391643047333 0.321998894214630127
0.399870574474334717 0.0230582393705844879 0.115416646003723145
-0.340539366006851196 -0.0666157528758049011 -0.147296339273452759
0.0757989808917045593 -0.333234965801239014 0.299014508724212646
-0.386769771575927734 -0.0612410642206668854 0.0938053131103515625
-0.448190808296203613 -0.0417470112442970276 0.127699032425880432
0.43931049108505249 -0.279545456171035767 0.333856731653213501
0.0345225036144256592 -0.123192280530929565 -0.0255568809807300568
0.414286434650421143 -0.280995339155197144 0.327194273471832275
0.4329853355884552 -0.296295791864395142 0.333355128765106201
0.367890775203704834 -0.278997451066970825 -0.130054190754890442
-0.477360695600509644 0.00101181352511048317 0.188296958804130554
-0.291536599397659302 -0.0967609286308288574 -0.104516655206680298
0.241418883204460144 -0.313196539878845215 0.309789746999740601
0.47313341498374939 -0.354508101940155029 0.00728175416588783264
-0.296368867158889771 -0.0970093086361885071 -0.106972627341747284
0.244777128100395203 -0.28877413272857666 0.320185869932174683
0.0623331256210803986 -0.329941362142562866 0.297095656394958496
0.158050119876861572 -0.268056541681289673 -0.10541398823261261
0.250278741121292114 0.063141949474811554 0.31563413143157959
-0.482482969760894775 -0.00831766705960035324 0.177903115749359131
0.236424103379249573 0.0663093104958534241 0.314982324838638306
0.238753959536552429 -0.332004666328430176 0.321513563394546509
-0.382248222827911377 -0.09241475909948349 0.0367205329239368439
-0.216103211045265198 -0.140466868877410889 -0.0543355382978916168
-0.382674515247344971 -0.0640508830547332764 0.0835230574011802673
0.15002027153968811 -0.331832796335220337 0.331961482763290405
0.445828378200531006 -0.280078113079071045 0.333781898021697998
0.40740126371383667 -0.280705720186233521 0.325305283069610596
-0.501991569995880127 0.00617329264059662819 0.188639074563980103
-0.321838140487670898 0.0967708826065063477 -0.0702652186155319214
0.532464742660522461 -0.207820400595664978 -0.0523778274655342102
0.450937837362289429 -0.294258952140808105 -0.290282458066940308
0.487389057874679565 -0.325625121593475342 -0.310705661773681641
0.446385085582733154 -0.310104072093963623 -0.290653079748153687
-0.577647984027862549 0.268795490264892578 0.365715086460113525
-0.46138879656791687 0.105286434292793274 -0.231023013591766357
0.374851644039154053 -0.318914294242858887 0.1992625892162323
-0.589666604995727539 0.366461813449859619 0.131098821759223938
0.392549484968185425 -0.353783279657363892 -0.217309519648551941
0.441083908081054688 -0.310645252466201782 -0.288863956928253174
-0.200527489185333252 0.304972201585769653 0.0949134975671768188
-0.155365884304046631 0.267495930194854736 0.15161876380443573
0.529749095439910889 -0.338742911815643311 0.0720296278595924377
0.463788390159606934 -0.266485512256622314 -0.217465952038764954
-0.633418858051300049 0.275262683629989624 0.106916695833206177
0.438406556844711304 -0.308936476707458496 -0.287035137414932251
0.515430033206939697 -0.277592062950134277 -0.316657334566116333
0.516547024250030518 -0.340743184089660645 -0.320584923028945923
0.454343527555465698 -0.307420939207077026 -0.293085455894470215
0.490859061479568481 -0.322209626436233521 0.0945903360843658447
0.0206568315625190735 -0.276147007942199707 -0.0185333844274282455
-0.654005229473114014 0.17148377001285553 -0.108203321695327759
-0.224561378359794617 0.318061292171478271 0.121296621859073639
0.46530488133430481 -0.364389628171920776 0.0061110006645321846
0.481032133102416992 -0.337102949619293213 0.0504794716835021973
0.511451125144958496 -0.33980134129524231 -0.319243550300598145
0.44016951322555542 -0.356937587261199951 -0.297454357147216797
-0.269881963729858398 0.321497887372970581 0.0418228842318058014
0.424133986234664917 -0.31365475058555603 -0.281733781099319458
0.415484219789505005 -0.295453399419784546 0.328638166189193726
-0.326068371534347534 -0.0758452340960502625 0.123463809490203857
-0.366857022047042847 -0.0671667382121086121 0.154660984873771667
-0.338150352239608765 0.214332804083824158 0.132796183228492737
0.0102220103144645691 0.119043499231338501 0.105186127126216888
0.541967153549194336 -0.309526234865188599 -0.0460008718073368073
0.0136902704834938049 -0.262121587991714478 0.0395447835326194763
-0.00348741491325199604 -0.236892074346542358 0.0942869186401367188
0.000275688944384455681 -0.219929799437522888 0.0815506726503372192
0.464889466762542725 -0.361242830753326416 0.0305056571960449219
-0.269371688365936279 -0.138440459966659546 0.177484840154647827
-0.345056742429733276 -0.0663390681147575378 0.141255021095275879
0.123536422848701477 -0.276972830295562744 0.129037782549858093
-0.133756235241889954 0.078396819531917572 0.0902934670448303223
0.463492751121520996 -0.0547229759395122528 0.0178055930882692337
-0.0140652498230338097 -0.217248141765594482 0.0803881436586380005
-0.554634332656860352 0.391156226396560669 0.147615522146224976
0.496560484170913696 -0.367125451564788818 0.00544146960601210594
-0.610613346099853516 0.293590158224105835 0.186420708894729614
0.529958248138427734 -0.275660157203674316 -0.317494839429855347
0.370367884635925293 -0.264874190092086792 0.181692123413085938
0.420327097177505493 -0.344761043787002563 0.151022836565971375
0.252057939767837524 0.0388576164841651917 -0.0665226653218269348
0.549376606941223145 -0.150263175368309021 0.124446861445903778
-0.570432126522064209 0.283593267202377319 -0.0064850877970457077
0.500829219818115234 -0.362980693578720093 -0.00108945416286587715
0.208322003483772278 0.115333244204521179 -0.0103277303278446198
-0.2891826331615448 -0.08612804114818573 -0.0663769915699958801
0.159295499324798584 -0.0835695564746856689 -0.0360551215708255768
-0.339938431978225708 -0.105907037854194641 0.141297340393066406
0.510971486568450928 -0.28181806206703186 -0.313010603189468384
-0.339264541864395142 -0.0801168680191040039 0.0386297889053821564
-0.369249314069747925 0.280192136764526367 -0.062611408531665802
0.509778082370758057 -0.341309309005737305 0.0653117895126342773
0.302301019430160522 -0.206182703375816345 0.248031839728355408
0.542706966400146484 -0.31241646409034729 -0.0605499707162380219
0.141637638211250305 0.0691827237606048584 0.336429804563522339
-0.594787001609802246 0.267059236764907837 0.0121055524796247482
0.222064420580863953 -0.00738542480394244194 0.295667111873626709
0.230918124318122864 0.0340315885841846466 0.312862753868103027
0.533418595790863037 -0.320008426904678345 -0.0125959636643528938
-0.389303326606750488 -0.0644500777125358582 0.10576900839805603
-0.44753342866897583 -0.0405994430184364319 0.126550808548927307
0.495902687311172485 -0.0916677564382553101 0.154661089181900024
0.250945687294006348 0.0628192201256752014 0.316752314567565918
-0.291312843561172485 -0.0931496545672416687 0.307713150978088379
-0.366544872522354126 -0.115223877131938934 0.10406959056854248
-0.563368499279022217 0.12681521475315094 -0.0784703642129898071
-0.501449823379516602 0.0230199079960584641 0.186683118343353271
0.518025994300842285 -0.297842472791671753 -0.313850879669189453
0.472497552633285522 -0.32873082160949707 -0.29971015453338623
-0.574180424213409424 0.268459439277648926 0.362641781568527222
-0.571068167686462402 0.354452371597290039 0.166959390044212341
-0.19160836935043335 0.304228663444519043 0.101275227963924408
-0.662001609802246094 0.239339157938957214 0.0416000820696353912
-0.504819929599761963 0.143987655639648438 0.353314608335494995
0.507035672664642334 -0.347668707370758057 -0.318141698837280273
-0.200436651706695557 0.304557055234909058 0.101933218538761139
0.47503054141998291 -0.358035832643508911 0.00486915744841098785
0.509665548801422119 -0.331125795841217041 0.0665890425443649292
-0.61062157154083252 0.367142289876937866 0.0877005830407142639
-0.56241905689239502 0.287809878587722778 -0.0559952743351459503
0.219999104738235474 0.00997335277497768402 0.309192806482315063
0.240553662180900574 0.00480994628742337227 0.321664422750473022
-0.359554708003997803 -0.0574073754251003265 -0.137851610779762268
0.399214744567871094 -0.253078877925872803 0.322057247161865234
0.399515151977539062 -0.263451665639877319 0.324807465076446533
0.224027931690216064 -0.324463039636611938 0.320737153291702271
0.410994112491607666 -0.26819455623626709 0.32522997260093689
-0.509078621864318848 0.0489919185638427734 0.195269688963890076
-0.631168127059936523 0.156049802899360657 -0.0526721440255641937
-0.50178980827331543 0.146551400423049927 0.345287472009658813
0.520835340023040771 -0.351234287023544312 -0.322886824607849121
0.495205074548721313 -0.348767846822738647 0.000389164517400786281
-0.197840273380279541 0.0156714692711830139 -0.0499313585460186005
-0.557653844356536865 0.341307401657104492 -0.00579451024532318115
0.488421618938446045 -0.360888302326202393 0.041204746812582016
0.449097692966461182 -0.0746449902653694153 0.00212483457289636135
-0.556161761283874512 0.384766995906829834 0.157737642526626587
0.374563246965408325 -0.0816286429762840271 -0.119765006005764008
-0.389557331800460815 0.319098442792892456 0.168748527765274048
-0.384515255689620972 0.327666670083999634 0.197441190481185913
-0.364055812358856201 0.237456649541854858 -0.0834986642003059387
-0.407191485166549683 0.198995426297187805 0.0408808887004852295
-0.644370138645172119 0.286395758390426636 0.0935525521636009216
0.40849602222442627 -0.347636550664901733 0.136542961001396179
0.222390934824943542 0.0824837461113929749 -0.0334504470229148865
0.498469233512878418 -0.161688864231109619 0.123974651098251343
0.500235557556152344 -0.0932827070355415344 0.134897246956825256
0.215413406491279602 0.0015293806791305542 0.299523144960403442
-0.353135526180267334 -0.0686700642108917236 -0.00906956661492586136
-0.38529089093208313 0.265446603298187256 -0.0716961324214935303
0.506344377994537354 -0.3475322425365448 0.0550644285976886749
-0.356975167989730835 -0.0568722784519195557 -0.145441830158233643
0.132268533110618591 0.0722393542528152466 0.322152107954025269
-0.0995995029807090759 -0.26604732871055603 0.00610594730824232101
0.242466956377029419 0.0229478832334280014 0.321970999240875244
-0.480345755815505981 -0.0122432168573141098 0.185286268591880798
0.24250483512878418 0.0479311458766460419 0.317151248455047607
-0.2780475914478302 0.332166135311126709 0.0406018756330013275
0.369787544012069702 -0.0313140265643596649 -0.0398215949535369873
0.520026504993438721 -0.348473280668258667 -0.0361785069108009338
0.29330483078956604 -0.0123846344649791718 0.0371077582240104675
-0.644057393074035645 0.284313946962356567 0.0924006178975105286
0.035813160240650177 0.136265471577644348 0.085104234516620636
-0.397426247596740723 -0.0581530481576919556 0.125864103436470032
-0.441388964653015137 -0.0387517623603343964 0.131293386220932007
0.523698627948760986 -0.318070381879806519 -0.0653168261051177979
0.422343581914901733 -0.280386567115783691 0.331295758485794067
0.509508371353149414 -0.345427662134170532 0.0572324991226196289
0.403769642114639282 -0.259256869554519653 0.323704361915588379
-0.480247139930725098 0.0175153408199548721 0.176669806241989136
0.235551699995994568 0.0681114569306373596 0.314543753862380981
-0.47941356897354126 -0.00889585353434085846 0.167318463325500488
0.23917485773563385 0.0671210587024688721 0.31494748592376709
0.388121575117111206 0.0255225207656621933 0.106099419295787811
0.219554364681243896 -0.316463351249694824 0.310393750667572021
0.382944375276565552 0.0424225926399230957 0.0691393464803695679
0.462613552808761597 0.0102667994797229767 0.175171107053756714
0.39939570426940918 -0.259047776460647583 0.327276647090911865
-0.499561667442321777 0.0205974411219358444 0.180886387825012207
-0.573374330997467041 0.265732705593109131 0.359865158796310425
-0.66446983814239502 0.229400485754013062 0.0217491872608661652
-0.149143755435943604 0.27483019232749939 0.078989855945110321
0.521875917911529541 -0.335655391216278076 -0.322499513626098633
-0.220253095030784607 0.315107166767120361 0.0966519266366958618
0.499736100435256958 -0.347015827894210815 0.0671211481094360352
-0.189601808786392212 0.302210360765457153 0.114673703908920288
0.313604831695556641 -0.130579441785812378 0.300769001245498657
0.225124761462211609 -0.0356692895293235779 0.305170297622680664
0.0573821403086185455 -0.331216692924499512 0.291340827941894531
0.435132652521133423 -0.280423820018768311 0.332811266183853149
0.40886649489402771 -0.286217480897903442 0.330970257520675659
0.385586321353912354 -0.266245454549789429 0.31884726881980896
0.397291868925094604 -0.38523256778717041 -0.225606650114059448
-0.162117332220077515 0.277854263782501221 0.128527835011482239
0.38058704137802124 0.0434468314051628113 0.0770798251032829285
0.390712141990661621 -0.256204068660736084 0.318858087062835693
-0.500279843807220459 0.0238805618137121201 0.185722514986991882
0.499435365200042725 -0.326527565717697144 -0.313125282526016235
0.380473971366882324 -0.376517266035079956 -0.216221004724502563
0.520942151546478271 -0.34988105297088623 -0.324902951717376709
0.520501434803009033 -0.349019020795822144 -0.32184174656867981
0.513124644756317139 -0.320259928703308105 -0.318463772535324097
0.254928380250930786 -0.222839385271072388 0.0575013533234596252
0.185950890183448792 -0.14281010627746582 -0.105613522231578827
0.507629215717315674 -0.320723563432693481 0.0292864516377449036
-0.469440758228302002 -0.0124977240338921547 0.18098171055316925
0.496025353670120239 -0.349566519260406494 -0.309797167778015137
0.521282553672790527 -0.328138172626495361 -0.321971386671066284
0.475837796926498413 -0.320839494466781616 -0.303073793649673462
-0.341078072786331177 0.229246541857719421 -0.0444014035165309906
0.201727896928787231 0.132337227463722229 0.112185068428516388
-0.172550007700920105 0.0216622389853000641 0.0255245883017778397
0.265547454357147217 -0.166295453906059265 0.00605138298124074936
0.544514358043670654 -0.328839659690856934 -0.0478064678609371185
-0.456305950880050659 -0.0536908768117427826 0.16209857165813446
0.46953350305557251 -0.356657207012176514 -0.307134091854095459
0.478277146816253662 -0.270391166210174561 -0.301546484231948853
0.467146813869476318 -0.362465947866439819 -0.308224141597747803
-0.320066124200820923 0.266050845384597778 0.011396363377571106
0.0331978388130664825 0.0980911329388618469 0.128435522317886353
-0.284601181745529175 -0.10070134699344635 -0.0873941853642463684
-0.616700291633605957 0.216444060206413269 -0.104892365634441376
0.244374990463256836 0.104003235697746277 -0.0297537017613649368
0.466100543737411499 -0.235670566558837891 -0.228511244058609009
-0.293849349021911621 -0.08915720134973526 -0.0959498435258865356
0.24904303252696991 -0.276330292224884033 0.322525620460510254
0.222012251615524292 0.0663813129067420959 -0.0279166772961616516
-0.250869989395141602 -0.130812704563140869 -0.055547025054693222
-0.211476519703865051 0.301452189683914185 0.148573219776153564
0.339731454849243164 -0.141020998358726501 0.318326801061630249
0.529502630233764648 -0.357069015502929688 0.0697028413414955139
-0.599748313426971436 0.356102913618087769 0.0602832064032554626
-0.346287846565246582 -0.0563973970711231232 -0.14367850124835968
-0.43267977237701416 0.156957194209098816 -0.0846991389989852905
0.526396095752716064 -0.332204163074493408 0.0204161442816257477
0.527970194816589355 -0.288477927446365356 -0.0701105371117591858
-0.498789161443710327 0.142043635249137878 -0.253923863172531128
0.146522104740142822 0.156273871660232544 0.0587500482797622681
0.253225356340408325 -0.00810346473008394241 0.327645927667617798
0.349869340658187866 -0.147604823112487793 0.320565998554229736
0.442116975784301758 -0.323040246963500977 -0.229338362812995911
-0.224096626043319702 -0.140615180134773254 -0.0538607165217399597
0.522330582141876221 -0.350697815418243408 0.0969685763120651245
-0.645967423915863037 0.252957284450531006 0.0237792283296585083
0.393073439598083496 -0.280516296625137329 0.322298169136047363
-0.474621742963790894 -0.0104409130290150642 0.164764642715454102
0.224316045641899109 -0.32546532154083252 0.318994015455245972
-0.363638699054718018 -0.121775619685649872 0.130301594734191895
-0.238545611500740051 -0.14124654233455658 -0.0539911165833473206
-0.113942623138427734 -0.00968308374285697937 -0.0167355965822935104
0.389300614595413208 -0.278786748647689819 0.320628225803375244
-0.506929457187652588 0.010706673376262188 0.201843932271003723
0.46245238184928894 -0.297433555126190186 -0.294268578290939331
0.351212084293365479 -0.148562610149383545 0.321422576904296875
0.457707315683364868 -0.304212212562561035 -0.228799015283584595
0.024469742551445961 -0.144245371222496033 -0.0202080942690372467
0.368856310844421387 -0.328177750110626221 0.318758398294448853
0.391525417566299438 -0.281939595937728882 0.31689077615737915
0.128501072525978088 -0.31967008113861084 -0.0971236824989318848
-0.134403273463249207 0.27793160080909729 0.117395371198654175
-0.333241820335388184 0.0939076915383338928 -0.102431684732437134
0.373911589384078979 -0.376379638910293579 -0.21477624773979187
0.519719481468200684 -0.346268385648727417 -0.322519153356552124
0.523285150527954102 -0.358535647392272949 -0.326379746198654175
-0.0683584883809089661 -0.255298107862472534 0.0988405048847198486
0.325678706169128418 -0.131265848875045776 0.314743936061859131
0.424187242984771729 -0.260182648897171021 0.32831236720085144
-0.479859679937362671 0.0313451029360294342 0.196598485112190247
0.526463985443115234 -0.3001289963722229 -0.321976006031036377
0.537896335124969482 -0.292981952428817749 -0.324388891458511353
0.377705842256546021 -0.374616950750350952 -0.213485389947891235
0.371215581893920898 -0.357555389404296875 -0.213491454720497131
0.523907065391540527 -0.35213354229927063 -0.324761033058166504
0.52521282434463501 -0.36391112208366394 -0.322850674390792847
0.515381395816802979 -0.327677726745605469 -0.319837182760238647
0.479336708784103394 -0.352818429470062256 -0.311975777149200439
0.478302270174026489 -0.366088956594467163 -0.312692046165466309
-0.361695319414138794 0.30989760160446167 0.23963657021522522
-0.320766866207122803 0.103541038930416107 0.022166101261973381
-0.447535485029220581 0.203707516193389893 -0.0404170602560043335
-0.377622723579406738 0.278776109218597412 -0.00736824562773108482
-0.0225951839238405228 -0.2611866295337677 0.143804490566253662
-0.591851592063903809 0.360972464084625244 0.0640792921185493469
0.36741405725479126 -0.37394443154335022 -0.212281316518783569
-0.124082431197166443 -0.011132972314953804 0.00795395579189062119
0.396479636430740356 -0.353833794593811035 -0.218091875314712524
0.507225871086120605 -0.159948483109474182 0.12536214292049408
0.1954507976770401 0.124349266290664673 0.00646678125485777855
-0.0268607810139656067 0.166441291570663452 0.382949680089950562
-0.334122329950332642 -0.121619738638401031 0.100305333733558655
-0.325157254934310913 0.302356511354446411 -0.0367859043180942535
0.533934712409973145 -0.347236186265945435 0.0379958972334861755
0.525187015533447266 -0.332266330718994141 0.0346699915826320648
-0.595673680305480957 0.381626904010772705 0.113252259790897369
-0.0111332358792424202 -0.144679784774780273 -0.0268399305641651154
-0.235220178961753845 0.171524167060852051 -0.00168697221670299768
-0.485509812831878662 -0.0111263357102870941 0.177184149622917175
-0.277968108654022217 0.335578173398971558 0.0421505309641361237
0.513286888599395752 -0.349482983350753784 0.0972310081124305725
-0.448636263608932495 -0.0362856835126876831 0.117392495274543762
0.434264957904815674 -0.253631442785263062 0.331915467977523804
0.414754420518875122 -0.278740555047988892 0.327378541231155396
-0.468898624181747437 0.0339574627578258514 0.193536370992660522
0.502116560935974121 -0.339989840984344482 0.0081288069486618042
-0.481468170881271362 -0.00329090980812907219 0.177514731884002686
-0.377517223358154297 -0.107214100658893585 0.0929006636142730713
-0.501029253005981445 0.0217324532568454742 0.184284240007400513
0.360537141561508179 -0.287347197532653809 -0.141624182462692261
0.00152356782928109169 -0.231794118881225586 0.0900726765394210815
-0.140191555023193359 0.264633685350418091 0.088377736508846283
-0.129508331418037415 0.253956228494644165 0.0713779255747795105
0.312505811452865601 -0.293709009885787964 -0.131003186106681824
0.428100556135177612 -0.255870312452316284 0.330413162708282471
-0.615332543849945068 0.306205064058303833 0.392135143280029297
0.410632580518722534 -0.358423531055450439 -0.22615930438041687
0.504976749420166016 -0.346990734338760376 -0.319614827632904053
0.507671773433685303 -0.353028774261474609 -0.322323530912399292
0.523447692394256592 -0.298988133668899536 -0.318396866321563721
0.509631335735321045 -0.347338378429412842 -0.319940358400344849
0.269969135522842407 -0.169806629419326782 -0.079395487904548645
0.133820340037345886 0.119978092610836029 0.329153984785079956
0.251769274473190308 -0.285355091094970703 0.328266382217407227
0.324435621500015259 -0.120560653507709503 0.310779720544815063
0.302385121583938599 -0.204753175377845764 0.251298874616622925
0.250109881162643433 -0.00411690538749098778 0.325199723243713379
0.507140994071960449 -0.343519449234008789 0.087770514190196991
0.241783827543258667 0.0895417183637619019 0.310103118419647217
0.46275666356086731 -0.284520775079727173 -0.230913847684860229
-0.262124627828598022 0.313466727733612061 0.0457892902195453644
0.344068437814712524 -0.140315994620323181 0.329589486122131348
0.37375873327255249 -0.36430242657661438 -0.208484262228012085
0.337620139122009277 -0.129586130380630493 0.320831865072250366
0.526366889476776123 -0.34768366813659668 -0.323762774467468262
0.524133920669555664 -0.352540552616119385 -0.326317191123962402
0.479940980672836304 -0.372800767421722412 -0.312782198190689087
-0.360058695077896118 -0.065525345504283905 0.0828955322504043579
-0.407486051321029663 0.0880635976791381836 -0.113161377608776093
0.0141837913542985916 0.0977532342076301575 0.217176929116249084
-0.378596872091293335 -0.0937435552477836609 -0.0283160749822854996
0.265494108200073242 0.0680297687649726868 -0.0916585549712181091
-0.108248613774776459 -0.015593433752655983 0.0460400097072124481
-0.358165204524993896 -0.0925654694437980652 0.0129408650100231171
-0.290275603532791138 0.304299652576446533 0.16652815043926239
-0.355596244335174561 -0.0741005018353462219 0.0406427793204784393
-0.598514139652252197 0.294109433889389038 0.186471447348594666
0.24944007396697998 0.0964019596576690674 -0.0341501384973526001
0.379042685031890869 -0.355356156826019287 -0.209154561161994934
0.46963733434677124 -0.32509768009185791 0.138185173273086548
0.464354187250137329 -0.272245347499847412 -0.0927461683750152588
-0.43968626856803894 -0.0436129048466682434 0.0842230245471000671
-0.336391955614089966 -0.125285297632217407 0.127604663372039795
0.528165102005004883 -0.342307925224304199 0.051229577511548996
0.39271429181098938 0.0467669032514095306 0.133789941668510437
-0.185835182666778564 0.313614845275878906 0.107787638902664185
-0.441639721393585205 -0.043501049280166626 0.117791034281253815
0.537194788455963135 -0.326604396104812622 -0.0554284974932670593
-0.352948188781738281 0.305864721536636353 0.114126764237880707
0.493988990783691406 -0.346493244171142578 0.044312257319688797
-0.575491845607757568 0.304735183715820312 0.379277080297470093
0.430840730667114258 -0.281330853700637817 0.333867728710174561
-0.477650761604309082 0.00347856432199478149 0.164102792739868164
0.524805605411529541 -0.350276470184326172 -0.00235517765395343304
-0.0673874467611312866 -0.263268142938613892 0.298461169004440308
-0.51195073127746582 0.00404733791947364807 0.188026905059814453
0.389785856008529663 -0.360782533884048462 -0.215447589755058289
-0.118416778743267059 0.253933519124984741 0.0636081993579864502
-0.500462591648101807 0.00446027936413884163 0.193217605352401733
0.426325887441635132 -0.274832397699356079 0.330800026655197144
-0.333585262298583984 0.1035480797290802 -0.118511468172073364
-0.105771355330944061 0.253807008266448975 0.0936199575662612915
0.510551333427429199 -0.342231154441833496 -0.319417327642440796
-0.612794697284698486 0.302169084548950195 0.396158814430236816
-0.509016752243041992 0.0360481441020965576 0.188544794917106628
-0.29117390513420105 -0.0897404775023460388 -0.0786145776510238647
0.509406685829162598 -0.345510959625244141 -0.32084307074546814
0.0718981325626373291 0.138924196362495422 0.0725711658596992493
0.245637461543083191 0.106860801577568054 0.321550607681274414
0.473031103610992432 -0.287284344434738159 -0.230442732572555542
0.305143207311630249 -0.315056473016738892 0.331853717565536499
0.511620461940765381 -0.350579828023910522 -0.321869045495986938
-0.315457642078399658 -0.0875662639737129211 -0.0342763550579547882
0.514231979846954346 -0.356285601854324341 -0.32283589243888855
-0.62522965669631958 0.179849311709403992 -0.0862438306212425232
-0.353639781475067139 -0.0564972534775733948 -0.143979176878929138
-0.331199914216995239 0.268975675106048584 -0.0551257766783237457
-0.177254661917686462 0.13842754065990448 0.0050005386583507061
0.545250952243804932 -0.217855751514434814 0.159388095140457153
0.0306435171514749527 0.102130889892578125 0.0654122978448867798
0.509678959846496582 -0.331444799900054932 -0.319215744733810425
0.585694789886474609 -0.325741082429885864 -0.319810301065444946
0.249637290835380554 -0.288670778274536133 0.318485856056213379
0.255579173564910889 -0.00342247216030955315 0.328140825033187866
0.301450401544570923 -0.282929927110671997 0.331375718116760254
-0.344278156757354736 -0.0913672074675559998 0.0179676245898008347
-0.374470680952072144 -0.0905748605728149414 -0.018275214359164238
-0.0654344335198402405 -0.273917466402053833 0.15939640998840332
-0.6304587721824646 0.275201678276062012 0.0758393779397010803
0.366502344608306885 -0.366127461194992065 -0.212058752775192261
-0.124422922730445862 -0.0296672005206346512 -0.00660878652706742287
-0.598540365695953369 0.341875076293945312 0.0904257521033287048
0.443828761577606201 -0.249974682927131653 -0.286076605319976807
0.382550686597824097 -0.348605424165725708 -0.211919978260993958
0.312297672033309937 -0.373214304447174072 -0.155955895781517029
-0.179469019174575806 0.312255740165710449 0.0999784320592880249
0.534959852695465088 -0.31978192925453186 -0.032237667590379715
-0.655168890953063965 0.237914741039276123 0.0139569370076060295
-0.453100264072418213 -0.0544174164533615112 0.163246721029281616
0.499797046184539795 -0.349038779735565186 0.071533598005771637
0.440379321575164795 -0.261278390884399414 0.334482580423355103
0.50707852840423584 -0.344271719455718994 0.0300817340612411499
0.264533728361129761 0.121195115149021149 0.0272406172007322311
0.399814635515213013 0.0321698114275932312 0.139959931373596191
-0.10638640820980072 0.252202600240707397 0.0726507380604743958
0.316548973321914673 -0.381240993738174438 -0.156831875443458557
-0.566625535488128662 0.295054823160171509 -0.0515277758240699768
0.390243947505950928 -0.363300085067749023 -0.220828220248222351
0.35899767279624939 0.0330610424280166626 0.048739459365606308
0.194496884942054749 -0.365961313247680664 -0.0957199707627296448
0.391120880842208862 -0.356224924325942993 -0.2169533371925354
0.519548177719116211 -0.335747033357620239 -0.322362959384918213
0.522751510143280029 -0.333932369947433472 -0.323803752660751343
0.244308397173881531 0.0237874686717987061 0.324059188365936279
0.212374165654182434 -0.338956117630004883 0.318658351898193359
0.23713316023349762 0.10571414977312088 0.315121769905090332
0.521507978439331055 -0.337657302618026733 -0.325453072786331177
0.318047612905502319 -0.380349934101104736 -0.150985762476921082
0.584025204181671143 -0.318625152111053467 -0.334026575088500977
-0.381082892417907715 -0.0940139442682266235 -0.017781134694814682
0.458136558532714844 -0.325931817293167114 0.125199019908905029
0.388890057802200317 0.0531895197927951813 0.13177923858165741
-0.1737021803855896 0.30686265230178833 0.105860807001590729
-0.462236404418945312 -0.030612284317612648 0.134476602077484131
0.439517289400100708 -0.261862277984619141 0.335260480642318726
0.400229156017303467 0.0243620891124010086 0.128093898296356201
0.427198141813278198 -0.264005869626998901 0.332188725471496582
-0.509808003902435303 0.0037712103221565485 0.19081781804561615
-0.131035968661308289 0.253169655799865723 0.081552453339099884
-0.283902823925018311 0.335290610790252686 0.034221746027469635
0.455198794603347778 -0.259888976812362671 0.336789339780807495
-0.330813378095626831 0.0972169265151023865 -0.117710232734680176
-0.508518517017364502 0.0355617143213748932 0.188502177596092224
0.258086532354354858 0.00715774530544877052 0.327632546424865723
0.445774435997009277 -0.256404370069503784 0.333972543478012085
0.236274749040603638 0.108720466494560242 0.308892607688903809
0.302355527877807617 -0.329546838998794556 0.334493011236190796
-0.320477873086929321 0.266391545534133911 -0.0470130443572998047
-0.13350147008895874 -0.269143849611282349 -0.00487452931702136993
-0.377174019813537598 -0.0760554969310760498 0.0238749291747808456
-0.375795632600784302 -0.064205169677734375 -0.160040915012359619
-0.494878917932510376 -0.0232741031795740128 0.17377123236656189
-0.527845025062561035 -0.00738471373915672302 0.186606943607330322
0.381973832845687866 -0.367093443870544434 -0.219017654657363892
0.389053225517272949 -0.330539703369140625 0.186696469783782959
-0.57793724536895752 0.291337579488754272 -0.0410124547779560089
0.241658419370651245 0.0879844427108764648 -0.0393685325980186462
0.374446243047714233 -0.351958215236663818 -0.209603577852249146
0.187264040112495422 0.107489645481109619 0.00188767141662538052
-0.341738671064376831 0.272481173276901245 -0.0519492700695991516
0.532291769981384277 -0.354184538125991821 0.0536081232130527496
-0.113735221326351166 0.184964433312416077 0.354518890380859375
-0.215748563408851624 0.312943816184997559 0.112002007663249969
0.470294177532196045 -0.305547803640365601 -0.235521227121353149
0.536270380020141602 -0.321377545595169067 -0.026018872857093811
-0.266289740800857544 0.309514433145523071 0.0453027598559856415
0.27885022759437561 0.00796101707965135574 -0.0271676890552043915
0.384362936019897461 -0.3626747727394104 -0.216734379529953003
0.0279174260795116425 -0.0960039123892784119 0.018842717632651329
-0.416899949312210083 -0.0582020431756973267 0.133097037672996521
0.385061681270599365 -0.288054913282394409 -0.109424196183681488
0.382059961557388306 -0.363734960556030273 -0.219318360090255737
0.199707448482513428 -0.366865962743759155 -0.0959478914737701416
0.387521624565124512 -0.354625880718231201 -0.216371819376945496
0.511561930179595947 -0.337413191795349121 -0.319643467664718628
0.512871325016021729 -0.33717644214630127 -0.321825563907623291
0.233161553740501404 0.0338977128267288208 0.318903148174285889
0.241937190294265747 0.0886797681450843811 0.30997169017791748
0.362517207860946655 -0.283251583576202393 0.316303610801696777
0.530315756797790527 -0.347018778324127197 -0.329871177673339844
0.200589045882225037 -0.190922215580940247 -0.0716733783483505249
-0.192915722727775574 0.133076667785644531 0.0088595263659954071
0.321022123098373413 -0.37492033839225769 -0.158395648002624512
0.204444065690040588 -0.325955718755722046 0.315880179405212402
0.322710812091827393 -0.27788776159286499 0.31736794114112854
-0.499377191066741943 0.015710093080997467 0.183666601777076721
0.347349762916564941 -0.273494929075241089 -0.132043182849884033
0.244866937398910522 0.0210664868354797363 0.3218117356300354
0.195430785417556763 -0.167855769395828247 -0.0676410868763923645
0.0376701727509498596 0.13119041919708252 0.105509482324123383
-0.455050081014633179 -0.0513216108083724976 0.154827013611793518
-0.140319854021072388 0.268862158060073853 0.0798708871006965637
0.539821088314056396 -0.226594582200050354 0.173039451241493225
0.236381560564041138 0.104090467095375061 0.309486746788024902
-0.45257076621055603 -0.0280417967587709427 0.12403513491153717
-0.509376764297485352 0.000837175699416548014 0.173285022377967834
0.236304894089698792 0.0833065733313560486 0.310739487409591675
-0.487973272800445557 -0.0234898924827575684 0.177674129605293274
-0.520317375659942627 -0.00233399262651801109 0.186753258109092712
-0.0836446508765220642 0.0733162164688110352 0.0420322008430957794
0.367869853973388672 -0.0233339462429285049 -0.0819522887468338013
-0.231959328055381775 0.0465513914823532104 -0.0685922726988792419
0.494941741228103638 -0.341737657785415649 -0.449604570865631104
-0.628007233142852783 0.29151114821434021 0.175394356250762939
-0.111480347812175751 0.153042584657669067 0.049274444580078125
0.522609353065490723 -0.345296919345855713 -0.0207147467881441116
-0.583230912685394287 0.373971521854400635 0.184954971075057983
-0.185897707939147949 0.312727957963943481 0.131676316261291504
0.0271665919572114944 -0.125681087374687195 -0.0346300564706325531
0.320151776075363159 0.0745179727673530579 -0.107259683310985565
-0.037459980696439743 0.156404078006744385 0.385374009609222412
0.476339429616928101 -0.308589547872543335 -0.227003633975982666
0.496009230613708496 -0.291576862335205078 -0.16757434606552124
0.449492216110229492 -0.255506694316864014 0.333103179931640625
0.506660282611846924 -0.359609335660934448 0.0420912951231002808
0.42523840069770813 -0.285947263240814209 0.329851716756820679
0.503778338432312012 -0.347973644733428955 0.0200008414685726166
0.400196582078933716 -0.345174431800842285 -0.215631827712059021
-0.490158200263977051 0.046606503427028656 -0.0941102877259254456
-0.128110304474830627 0.260576814413070679 0.0787130296230316162
0.326301425695419312 -0.37318006157875061 -0.154859572649002075
0.319543570280075073 -0.293705940246582031 -0.132146701216697693
0.433472961187362671 -0.29633215069770813 0.333315670490264893
0.409543931484222412 -0.356685519218444824 -0.225694477558135986
0.223521217703819275 -0.336823970079421997 0.317964136600494385
0.240278542041778564 0.087892971932888031 0.309250116348266602
0.368644088506698608 -0.322325736284255981 0.320300847291946411
0.521121382713317871 -0.35899806022644043 -0.325637280941009521
-0.260242640972137451 -0.146270513534545898 -0.0598335936665534973
0.527024984359741211 -0.340445727109909058 0.0353457406163215637
