ply
format ascii 1.0
element vertex 738
property float x
property float y
property float z
end_header
-0.483262330293655396 0.182550579309463501 -0.210249871015548706
-0.376157552003860474 -0.0633775144815444946 0.0915802642703056335
0.52301478385925293 -0.32124742865562439 0.0358397588133811951
0.542524933815002441 -0.217632800340652466 0.108217775821685791
0.525837719440460205 -0.273797988891601562 0.0552720986306667328
0.111305214464664459 0.0839760303497314453 0.317145705223083496
-0.350927412509918213 -0.0481876656413078308 0.0448717251420021057
0.105216659605503082 0.0721066594123840332 0.295382857322692871
-0.165271744132041931 0.13290676474571228 0.1512012779712677
0.502852976322174072 -0.256787240505218506 -0.1025552898645401
0.429052859544754028 -0.304116785526275635 0.135905221104621887
-0.355728179216384888 -0.10170050710439682 0.15896393358707428
0.498716354370117188 -0.201905548572540283 -0.108035311102867126
-0.57848358154296875 0.348070651292800903 0.151969850063323975
0.105131871998310089 -0.0117169991135597229 0.0209694169461727142
-0.341223746538162231 -0.123672604560852051 0.104499861598014832
-0.120675414800643921 -0.275937914848327637 0.174019291996955872
-0.16110694408416748 0.167235791683197021 0.325077146291732788
0.515116512775421143 -0.358891099691390991 0.0267741363495588303
0.521161913871765137 -0.287867277860641479 -0.0117249796167016029
0.479029089212417603 -0.140171974897384644 0.107565946877002716
-0.180843070149421692 0.0290785953402519226 0.0257418695837259293
-0.341939657926559448 -0.121893338859081268 0.10364224761724472
-0.600184917449951172 0.376799643039703369 0.188226655125617981
-0.11966174840927124 -0.267028510570526123 0.218284234404563904
0.523550271987915039 -0.309132158756256104 -0.0748376995325088501
0.516372382640838623 -0.252444446086883545 -0.309643954038619995
0.455022066831588745 -0.308575987815856934 -0.294580847024917603
0.24074910581111908 -0.0961498692631721497 0.15854644775390625
-0.620190560817718506 0.272188305854797363 0.036990821361541748
-0.429908543825149536 -0.00401573441922664642 0.17722676694393158
-0.250407993793487549 -0.137199893593788147 -0.071221373975276947
0.317442238330841064 -0.319236546754837036 0.122505687177181244
0.539450228214263916 -0.249961808323860168 0.106608673930168152
0.452856451272964478 -0.139996901154518127 0.0153388837352395058
0.429486244916915894 -0.321275383234024048 0.123692743480205536
0.413355976343154907 -0.331144422292709351 -0.20989634096622467
0.473970472812652588 -0.128744125366210938 0.109447024762630463
-0.548941493034362793 0.378598719835281372 0.172452211380004883
0.190622508525848389 -0.340114891529083252 -0.0134025262668728828
-0.201686382293701172 -0.135715529322624207 -0.0685754641890525818
-0.185488969087600708 0.312087804079055786 0.117759130895137787
0.103469260036945343 0.107643604278564453 0.174328982830047607
-0.444272130727767944 -0.0545429624617099762 0.0917365923523902893
-0.489325433969497681 0.0298801641911268234 0.0167058892548084259
0.231537938117980957 0.0109364623203873634 0.31495240330696106
-0.024599933996796608 0.113113909959793091 0.312372893095016479
0.243403419852256775 -0.0387498028576374054 0.204574868083000183
-0.384813189506530762 0.245285823941230774 0.0341779366135597229
-0.65401923656463623 0.216657534241676331 -0.0394154004752635956
0.483139693737030029 -0.116430513560771942 0.0233617201447486877
0.122323587536811829 0.0794215574860572815 0.138437122106552124
-0.381859570741653442 -0.0728165954351425171 0.0955299511551856995
0.319843858480453491 -0.0725087374448776245 0.0623033158481121063
-0.440605759620666504 -0.0118620041757822037 0.00673051550984382629
-0.502150356769561768 0.23362375795841217 -0.0712505429983139038
-0.54720383882522583 0.20336383581161499 -0.0686662048101425171
0.0887130498886108398 0.0915976837277412415 0.0798913612961769104
-0.519835293292999268 0.204470023512840271 -0.0473110787570476532
-0.168156847357749939 0.0723020285367965698 0.23242206871509552
-0.0572532713413238525 -0.187094733119010925 0.0267119947820901871
-0.212440237402915955 0.290773868560791016 0.109011828899383545
0.249782055616378784 -0.00553741771727800369 0.0222221501171588898
-0.555727839469909668 0.204295024275779724 0.118208996951580048
-0.457277834415435791 0.216369375586509705 0.024408191442489624
-0.462579816579818726 0.266441822052001953 -0.00285525782965123653
-0.575399041175842285 0.247536927461624146 -0.0765963718295097351
-0.3893299400806427 0.275097429752349854 -0.0842417627573013306
0.343938082456588745 -0.134783282876014709 0.318798243999481201
-0.498553633689880371 0.206758067011833191 -0.0117493309080600739
-0.345960944890975952 0.292814254760742188 -0.0502543710172176361
0.526117980480194092 -0.36131364107131958 0.041682414710521698
-0.539895296096801758 0.215076863765716553 0.200938940048217773
-0.569251179695129395 0.294351935386657715 -0.00331199029460549355
0.316754370927810669 0.0236186906695365906 0.0486352518200874329
0.482101380825042725 -0.307298451662063599 -0.303834080696105957
0.479850262403488159 -0.326537281274795532 0.125293239951133728
0.523314356803894043 -0.307272911071777344 -0.0988354086875915527
0.490453153848648071 -0.311064720153808594 -0.307593435049057007
0.516366004943847656 -0.325261473655700684 0.11976151168346405
0.444628864526748657 -0.30049365758895874 -0.290821582078933716
0.523331999778747559 -0.304823160171508789 -0.0974982753396034241
0.13439825177192688 0.116309873759746552 0.336989641189575195
-0.642360448837280273 0.24253399670124054 -0.0096046794205904007
-0.292613029479980469 -0.114182472229003906 -0.105798922479152679
0.539386212825775146 -0.255705982446670532 0.0921044871211051941
0.129255175590515137 0.0975098386406898499 0.317264676094055176
-0.235207751393318176 -0.143842652440071106 -0.0714550837874412537
0.252567946910858154 0.0299257151782512665 -0.0860982984304428101
0.531094372272491455 -0.323398172855377197 0.00672376109287142754
-0.599320530891418457 0.307320564985275269 0.104342080652713776
0.532242774963378906 -0.244877606630325317 0.0864522606134414673
-0.374043315649032593 -0.0610724501311779022 0.0922402814030647278
0.526678502559661865 -0.275583595037460327 -0.123385310173034668
-0.50113600492477417 0.148650273680686951 0.352945119142532349
0.385310828685760498 -0.297863095998764038 0.131743714213371277
0.132801830768585205 -0.332317054271697998 -0.100568823516368866
0.52288663387298584 -0.355132579803466797 -0.0150431161746382713
-0.436464846134185791 0.150379672646522522 -0.0851363688707351685
0.515908718109130859 -0.300348430871963501 0.0646080225706100464
0.393176794052124023 -0.368195056915283203 -0.213845878839492798
0.500685453414916992 -0.171651303768157959 0.129941746592521667
0.533366084098815918 -0.33426433801651001 0.0282882563769817352
-0.579902231693267822 0.348845928907394409 0.0401488021016120911
0.52005469799041748 -0.241198718547821045 -0.308887988328933716
-0.600998878479003906 0.370632559061050415 0.104513227939605713
-0.500637412071228027 0.147020995616912842 0.355150282382965088
0.234104499220848083 -0.278030037879943848 0.317330121994018555
-0.181324422359466553 -0.137333765625953674 -0.0557373203337192535
-0.228364869952201843 -0.138293832540512085 -0.0536226630210876465
-0.204242542386054993 0.298381805419921875 0.126598775386810303
0.26266103982925415 -0.289837360382080078 0.323623538017272949
-0.362266331911087036 -0.0307506434619426727 0.119464106857776642
-0.50010073184967041 0.0192183014005422592 0.0317427255213260651
0.243021875619888306 1.32593122543767095e-05 0.322195172309875488
0.141470268368721008 -0.29062342643737793 0.311681509017944336
0.308245956897735596 -0.207705840468406677 0.248114973306655884
-0.386124759912490845 0.254816114902496338 0.0342315845191478729
0.531258523464202881 -0.262494474649429321 0.102833487093448639
0.224234819412231445 0.0226586740463972092 0.305348694324493408
0.530669987201690674 -0.147627606987953186 -0.308423042297363281
-0.644874453544616699 0.231309875845909119 -0.0476475581526756287
0.54139256477355957 -0.311202168464660645 -0.0445645935833454132
0.507889389991760254 -0.268030405044555664 -0.31166800856590271
0.51437222957611084 -0.316387593746185303 -0.295250862836837769
0.458924770355224609 -0.291173189878463745 -0.296754926443099976
-0.543133318424224854 0.268110424280166626 -0.189499437808990479
-0.621427655220031738 0.288948476314544678 0.0665101930499076843
0.363543808460235596 -0.38453027606010437 -0.206260412931442261
-0.0924002304673194885 0.267253011465072632 0.18922056257724762
-0.44847869873046875 0.131172463297843933 -0.208942532539367676
-0.575460910797119141 0.203715786337852478 -0.127248510718345642
-0.630078434944152832 0.191642537713050842 -0.0400755703449249268
-0.469785243272781372 0.138822868466377258 -0.231253191828727722
0.257793784141540527 -0.0171803031116724014 -0.0722887590527534485
0.230659544467926025 0.0537934154272079468 -0.0453612618148326874
0.113206706941127777 0.109713345766067505 0.301527291536331177
-0.584133505821228027 0.218335747718811035 -0.221617206931114197
-0.598219692707061768 0.235196501016616821 -0.0109463557600975037
-0.36700400710105896 -0.0919478461146354675 0.122723370790481567
-0.329991698265075684 -0.125583082437515259 0.137183472514152527
-0.634608626365661621 0.199565708637237549 -0.0384918898344039917
-0.425682872533798218 -0.0551111474633216858 0.0991056039929389954
-0.478087037801742554 0.0199686605483293533 -0.0367126986384391785
0.208815291523933411 0.00852305535227060318 0.300730586051940918
-0.634189724922180176 0.248065799474716187 -0.00617601256817579269
-0.127986297011375427 0.269909471273422241 0.132086649537086487
0.271201252937316895 -0.330464541912078857 0.180007651448249817
0.533157646656036377 -0.210321485996246338 -0.0990153774619102478
-0.126452475786209106 -0.112877018749713898 -0.0549736544489860535
0.454220801591873169 -0.339145779609680176 -0.298269808292388916
-0.212610051035881042 0.0360999740660190582 -0.0598592013120651245
-0.553200304508209229 0.175720617175102234 0.012617720291018486
-0.198509484529495239 0.139580637216567993 0.020967382937669754
-0.0125042041763663292 -0.102706305682659149 -0.0431464165449142456
0.264882445335388184 -0.275056004524230957 0.202353969216346741
0.348803550004959106 -0.321301311254501343 -0.000181236449861899018
-0.155918285250663757 0.0697027221322059631 0.0273524969816207886
-0.249209538102149963 0.13073219358921051 -0.0346105881035327911
0.19926026463508606 0.00159917073324322701 0.0188786759972572327
0.0764590650796890259 0.0808212459087371826 0.0237417705357074738
-0.283467948436737061 0.288343459367752075 -0.00608822889626026154
0.47700268030166626 -0.290060460567474365 -0.301914691925048828
-0.556901812553405762 0.265768527984619141 -0.0174291636794805527
-0.237394854426383972 0.0975560545921325684 -0.0326284989714622498
0.137964829802513123 -0.281026899814605713 0.149957165122032166
0.296503245830535889 -0.297563821077346802 0.0567810423672199249
-0.286060571670532227 0.257292777299880981 0.000391231820685788989
-0.0209980998188257217 -0.0404800474643707275 0.08882179856300354
0.204648613929748535 0.0427173115313053131 0.0655132681131362915
-0.143699362874031067 -0.0853488817811012268 0.0915658473968505859
0.372663736343383789 -0.0734648704528808594 0.0313718207180500031
0.521460950374603271 -0.199256479740142822 -0.0987116023898124695
0.487142026424407959 -0.298056572675704956 -0.305568873882293701
0.480574816465377808 -0.314996302127838135 0.122187249362468719
0.513692200183868408 -0.307386338710784912 -0.10258706659078598
0.496061116456985474 -0.309686154127120972 -0.309934288263320923
0.506273984909057617 -0.328011035919189453 -0.00428327592089772224
0.511867880821228027 -0.324698060750961304 0.118223987519741058
0.465932995080947876 -0.288963973522186279 -0.296770095825195312
0.438057392835617065 -0.26362907886505127 -0.194497480988502502
0.135205954313278198 0.116957597434520721 0.336905300617218018
0.396678537130355835 -0.244415640830993652 0.318669795989990234
-0.601671278476715088 0.354386597871780396 0.0653907358646392822
-0.505270719528198242 0.357286155223846436 0.178189262747764587
0.542760968208312988 -0.28266569972038269 0.097780473530292511
0.256515979766845703 0.036892235279083252 -0.0722972750663757324
-0.233209505677223206 0.155951455235481262 -0.00546343903988599777
0.506264150142669678 -0.332179009914398193 -0.00270515494048595428
0.444854944944381714 -0.250214874744415283 -0.228224247694015503
-0.639192879199981689 0.254555225372314453 0.0543929599225521088
0.532736063003540039 -0.262831658124923706 0.0930908173322677612
-0.393223315477371216 -0.0594422481954097748 0.100298486649990082
0.523995935916900635 -0.289843827486038208 -0.0922819077968597412
0.0280094873160123825 -0.274414420127868652 -0.0354838371276855469
0.385275572538375854 -0.306205153465270996 0.118666119873523712
-0.58235400915145874 0.366938501596450806 0.131580278277397156
0.240325659513473511 0.00292301061563193798 0.180956944823265076
-0.113053619861602783 0.165547564625740051 0.347406536340713501
0.482281357049942017 -0.368562221527099609 -0.0222298689186573029
0.412281781435012817 -0.321385383605957031 -0.211233764886856079
0.507409155368804932 -0.155610233545303345 0.123853549361228943
0.528915524482727051 -0.334901273250579834 0.0126571767032146454
-0.584301888942718506 0.33652043342590332 0.0339692793786525726
-0.590929210186004639 0.382044374942779541 0.131139859557151794
0.526347041130065918 -0.244557484984397888 -0.310861885547637939
0.474473357200622559 -0.290984094142913818 -0.299666374921798706
-0.597393453121185303 0.353811889886856079 0.169535532593727112
-0.587520718574523926 0.371578902006149292 0.10097871720790863
-0.212178677320480347 -0.129798948764801025 -0.057854238897562027
0.234433144330978394 -0.293128609657287598 0.31490054726600647
0.238138124346733093 0.067179851233959198 0.319935202598571777
0.541944563388824463 -0.314043700695037842 -0.0582876577973365784
-0.444823533296585083 -0.0485574677586555481 0.126942858099937439
0.359579592943191528 -0.388607978820800781 -0.209205761551856995
-0.556739330291748047 0.211183667182922363 -0.113816894590854645
0.520885109901428223 -0.279759496450424194 -0.177311286330223083
0.241997018456459045 0.0348077490925788879 0.314416110515594482
0.242839425802230835 0.000450819381512701511 0.0234521254897117615
0.380782634019851685 0.038910258561372757 0.0116849076002836227
0.526819467544555664 -0.230850502848625183 -0.310370266437530518
0.32707589864730835 0.096294306218624115 -0.0361311323940753937
-0.374395668506622314 -0.0604909211397171021 -0.133060768246650696
0.513033747673034668 -0.167612403631210327 0.135752424597740173
-0.574673473834991455 0.322113841772079468 0.0493371821939945221
-0.559186160564422607 0.283531546592712402 0.363986045122146606
0.224488213658332825 0.0319870114326477051 -0.058416072279214859
-0.574520111083984375 0.21464906632900238 -0.221252068877220154
-0.0443274118006229401 0.156637981534004211 0.0810183882713317871
0.114112257957458496 0.110124289989471436 0.0252416264265775681
0.342802822589874268 -0.247151359915733337 -0.097080036997795105
-0.285252571105957031 0.300548464059829712 -0.00298077682964503765
0.15333499014377594 -0.00438104011118412018 -0.00378055707551538944
0.0690700039267539978 0.138916239142417908 0.0754655748605728149
-0.270236492156982422 0.280288159847259521 0.00154126179404556751
0.503427445888519287 -0.292811661958694458 -0.159549281001091003
0.136997848749160767 -0.0258255917578935623 0.0129115013405680656
-0.339182883501052856 -0.0321508981287479401 0.0226506683975458145
0.373478889465332031 -0.0918687358498573303 0.0440905243158340454
0.199980452656745911 0.101344123482704163 -0.0020317866001278162
-0.297415673732757568 -0.0251694731414318085 0.0357849113643169403
0.131792977452278137 -0.0178196728229522705 -0.0263046454638242722
0.101419851183891296 0.0160629823803901672 0.0910359546542167664
0.175723060965538025 0.119460560381412506 0.0378279723227024078
-0.230627685785293579 -0.0638059079647064209 0.104519076645374298
0.486126989126205444 -0.296920180320739746 -0.303797334432601929
-0.603358030319213867 0.289590984582901001 0.184979498386383057
0.46729809045791626 -0.30887448787689209 0.119941651821136475
0.378347307443618774 -0.0144317401573061943 0.00616048602387309074
0.514442384243011475 -0.295517325401306152 -0.103680700063705444
0.518887996673583984 -0.239946469664573669 -0.307869911193847656
0.477959752082824707 -0.30998954176902771 -0.300550103187561035
0.483434349298477173 -0.274766206741333008 -0.300182431936264038
0.117255352437496185 0.118843838572502136 0.297470122575759888
-0.584376037120819092 0.356454253196716309 0.0656124725937843323
0.383821934461593628 -0.33749920129776001 0.125363901257514954
-0.574657559394836426 0.317774951457977295 -0.0267625097185373306
-0.60462111234664917 0.217154085636138916 -0.0871194005012512207
0.267787456512451172 0.0392923019826412201 -0.0864950641989707947
-0.35657268762588501 -0.0223648305982351303 -0.131353810429573059
-0.564464330673217773 0.314404189586639404 -0.00811915192753076553
0.190674498677253723 -0.341062545776367188 -0.0749635025858879089
0.40420106053352356 -0.357886135578155518 -0.224285170435905457
-0.500386059284210205 0.145604074001312256 0.354494094848632812
0.509710729122161865 -0.15157143771648407 0.114823147654533386
0.496895253658294678 -0.264164060354232788 -0.304664433002471924
0.458016335964202881 -0.281132668256759644 -0.29001915454864502
0.440975159406661987 -0.265202462673187256 -0.28397601842880249
-0.58819282054901123 0.35755881667137146 0.0615258440375328064
0.505316972732543945 -0.126877561211585999 0.12424081563949585
-0.206346899271011353 0.312551498413085938 0.10857989639043808
0.268251001834869385 -0.284148812294006348 0.319080144166946411
0.232617944478988647 0.00355252623558044434 0.317719876766204834
0.513303577899932861 -0.17586033046245575 -0.282034069299697876
-0.115302547812461853 0.00979709252715110779 0.00568638788536190987
0.403932422399520874 -0.359915554523468018 -0.22490847110748291
0.417709708213806152 -0.313420981168746948 0.143624380230903625
-0.555671513080596924 0.376600861549377441 0.186602488160133362
-0.175749629735946655 0.309223175048828125 0.118257500231266022
-0.389926612377166748 0.276069909334182739 -0.0852428451180458069
0.365346282720565796 0.0518546365201473236 0.024392988532781601
0.129230126738548279 0.115743175148963928 0.318700909614562988
-0.286667406558990479 -0.100852459669113159 -0.0922445207834243774
0.258176445960998535 0.100957959890365601 -0.062262512743473053
-0.361409693956375122 -0.0600499585270881653 -0.144324466586112976
0.134183764457702637 0.113707289099693298 0.337649285793304443
-0.563287734985351562 0.199292093515396118 -0.229230731725692749
-0.276576012372970581 0.288069695234298706 -0.00108685810118913651
0.454931467771530151 -0.246684908866882324 -0.288566619157791138
0.460280120372772217 -0.275661647319793701 -0.291087090969085693
-0.635014116764068604 0.308226674795150757 0.170181632041931152
0.512575864791870117 -0.317677140235900879 -0.0387604944407939911
0.468984097242355347 -0.266053855419158936 -0.298217713832855225
0.478199273347854614 -0.295283675193786621 -0.300490498542785645
0.458188742399215698 -0.246468350291252136 -0.290138334035873413
0.38116726279258728 -0.361252754926681519 -0.214096173644065857
-0.479536443948745728 -0.0126947294920682907 0.185700267553329468
-0.516642391681671143 0.365863621234893799 0.173887461423873901
-0.618700623512268066 0.202036857604980469 -0.0873827636241912842
-0.237414076924324036 0.0186776909977197647 -0.0727534070611000061
-0.382698386907577515 -0.0592379868030548096 0.0235374625772237778
0.474970012903213501 -0.368549525737762451 0.0216489098966121674
-0.649410843849182129 0.236786022782325745 0.0320189371705055237
0.412629663944244385 -0.346980512142181396 -0.221882566809654236
0.526172101497650146 -0.337330818176269531 0.0799214020371437073
0.506081819534301758 -0.239249914884567261 -0.308332741260528564
0.249604076147079468 -0.282334834337234497 0.318137764930725098
0.23929305374622345 0.0666090473532676697 0.314479231834411621
0.539656758308410645 -0.302043676376342773 -0.0938536673784255981
-0.44797942042350769 -0.0415558405220508575 0.126373901963233948
-0.0438624955713748932 0.104485996067523956 0.317660689353942871
0.24805295467376709 0.0210477560758590698 0.322047203779220581
-0.284990966320037842 -0.0999848619103431702 -0.0992634594440460205
-0.137837037444114685 -0.0152360387146472931 -0.0490305423736572266
-0.278017967939376831 0.337953150272369385 0.0468243807554244995
-0.254853159189224243 0.289966940879821777 -0.00342264305800199509
-0.219021528959274292 0.321973949670791626 0.0696706473827362061
-0.573401272296905518 0.152229428291320801 -0.0747000277042388916
-0.290099173784255981 0.292770057916641235 0.0158637445420026779
0.525736689567565918 -0.320849597454071045 0.0270197298377752304
0.346196532249450684 -0.0305404160171747208 -0.0347019210457801819
0.522357165813446045 -0.363098025321960449 0.0892607793211936951
-0.0833431035280227661 -0.111996620893478394 0.0782967284321784973
-0.404132157564163208 0.32612040638923645 0.121069654822349548
0.504859626293182373 -0.367280632257461548 -0.00464791944250464439
-0.118761122226715088 0.26615983247756958 0.120769932866096497
0.518831849098205566 -0.343147039413452148 0.0356930308043956757
0.130312114953994751 -0.334809243679046631 0.301153570413589478
0.466742366552352905 -0.31123119592666626 0.0723093375563621521
0.482973724603652954 -0.374201357364654541 0.0521790720522403717
0.421209663152694702 -0.0260853171348571777 0.064660295844078064
0.494252711534500122 -0.363742947578430176 -0.0157007761299610138
-0.233072668313980103 0.287220686674118042 0.0839623436331748962
0.531324684619903564 -0.33195573091506958 -0.00738715240731835365
-0.272077858448028564 0.315480887889862061 0.113803386688232422
0.30834120512008667 0.00257141771726310253 0.0460876375436782837
0.467465966939926147 -0.263660937547683716 -0.296289294958114624
0.473945736885070801 -0.304497092962265015 0.114093519747257233
0.511262238025665283 -0.313852071762084961 -0.104575783014297485
0.509230494499206543 -0.245599523186683655 -0.308650195598602295
0.447990298271179199 -0.29276508092880249 -0.292975544929504395
0.466435253620147705 -0.283532381057739258 -0.297494649887084961
0.138417467474937439 0.112825900316238403 0.336589038372039795
-0.652248978614807129 0.285794764757156372 0.0978043079376220703
-0.638450443744659424 0.244867444038391113 -0.0384034402668476105
0.13639385998249054 0.0692898482084274292 0.337715834379196167
-0.577257275581359863 0.303888708353042603 -0.0557619072496891022
0.262565374374389648 0.0304662007838487625 -0.0737022235989570618
0.542080044746398926 -0.216863811016082764 0.111415855586528778
-0.360203564167022705 -0.0360169149935245514 -0.1345319002866745
-0.574900627136230469 0.32758629322052002 -0.0297691989690065384
-0.361885577440261841 -0.071192324161529541 -0.0341786332428455353
-0.130619406700134277 -0.267862379550933838 0.118941336870193481
0.495227605104446411 -0.366036683320999146 -0.000533942773472517729
0.373857736587524414 -0.359650522470474243 -0.210262119770050049
-0.378469645977020264 -0.107160709798336029 0.101148992776870728
-0.0671168267726898193 -0.264231592416763306 0.296382427215576172
0.519911766052246094 -0.243550315499305725 -0.309668809175491333
0.509561896324157715 -0.330759048461914062 0.0151101900264620781
-0.593500256538391113 0.369111418724060059 0.120395518839359283
-0.655500233173370361 0.175669372081756592 -0.103224091231822968
-0.223122060298919678 -0.144446432590484619 -0.0539283975958824158
-0.191336408257484436 0.316736012697219849 0.100531429052352905
0.256708294153213501 -0.28362429141998291 0.319571584463119507
0.23926098644733429 0.0322374403476715088 0.31895369291305542
-0.12017831951379776 -0.0462685786187648773 0.00708796456456184387
-0.641695499420166016 0.308738082647323608 0.101673372089862823
0.364741533994674683 -0.374199062585830688 -0.207175582647323608
0.53786623477935791 -0.217871218919754028 0.161711692810058594
-0.552891075611114502 0.382600396871566772 0.157797083258628845
-0.122546479105949402 0.259372293949127197 0.114901870489120483
0.119494423270225525 0.102471426129341125 0.0892246663570404053
-0.375593751668930054 0.265906840562820435 -0.0897822082042694092
0.516991972923278809 -0.349243283271789551 0.0986266955733299255
-0.293648421764373779 -0.107457160949707031 -0.109512239694595337
0.275095969438552856 0.103015422821044922 -0.0579020306468009949
-0.575254380702972412 0.21956220269203186 -0.212845861911773682
-0.115578807890415192 0.268665403127670288 0.179599657654762268
0.23605838418006897 -0.288111627101898193 0.31425940990447998
0.310239017009735107 -0.187432929873466492 0.240871936082839966
0.541853547096252441 -0.32604062557220459 -0.0210856981575489044
0.0789809152483940125 -0.337923318147659302 0.282104313373565674
-0.00643891654908657074 -0.172088667750358582 0.00403418112546205521
-0.282382547855377197 0.261801630258560181 0.00683036120608448982
0.513164162635803223 -0.237319797277450562 -0.309666723012924194
-0.647054314613342285 0.27834397554397583 0.079340130090713501
-0.646432936191558838 0.183187246322631836 -0.0910731106996536255
0.514199674129486084 -0.322714626789093018 0.0241226423531770706
-0.407036095857620239 -0.0638391301035881042 0.113343611359596252
0.5169106125831604 -0.355917841196060181 -0.0207916218787431717
-0.566703319549560547 0.374469280242919922 0.152300029993057251
0.236016213893890381 0.0430538654327392578 0.313499718904495239
-0.664931237697601318 0.227176621556282043 0.0229022838175296783
-0.448187977075576782 -0.0386555977165699005 0.126882642507553101
0.50306403636932373 -0.302499711513519287 -0.179079487919807434
-0.589249610900878906 0.361169189214706421 0.0858933031558990479
-0.194178447127342224 0.315009117126464844 0.10465008020401001
0.247036755084991455 0.0239529572427272797 0.323641091585159302
0.530996203422546387 -0.324010789394378662 -0.0582581907510757446
-0.182919397950172424 0.307107448577880859 0.128266796469688416
0.24728238582611084 0.00701994169503450394 0.32377469539642334
0.0586936436593532562 0.139709532260894775 0.345544636249542236
-0.505810797214508057 0.149407923221588135 0.356694132089614868
0.270765870809555054 -0.311377674341201782 0.326119393110275269
-0.253847837448120117 0.0234170146286487579 -0.0709633678197860718
0.24110761284828186 -0.295424342155456543 0.322363972663879395
0.249071851372718811 0.043842025101184845 0.31422695517539978
0.468486398458480835 -0.102048628032207489 0.0344016291201114655
-0.124804310500621796 0.19513915479183197 0.115173101425170898
0.239996924996376038 -0.326757222414016724 0.317818552255630493
0.500343859195709229 -0.366796880960464478 0.074494481086730957
0.523529410362243652 -0.324918240308761597 0.0260431487113237381
0.444707274436950684 -0.25336572527885437 0.332227319478988647
0.321559667587280273 -0.13157808780670166 -0.106915339827537537
0.0633866935968399048 -0.0107925748452544212 0.321512341499328613
0.511392176151275635 -0.361099213361740112 0.0473516732454299927
0.135722264647483826 -0.100813567638397217 0.0402905009686946869
0.0495506376028060913 0.0114769591018557549 0.0294565055519342422
0.0208019819110631943 0.048183150589466095 0.0423209704458713531
0.0881628021597862244 -0.0661414414644241333 0.289452940225601196
-0.162166401743888855 -0.265947401523590088 0.147843942046165466
0.265048027038574219 -0.0202078167349100113 0.061299007385969162
-0.0289261750876903534 -0.0291022416204214096 0.295372903347015381
0.502234399318695068 -0.240566849708557129 -0.302250862121582031
0.475995481014251709 -0.315223067998886108 -0.302184492349624634
-0.630994319915771484 0.306375652551651001 0.167166039347648621
0.475582391023635864 -0.321014314889907837 0.120861344039440155
0.509174764156341553 -0.301075458526611328 -0.105740435421466827
0.528278529644012451 -0.275154381990432739 -0.317422568798065186
0.493605107069015503 -0.332691788673400879 -0.310933172702789307
0.503625333309173584 -0.320338040590286255 0.0978552326560020447
0.47424548864364624 -0.306056559085845947 -0.298338502645492554
-0.559419214725494385 0.268172293901443481 0.364312857389450073
0.125092759728431702 0.116873525083065033 0.314001649618148804
-0.633648216724395752 0.282313227653503418 0.0540772974491119385
-0.5874367356300354 0.362924635410308838 0.102231979370117188
0.3715800940990448 -0.374351561069488525 -0.21295282244682312
0.438572347164154053 -0.348190039396286011 0.154193446040153503
0.0581780523061752319 0.121321924030780792 0.320919603109359741
-0.574649930000305176 0.368945300579071045 0.215354636311531067
0.264825940132141113 0.0245718490332365036 -0.0589036568999290466
0.368908852338790894 -0.337003231048583984 0.160468488931655884
0.510616183280944824 -0.30179595947265625 -0.112189508974552155
0.133694157004356384 -0.320934474468231201 -0.097990863025188446
0.516689658164978027 -0.349041223526000977 -0.0204491149634122849
0.389376342296600342 -0.347069829702377319 -0.214312881231307983
-0.577097773551940918 0.319174200296401978 0.0405924804508686066
0.536094963550567627 -0.278125137090682983 -0.320825338363647461
0.467954099178314209 -0.311193376779556274 -0.299474895000457764
0.507316648960113525 -0.347374588251113892 0.0177757088094949722
-0.555983126163482666 0.309812307357788086 0.102060139179229736
0.1939869225025177 -0.339674770832061768 -0.0593703575432300568
0.0701737776398658752 -0.28257480263710022 -0.078115709125995636
0.252582311630249023 -0.250468015670776367 0.320031195878982544
0.240055441856384277 0.0308788474649190903 0.316731452941894531
-0.121039547026157379 -0.0480686984956264496 0.00794286001473665237
0.178869098424911499 -0.100369676947593689 -0.0150328511372208595
0.532585382461547852 -0.332563191652297974 -0.0133267352357506752
0.370448082685470581 -0.349797368049621582 -0.2090931236743927
0.535119533538818359 -0.246040433645248413 0.177132740616798401
0.561220288276672363 -0.316086769104003906 -0.331150054931640625
0.554695427417755127 -0.211921796202659607 0.133773818612098694
-0.54335474967956543 0.380900412797927856 0.164338260889053345
0.122999474406242371 0.117141157388687134 0.132907748222351074
-0.582317352294921875 0.352038830518722534 0.0976230725646018982
-0.481650620698928833 0.185920089483261108 -0.0917206108570098877
0.5157737135887146 -0.339442998170852661 0.0386855714023113251
0.253588825464248657 -0.27939838171005249 0.321856111288070679
0.278627276420593262 -0.356294006109237671 -0.126261517405509949
0.508002698421478271 -0.286943614482879639 -0.313896268606185913
-0.432172864675521851 -0.0575119927525520325 0.116564646363258362
0.202120915055274963 0.0904383361339569092 0.22317156195640564
0.244430556893348694 0.10451006144285202 -0.0574706904590129852
-0.195713326334953308 0.201541408896446228 0.34914851188659668
0.250619590282440186 0.0248411260545253754 0.323164999485015869
0.239975064992904663 0.0189282875508069992 0.320857971906661987
-0.031366787850856781 0.162690088152885437 0.382489681243896484
-0.482531845569610596 -0.0159078799188137054 0.180050387978553772
0.483971863985061646 -0.3693695068359375 0.0459318533539772034
-0.643576562404632568 0.287163406610488892 0.0860565975308418274
0.276096045970916748 -0.166074693202972412 -0.0707070529460906982
-0.411840707063674927 -0.0571921281516551971 0.0787745639681816101
-0.643090188503265381 0.175645798444747925 -0.0821589156985282898
-0.225962251424789429 -0.134333476424217224 -0.0523888617753982544
0.255092978477478027 -0.265805482864379883 0.321015715599060059
-0.345386981964111328 0.0170295313000679016 -0.117086566984653473
-0.287170976400375366 -0.0919553637504577637 -0.106680616736412048
-0.585151195526123047 0.20976632833480835 -0.218152239918708801
0.267749935388565063 -0.297273188829421997 0.315095752477645874
-0.0255500394850969315 -0.187661930918693542 -0.0436668656766414642
-0.618132054805755615 0.276949644088745117 0.0312530882656574249
-0.608905911445617676 0.298283308744430542 0.0923308059573173523
-0.39757874608039856 -0.063189677894115448 0.118765935301780701
-0.451724857091903687 -0.0384862497448921204 0.119364425539970398
0.431283742189407349 -0.272002696990966797 0.329103767871856689
-0.052374623715877533 0.140694916248321533 0.0915168151259422302
-0.503077149391174316 0.151032939553260803 0.355310112237930298
0.240958556532859802 -0.319577932357788086 0.322716563940048218
0.497351914644241333 -0.371188700199127197 0.0572539307177066803
0.399477630853652954 -0.257118344306945801 0.322375029325485229
-0.158314213156700134 -0.263920217752456665 0.181487664580345154
-0.499202877283096313 0.0137660903856158257 0.157962575554847717
0.417761474847793579 -0.297640353441238403 0.328654736280441284
0.53550797700881958 -0.340555906295776367 -0.0185559876263141632
0.344454318284988403 -0.26777079701423645 -0.128035098314285278
-0.496512174606323242 0.0717754438519477844 0.203862890601158142
0.443826943635940552 -0.272446811199188232 0.333332955837249756
0.522252440452575684 -0.335756897926330566 0.032687705010175705
0.453515172004699707 -0.320329427719116211 -0.293215662240982056
0.474464476108551025 -0.31202581524848938 0.116598129272460938
0.517383098602294922 -0.278827697038650513 -0.313007384538650513
0.502815961837768555 -0.326373845338821411 -0.314499467611312866
0.51834636926651001 -0.327463835477828979 0.101821877062320709
0.479473710060119629 -0.311857849359512329 -0.302354961633682251
0.114685796201229095 0.118472076952457428 0.288858532905578613
-0.121895879507064819 0.268605738878250122 0.158612757921218872
-0.614879071712493896 0.265416204929351807 0.0519547872245311737
-0.479418784379959106 0.00276876334100961685 0.181228712201118469
0.426907211542129517 -0.355383336544036865 0.15847480297088623
-0.292344599962234497 -0.111042790114879608 -0.105935946106910706
0.130639746785163879 0.0653615295886993408 0.321079492568969727
0.25388750433921814 0.0385007523000240326 -0.0780185461044311523
0.235652506351470947 0.0937272533774375916 -0.053294353187084198
0.41785740852355957 -0.261954367160797119 -0.202529802918434143
0.521900415420532227 -0.355041086673736572 -0.0195731706917285919
-0.608949363231658936 0.381120741367340088 0.181119456887245178
0.517733931541442871 -0.27972877025604248 -0.314930051565170288
0.499340742826461792 -0.350385308265686035 0.0239682719111442566
-0.587920486927032471 0.36930084228515625 0.112918391823768616
0.506210565567016602 -0.104985922574996948 0.14714406430721283
-0.198038682341575623 0.311541557312011719 0.112770095467567444
0.264198720455169678 -0.286856234073638916 0.319684326648712158
0.237089663743972778 0.0620024986565113068 0.310389846563339233
-0.144488468766212463 -0.0438123196363449097 0.00401101820170879364
-0.657842576503753662 0.214574918150901794 -0.0463174730539321899
-0.288626283407211304 -0.0763805508613586426 -0.0687779486179351807
0.227404028177261353 0.0419763773679733276 -0.0483689121901988983
0.551775157451629639 -0.144773483276367188 0.131906852126121521
0.519993424415588379 -0.295726805925369263 0.0747843533754348755
0.51777350902557373 -0.284467637538909912 -0.181343063712120056
-0.358106702566146851 -0.017457079142332077 -0.0280979089438915253
0.0915957912802696228 0.0880335867404937744 0.0855793207883834839
0.46686023473739624 -0.362296402454376221 -0.0107903806492686272
-0.432992100715637207 0.157552853226661682 -0.0666357502341270447
0.524020016193389893 -0.336020469665527344 0.0687948167324066162
0.263058483600616455 -0.286225438117980957 0.318407297134399414
0.00941393710672855377 -0.0913194268941879272 -0.0263218767940998077
0.0326160751283168793 -0.13073161244392395 0.0216798204928636551
-0.630791842937469482 0.264927953481674194 0.0289156734943389893
0.242295905947685242 0.07418079674243927 0.318657130002975464
0.240363121032714844 0.0294033661484718323 0.318745017051696777
-0.174820065498352051 0.300814956426620483 0.116142831742763519
0.304796993732452393 -0.151542991399765015 0.307677596807479858
0.262092173099517822 -0.291027963161468506 0.32089388370513916
-0.476242750883102417 -0.00850277114659547806 0.16610206663608551
0.242931783199310303 0.0816213414072990417 0.312014192342758179
0.520442366600036621 -0.351676076650619507 0.0818336978554725647
-0.0348636917769908905 -0.237998276948928833 0.123957514762878418
-0.638392090797424316 0.289945751428604126 0.0986847430467605591
-0.234279647469520569 -0.133309468626976013 -0.0581736452877521515
-0.379318594932556152 -0.109239861369132996 0.105416931211948395
-0.236489340662956238 -0.148344606161117554 -0.0580171644687652588
-0.65805351734161377 0.214269503951072693 -0.0340230017900466919
0.529080510139465332 -0.353009492158889771 0.0777769535779953003
-0.621236681938171387 0.270195156335830688 0.0523517392575740814
-0.404198974370956421 -0.0647366046905517578 0.111938118934631348
-0.446384191513061523 -0.0418758057057857513 0.121870562434196472
0.268161863088607788 -0.285915970802307129 0.323368489742279053
0.127730682492256165 -0.326962083578109741 0.312487304210662842
0.15239398181438446 -0.343449622392654419 0.317762464284896851
0.447841644287109375 -0.336092829704284668 -0.29318690299987793
0.515919864177703857 -0.303373515605926514 -0.108107954263687134
0.515355229377746582 -0.280700504779815674 -0.313025802373886108
0.484981745481491089 -0.328143209218978882 -0.309982985258102417
0.464455783367156982 -0.346358597278594971 -0.3028564453125
0.549721777439117432 -0.210635706782341003 -0.316183298826217651
0.52421867847442627 -0.300493150949478149 -0.322673827409744263
0.518084287643432617 -0.301304876804351807 -0.318570107221603394
0.247015863656997681 0.0568913370370864868 0.31625211238861084
0.241500616073608398 0.0873778462409973145 0.312581062316894531
-0.291797429323196411 -0.101041994988918304 -0.102067001163959503
-0.453640639781951904 -0.0523667782545089722 0.116964139044284821
0.404946982860565186 -0.272545009851455688 0.322421938180923462
-0.502460956573486328 0.00345907756127417088 0.189010441303253174
0.401237010955810547 -0.287528544664382935 0.324739843606948853
0.39938652515411377 -0.273840606212615967 0.32321736216545105
0.342405855655670166 -0.259310245513916016 0.0899591818451881409
-0.0187594108283519745 -0.244788914918899536 0.128530353307723999
-0.464568465948104858 0.0356943123042583466 0.18943476676940918
-0.194428607821464539 0.221496671438217163 0.171899557113647461
0.366996824741363525 -0.329667747020721436 -0.0236674454063177109
0.323519796133041382 -0.390549689531326294 -0.159052371978759766
0.535589516162872314 -0.324018299579620361 -0.0583587624132633209
-0.441826403141021729 -0.00506178848445415497 0.15258421003818512
-0.0190975666046142578 -0.059804622083902359 0.141568809747695923
-0.000198825233383104205 -0.236521720886230469 0.106240756809711456
0.52637404203414917 -0.202147021889686584 -0.0801956206560134888
0.449903279542922974 -0.30877116322517395 -0.293075680732727051
0.526950597763061523 -0.275857120752334595 -0.315877228975296021
0.50001150369644165 -0.325323730707168579 -0.312869489192962646
0.475325703620910645 -0.305486053228378296 -0.297590911388397217
-0.127464011311531067 0.246553689241409302 0.138794615864753723
-0.649093031883239746 0.28196832537651062 0.0940659493207931519
-0.199016943573951721 0.286639660596847534 0.33576732873916626
0.498193234205245972 -0.0869918838143348694 0.136506661772727966
0.200840756297111511 -0.359609097242355347 -0.0909937247633934021
0.505572974681854248 -0.36806914210319519 -0.0228330511599779129
0.527438759803771973 -0.242986157536506653 0.172834038734436035
-0.586071968078613281 0.379340410232543945 0.170506849884986877
0.445119678974151611 -0.315364807844161987 -0.287949174642562866
0.498770236968994141 -0.1113714799284935 0.112018615007400513
-0.655878961086273193 0.175352990627288818 -0.103921093046665192
-0.202016770839691162 0.308736115694046021 0.08898162841796875
0.201433852314949036 -0.0137871196493506432 0.295119434595108032
0.160124525427818298 -0.0624278895556926727 -0.0442689917981624603
-0.579654514789581299 0.302239179611206055 0.368521332740783691
0.275199204683303833 0.0982482060790061951 -0.0293266959488391876
-0.43536376953125 0.155252128839492798 -0.0861599668860435486
0.534615635871887207 -0.333415627479553223 0.0126204639673233032
-0.568866491317749023 0.197206377983093262 -0.229240477085113525
-0.497725486755371094 0.0447378195822238922 -0.0869980305433273315
0.0314774699509143829 -0.104315571486949921 0.0328310504555702209
0.534204304218292236 -0.264891505241394043 -0.316523462533950806
0.00984425190836191177 0.197573110461235046 0.0273784250020980835
0.302296817302703857 0.0387152135372161865 -0.0846909284591674805
-0.332221627235412598 -0.0163145828992128372 -0.107847578823566437
0.236635014414787292 0.0142827406525611877 0.321663856506347656
0.125172987580299377 0.0128114502876996994 0.298812508583068848
0.52769768238067627 -0.355529874563217163 0.0662221536040306091
0.467217117547988892 -0.310247153043746948 -0.233306482434272766
-0.652072429656982422 0.285310924053192139 0.10417252779006958
0.546778738498687744 -0.220257475972175598 0.163390755653381348
0.528211414813995361 -0.323742777109146118 -0.0161742046475410461
-0.383018046617507935 -0.0567289404571056366 0.0761101171374320984
0.457025408744812012 -0.311253249645233154 -0.292771786451339722
0.505085885524749756 -0.340249389410018921 -0.318103939294815063
0.478942394256591797 -0.314733892679214478 -0.299713134765625
0.520492017269134521 -0.30170932412147522 -0.317533910274505615
-0.00221406621858477592 -0.140338510274887085 -0.0249856039881706238
0.397720396518707275 -0.273398399353027344 0.323392301797866821
0.40139162540435791 -0.271824866533279419 0.323697298765182495
0.506290435791015625 -0.332322239875793457 0.105748884379863739
-0.467564254999160767 0.042234327644109726 0.170544490218162537
0.410238474607467651 -0.346200734376907349 0.156492546200752258
-0.36081695556640625 -0.0356287658214569092 -0.148235365748405457
-0.128153041005134583 -0.268103629350662231 0.112302117049694061
0.512792289257049561 -0.369405865669250488 -0.014774588868021965
-0.213643759489059448 0.312539219856262207 0.0975178852677345276
0.250758975744247437 -0.287370026111602783 0.322832554578781128
0.20910799503326416 0.0092421872541308403 -0.0463014543056488037
0.0700895413756370544 -0.151848450303077698 -0.0174005012959241867
-0.169658511877059937 0.30477026104927063 0.118707016110420227
0.471318840980529785 -0.364712655544281006 0.00693677645176649094
-0.290917664766311646 -0.0998316332697868347 -0.103324726223945618
0.0365677550435066223 -0.15001852810382843 -0.0218668635934591293
0.232384011149406433 0.0561156906187534332 0.309074819087982178
0.253565818071365356 -0.288932055234909058 0.320614039897918701
-0.471660703420639038 0.000897254387382417917 0.168566688895225525
0.241206362843513489 0.062576979398727417 0.312973350286483765
0.509177267551422119 -0.35237199068069458 0.0638683885335922241
0.22758561372756958 -0.315095067024230957 0.314520955085754395
-0.375312626361846924 -0.093495585024356842 0.0860930979251861572
-0.062602996826171875 -0.241941466927528381 0.302493780851364136
-0.222628116607666016 -0.128041267395019531 -0.053236689418554306
-0.409815162420272827 -0.0657547712326049805 0.098428972065448761
-0.444927752017974854 -0.0449983999133110046 0.132646352052688599
0.239149272441864014 -0.294321388006210327 0.314389795064926147
0.154067143797874451 -0.324648141860961914 0.320072382688522339
0.425533533096313477 -0.256303697824478149 0.328542768955230713
0.438392907381057739 -0.343321532011032104 -0.292840063571929932
0.506505489349365234 -0.334949880838394165 -0.31824958324432373
0.445243954658508301 -0.352669745683670044 -0.286894083023071289
0.238472044467926025 0.0656414851546287537 0.312252283096313477
0.403464704751968384 -0.28775709867477417 0.325864344835281372
-0.494682878255844116 0.00649209180846810341 0.188296526670455933
0.486042112112045288 -0.063412398099899292 0.131630674004554749
0.0126826418563723564 -0.17107275128364563 0.00970718357712030411
0.531789302825927734 -0.307947874069213867 -0.0623275190591812134
0.315012127161026001 -0.302618831396102905 -0.126962825655937195
0.446090549230575562 -0.291698098182678223 -0.285813480615615845
-0.336779087781906128 0.224640309810638428 0.12562134861946106
-0.400743246078491211 -0.0284545477479696274 -0.00200461852364242077
0.403377562761306763 -0.271967709064483643 0.324080795049667358
-0.133107408881187439 0.195725902915000916 0.16763383150100708
0.399426788091659546 -0.271904468536376953 0.323893964290618896
-0.446399837732315063 -0.0252184644341468811 0.0213189311325550079
-0.13778407871723175 0.244821444153785706 0.191590368747711182
-0.612632691860198975 0.294041901826858521 0.18363526463508606
0.124806441366672516 0.116005502641201019 0.316590994596481323
-0.120714478194713593 0.250560462474822998 0.161719426512718201
-0.583148002624511719 0.348201155662536621 0.058042280375957489
0.427149415016174316 -0.348374694585800171 0.152977719902992249
-0.566588163375854492 0.295095920562744141 -0.0690857842564582825
0.252146244049072266 0.0266208946704864502 -0.0797449424862861633
0.247954383492469788 0.100354455411434174 -0.0485120303928852081
-0.357291847467422485 -0.0559981204569339752 -0.141970738768577576
0.199010893702507019 0.120186105370521545 0.035613134503364563
0.545904338359832764 -0.131710946559906006 0.111900150775909424
-0.5814705491065979 0.321804702281951904 -0.0229405537247657776
0.206457406282424927 0.0245791897177696228 0.176733314990997314
-0.595159351825714111 0.375212967395782471 0.171920210123062134
0.445128917694091797 -0.319459587335586548 0.127304509282112122
0.255369752645492554 -0.278894424438476562 0.316456377506256104
0.235852509737014771 0.0237238947302103043 0.316507518291473389
-0.362719327211380005 -0.0499918535351753235 -0.023867705836892128
-0.182427003979682922 0.118067145347595215 0.0421899780631065369
0.255083143711090088 -0.288336127996444702 0.319274306297302246
0.242291077971458435 0.0331061184406280518 0.321771174669265747
0.400199651718139648 0.0232980698347091675 0.115055814385414124
-0.340329766273498535 -0.0663603544235229492 -0.147418156266212463
0.076036304235458374 -0.333166629076004028 0.298943787813186646
-0.386540889739990234 -0.0609798841178417206 0.0937458649277687073
-0.447960853576660156 -0.0414711423218250275 0.127654522657394409
0.439678013324737549 -0.279435396194458008 0.333620399236679077
0.0347185470163822174 -0.123053900897502899 -0.0257799047976732254
0.414641737937927246 -0.280889809131622314 0.326962411403656006
0.433350086212158203 -0.296190053224563599 0.33312523365020752
0.368221551179885864 -0.27890247106552124 -0.130429267883300781
-0.477141916751861572 0.00132722954731434584 0.188260644674301147
-0.291330456733703613 -0.0965375900268554688 -0.104656442999839783
0.241701468825340271 -0.313116788864135742 0.309637904167175293
0.473542869091033936 -0.354431271553039551 0.00694461306557059288
-0.296160638332366943 -0.096784546971321106 -0.107106797397136688
0.245058432221412659 -0.288687437772750854 0.320027917623519897
0.0625678524374961853 -0.329871773719787598 0.297028303146362305
0.158300653100013733 -0.267977088689804077 -0.10568682849407196
0.250505208969116211 0.0633893236517906189 0.315398901700973511
-0.482260912656784058 -0.00801987387239933014 0.177869647741317749
0.236642852425575256 0.0665581151843070984 0.314754068851470947
0.239037752151489258 -0.331927120685577393 0.321370899677276611
-0.382007747888565063 -0.0921791046857833862 0.0366472490131855011
-0.215892478823661804 -0.140284761786460876 -0.0544704720377922058
-0.382444918155670166 -0.0637921392917633057 0.0834602266550064087
0.150275275111198425 -0.331759274005889893 0.331864863634109497
0.44619905948638916 -0.279967367649078369 0.333544433116912842
0.407753139734268188 -0.280601412057876587 0.325074613094329834
-0.501771748065948486 0.00647545978426933289 0.188609018921852112
-0.321679174900054932 0.0971721187233924866 -0.0703766196966171265
