ply
format ascii 1.0
element vertex 739
property float x
property float y
property float z
end_header
0.270029425621032715 -0.310897320508956909 0.325955688953399658
-0.254437744617462158 0.024018511176109314 -0.070899568498134613
0.24037499725818634 -0.294929236173629761 0.322209566831588745
0.248394176363945007 0.0442672856152057648 0.314082086086273193
0.467747271060943604 -0.101644039154052734 0.0342451855540275574
-0.125349327921867371 0.195622876286506653 0.115192055702209473
0.239258170127868652 -0.326257169246673584 0.317664295434951782
0.499564200639724731 -0.366304278373718262 0.0743463113903999329
0.522767186164855957 -0.324439197778701782 0.0259049423038959503
0.443992644548416138 -0.252933770418167114 0.332029819488525391
0.320765852928161621 -0.13113170862197876 -0.107011586427688599
0.0627423971891403198 -0.0102490754798054695 0.321439534425735474
0.510620057582855225 -0.360610038042068481 0.0472105033695697784
0.134955853223800659 -0.100257091224193573 0.040240217000246048
0.048852037638425827 0.0120126893743872643 0.0294388234615325928
0.0201307889074087143 0.0487114675343036652 0.0423091351985931396
0.0874800756573677063 -0.0655813515186309814 0.289370834827423096
-0.162828803062438965 -0.265254944562911987 0.147841796278953552
0.264291644096374512 -0.0197757501155138016 0.061184227466583252
-0.0295379627496004105 -0.0285304076969623566 0.295329481363296509
0.501510977745056152 -0.240133732557296753 -0.302305877208709717
0.475246906280517578 -0.314756780862808228 -0.302232354879379272
-0.631357669830322266 0.306727975606918335 0.167361542582511902
0.47480347752571106 -0.320529371500015259 0.120700500905513763
0.508413910865783691 -0.300607532262802124 -0.105846695601940155
0.527564883232116699 -0.274714022874832153 -0.317467749118804932
0.492866724729537964 -0.332226485013961792 -0.310976654291152954
0.502856671810150146 -0.319856911897659302 0.0976982712745666504
0.473494499921798706 -0.305590540170669556 -0.298388779163360596
-0.55975806713104248 0.268568068742752075 0.364477038383483887
0.124466121196746826 0.117346078157424927 0.313914567232131958
-0.634042441844940186 0.282663941383361816 0.0542627349495887756
-0.587788760662078857 0.363240242004394531 0.102422125637531281
0.3707541823387146 -0.373839795589447021 -0.213018327951431274
0.437781542539596558 -0.347696810960769653 0.154030948877334595
0.0575782954692840576 0.121819660067558289 0.320860445499420166
-0.574977278709411621 0.369279026985168457 0.215541258454322815
0.264079511165618896 0.0249565709382295609 -0.0590127445757389069
0.368098288774490356 -0.336497306823730469 0.160319089889526367
0.509856879711151123 -0.301328450441360474 -0.112294100224971771
0.132858812808990479 -0.320280939340591431 -0.098004169762134552
0.515922129154205322 -0.348557263612747192 -0.0205741021782159805
0.388565123081207275 -0.3465690016746521 -0.214379444718360901
-0.577481269836425781 0.319514542818069458 0.0407688654959201813
0.535385370254516602 -0.27768552303314209 -0.320868730545043945
0.467201054096221924 -0.31072583794593811 -0.299523919820785522
0.506542563438415527 -0.34688800573348999 0.0176408253610134125
-0.55634993314743042 0.310175508260726929 0.10224653035402298
0.193139046430587769 -0.33905908465385437 -0.0594144873321056366
0.0693583637475967407 -0.281892508268356323 -0.0781112983822822571
0.25185278058052063 -0.249980539083480835 0.31987723708152771
0.239375710487365723 0.0313144512474536896 0.31658935546875
-0.121701754629611969 -0.047444608062505722 0.00798003189265727997
0.178082436323165894 -0.0998412072658538818 -0.0150949535891413689
0.531828045845031738 -0.332084953784942627 -0.0134544083848595619
0.369628220796585083 -0.349288821220397949 -0.209158033132553101
0.534394681453704834 -0.245589673519134521 0.176950201392173767
0.560520946979522705 -0.315640360116958618 -0.331185072660446167
0.553973376750946045 -0.211479395627975464 0.13360084593296051
-0.543692171573638916 0.381236374378204346 0.16450965404510498
0.122338473796844482 0.117600485682487488 0.132834047079086304
-0.58267444372177124 0.352363526821136475 0.0978105515241622925
-0.482117056846618652 0.186397582292556763 -0.0915899276733398438
0.515006005764007568 -0.338959217071533203 0.0385452434420585632
0.25285676121711731 -0.278910845518112183 0.321699053049087524
0.277778208255767822 -0.355733692646026611 -0.126321211457252502
0.507276654243469238 -0.286494344472885132 -0.313942104578018188
-0.432689428329467773 -0.0568579137325286865 0.116682685911655426
0.201443269848823547 0.0908776819705963135 0.223055019974708557
0.243722602725028992 0.10485510528087616 -0.0575901083648204803
-0.196151390671730042 0.202015340328216553 0.349154502153396606
0.249937653541564941 0.0252716746181249619 0.323018461465835571
0.239292576909065247 0.019367879256606102 0.320715218782424927
-0.0319036878645420074 0.163178011775016785 0.382461696863174438
-0.482996612787246704 -0.0152852041646838188 0.180182978510856628
0.483183205127716064 -0.368874192237854004 0.0457917377352714539
-0.643960237503051758 0.287505954504013062 0.0862555354833602905
0.275287389755249023 -0.165580242872238159 -0.0707903951406478882
-0.412373125553131104 -0.0565300732851028442 0.0788909047842025757
-0.643545866012573242 0.176049456000328064 -0.0819980278611183167
-0.226606547832489014 -0.133634909987449646 -0.0523294135928153992
0.254361987113952637 -0.26531904935836792 0.320859462022781372
-0.34595075249671936 0.0176477618515491486 -0.116988860070705414
-0.287785917520523071 -0.0912616774439811707 -0.10660649836063385
-0.585618734359741211 0.21014520525932312 -0.218009695410728455
0.267011970281600952 -0.29678991436958313 0.314934045076370239
-0.026303410530090332 -0.186984658241271973 -0.0436420775949954987
-0.618531763553619385 0.277304798364639282 0.031433694064617157
-0.60928267240524292 0.298635393381118774 0.0925224199891090393
-0.398106813430786133 -0.0625294148921966553 0.118868529796600342
-0.452226758003234863 -0.0378455854952335358 0.119492143392562866
0.430562913417816162 -0.271566241979598999 0.328907936811447144
-0.0529738329350948334 0.141197904944419861 0.0915166512131690979
-0.503455936908721924 0.151530414819717407 0.355433613061904907
0.24022260308265686 -0.319080859422683716 0.322561442852020264
0.496570885181427002 -0.3706950843334198 0.0571108013391494751
0.398749083280563354 -0.256677150726318359 0.322187036275863647
-0.158963769674301147 -0.263244777917861938 0.181472420692443848
-0.499662280082702637 0.014362298883497715 0.158108979463577271
0.4170340895652771 -0.297199487686157227 0.328460425138473511
0.534751772880554199 -0.340076416730880737 -0.0186816658824682236
0.343635290861129761 -0.267270296812057495 -0.128116995096206665
-0.4969349205493927 0.0723398923873901367 0.204005435109138489
0.44311070442199707 -0.272013068199157715 0.333134084939956665
0.521488428115844727 -0.335274994373321533 0.032548658549785614
0.452754020690917969 -0.319857031106948853 -0.293265342712402344
0.473684608936309814 -0.311541885137557983 0.116437412798404694
0.51666259765625 -0.278383314609527588 -0.313054084777832031
0.502083778381347656 -0.325912356376647949 -0.314541876316070557
0.517585635185241699 -0.32698395848274231 0.101664289832115173
0.47872692346572876 -0.311392933130264282 -0.302403151988983154
0.114057146012783051 0.118955321609973907 0.288776636123657227
-0.122406907379627228 0.269037306308746338 0.15863269567489624
-0.615276813507080078 0.26578482985496521 0.0521391741931438446
-0.47986951470375061 0.00339415506459772587 0.181363627314567566
0.426111608743667603 -0.354887336492538452 0.158313602209091187
-0.292961448431015015 -0.11033930629491806 -0.105857148766517639
0.129996165633201599 0.0658511295914649963 0.320985317230224609
0.2531471848487854 0.0388801172375679016 -0.0781253725290298462
0.234941065311431885 0.0940867140889167786 -0.0534079335629940033
0.417070955038070679 -0.261486321687698364 -0.202608034014701843
0.521135389804840088 -0.354556441307067871 -0.0196979530155658722
-0.609290063381195068 0.381435930728912354 0.181305035948753357
0.517013967037200928 -0.279284298419952393 -0.314975947141647339
0.498561710119247437 -0.349896639585494995 0.0238320324569940567
-0.588270068168640137 0.369615316390991211 0.113106749951839447
0.505491971969604492 -0.104573853313922882 0.146963894367218018
-0.198514506220817566 0.311943560838699341 0.112814731895923615
0.263464063405990601 -0.286373257637023926 0.319523721933364868
0.236418917775154114 0.0624283924698829651 0.310250431299209595
-0.145138293504714966 -0.0431854315102100372 0.00405262783169746399
-0.658280730247497559 0.214954838156700134 -0.0461514890193939209
-0.28923305869102478 -0.075702570378780365 -0.0687005072832107544
0.226670652627944946 0.0423765070736408234 -0.0484676286578178406
0.55106353759765625 -0.144352614879608154 0.13173048198223114
0.51923447847366333 -0.295253723859786987 0.0746313333511352539
0.517027199268341064 -0.284010052680969238 -0.181431442499160767
-0.358662724494934082 -0.0168083738535642624 -0.0279936138540506363
0.0909225121140480042 0.0885322093963623047 0.0855244547128677368
0.466058194637298584 -0.361799836158752441 -0.0109179662540555
-0.433474302291870117 0.158058315515518188 -0.0665134266018867493
0.52325814962387085 -0.335538625717163086 0.0686465874314308167
0.262323558330535889 -0.285741567611694336 0.318247228860855103
0.00867713615298271179 -0.0907109007239341736 -0.0263047441840171814
0.0318659543991088867 -0.130109354853630066 0.0216764248907566071
-0.631196677684783936 0.265287548303604126 0.0290963873267173767
0.24162997305393219 0.0745974630117416382 0.318515807390213013
0.239683344960212708 0.0298390891402959824 0.318602681159973145
-0.175308465957641602 0.301221847534179688 0.116181537508964539
0.304067075252532959 -0.151086136698722839 0.307517588138580322
0.261357575654983521 -0.290543884038925171 0.32073366641998291
-0.476710468530654907 -0.00788380485028028488 0.166234642267227173
0.242266744375228882 0.0820349603891372681 0.311872899532318115
0.519677639007568359 -0.351190418004989624 0.0816829726099967957
-0.0355972908437252045 -0.237322494387626648 0.12394365668296814
-0.638772368431091309 0.290291696786880493 0.098882824182510376
-0.234920471906661987 -0.13260960578918457 -0.0581118427217006683
-0.379880249500274658 -0.108548417687416077 0.105517365038394928
-0.237132221460342407 -0.147636100649833679 -0.0579556077718734741
-0.658489108085632324 0.214650750160217285 -0.0338545143604278564
0.528320252895355225 -0.352524697780609131 0.0776274800300598145
-0.621633529663085938 0.270558208227157593 0.0525364913046360016
-0.404728055000305176 -0.064074687659740448 0.112045034766197205
-0.44688829779624939 -0.041232869029045105 0.121994964778423309
0.267428308725357056 -0.285436093807220459 0.323206424713134766
0.12700633704662323 -0.326402097940444946 0.312367469072341919
0.151665434241294861 -0.342902958393096924 0.317633360624313354
0.44707643985748291 -0.335615843534469604 -0.293235450983047485
0.515163242816925049 -0.302906274795532227 -0.108213663101196289
0.514633536338806152 -0.280254989862442017 -0.313072323799133301
0.484239190816879272 -0.327677041292190552 -0.310027152299880981
0.463699191808700562 -0.345883399248123169 -0.3029022216796875
0.549025058746337891 -0.210224688053131104 -0.316236943006515503
0.523501574993133545 -0.300044029951095581 -0.322714775800704956
0.517363011837005615 -0.300853818655014038 -0.318612605333328247
0.246343150734901428 0.0573124438524246216 0.316108435392379761
0.240837797522544861 0.0877897888422012329 0.312440603971481323
-0.292412638664245605 -0.10034044086933136 -0.101992696523666382
-0.454149603843688965 -0.0517185218632221222 0.117092184722423553
0.40421786904335022 -0.272103428840637207 0.32223162055015564
-0.502914905548095703 0.00406032195314764977 0.189152374863624573
0.400506108999252319 -0.287085741758346558 0.32454913854598999
0.39865642786026001 -0.273398429155349731 0.323027908802032471
0.34159010648727417 -0.25880548357963562 0.0898304805159568787
-0.0195008981972932816 -0.244116052985191345 0.128512009978294373
-0.465013623237609863 0.0362880565226078033 0.189560070633888245
-0.194912448525428772 0.221974819898605347 0.171937406063079834
0.366164058446884155 -0.329154372215270996 -0.0237765945494174957
0.322679877281188965 -0.390009522438049316 -0.159117013216018677
0.534837841987609863 -0.323545604944229126 -0.0584755577147006989
-0.44230496883392334 -0.00444020330905914307 0.152702510356903076
-0.0197791475802659988 -0.0591992475092411041 0.14155299961566925
-0.000953529844991862774 -0.235849544405937195 0.106225699186325073
0.525637805461883545 -0.201715007424354553 -0.0803189873695373535
0.449141502380371094 -0.30830073356628418 -0.293126046657562256
0.526235878467559814 -0.275416046380996704 -0.315922915935516357
0.49927753210067749 -0.324861705303192139 -0.312912642955780029
0.474574804306030273 -0.305020153522491455 -0.297641545534133911
-0.127984374761581421 0.246999531984329224 0.138815686106681824
-0.649473965167999268 0.2823067307472229 0.0942743495106697083
-0.19943535327911377 0.287059158086776733 0.33578452467918396
0.497474581003189087 -0.0865869820117950439 0.136327236890792847
0.199982300400733948 -0.358991146087646484 -0.0910330042243003845
0.504796862602233887 -0.367579370737075806 -0.0229567307978868484
0.526709437370300293 -0.242533981800079346 0.172653079032897949
-0.586405634880065918 0.379659652709960938 0.170696765184402466
0.444354116916656494 -0.314891636371612549 -0.288000404834747314
0.498041331768035889 -0.110957294702529907 0.11184382438659668
-0.656339883804321289 0.175745666027069092 -0.103764399886131287
-0.202497169375419617 0.309135496616363525 0.0890280082821846008
0.200742274522781372 -0.013304063118994236 0.294986367225646973
0.159358441829681396 -0.0619171224534511566 -0.0443203449249267578
-0.579985320568084717 0.302604913711547852 0.368691086769104004
0.274485915899276733 0.0985831022262573242 -0.0294596739113330841
-0.435850471258163452 0.155755937099456787 -0.086038149893283844
0.533858537673950195 -0.332936376333236694 0.0124863805249333382
-0.569340109825134277 0.197600424289703369 -0.229098722338676453
-0.498229891061782837 0.0453099831938743591 -0.0868410095572471619
0.0307379197329282761 -0.103706762194633484 0.0328259430825710297
0.533494412899017334 -0.264455914497375488 -0.31656995415687561
0.00923154782503843307 0.198003306984901428 0.0273611042648553848
0.301555275917053223 0.0390647314488887787 -0.0848149582743644714
-0.332799196243286133 -0.0156730432063341141 -0.10775361955165863
0.235951900482177734 0.0147260138764977455 0.321522176265716553
0.124509081244468689 0.0133283082395792007 0.29871782660484314
0.526935815811157227 -0.35504421591758728 0.0660759434103965759
0.466450095176696777 -0.309776037931442261 -0.233375921845436096
-0.652450621128082275 0.285647362470626831 0.104382619261741638
0.546059012413024902 -0.219813257455825806 0.163210242986679077
0.527452766895294189 -0.323266267776489258 -0.016301911324262619
-0.383559823036193848 -0.0560643337666988373 0.0762152448296546936
0.456266045570373535 -0.310783237218856812 -0.292822569608688354
0.50435483455657959 -0.339785397052764893 -0.318144172430038452
0.47819441556930542 -0.314267933368682861 -0.299761980772018433
0.51977163553237915 -0.301258563995361328 -0.317576676607131958
-0.00296119879931211472 -0.139696970582008362 -0.0249682962894439697
0.396990060806274414 -0.27295607328414917 0.323203176259994507
0.400662243366241455 -0.27138325572013855 0.323507606983184814
0.505523025989532471 -0.331839501857757568 0.105590790510177612
-0.468012154102325439 0.0428242683410644531 0.170675694942474365
0.409437209367752075 -0.345702826976776123 0.156334921717643738
-0.361395120620727539 -0.0349711328744888306 -0.148126497864723206
-0.128849923610687256 -0.267397910356521606 0.112305715680122375
0.5120200514793396 -0.368916511535644531 -0.0149001879617571831
-0.214116156101226807 0.31293979287147522 0.0975666046142578125
0.250026553869247437 -0.286880820989608765 0.322675704956054688
0.208362072706222534 0.00967554375529289246 -0.0463860370218753815
0.0693163573741912842 -0.151230767369270325 -0.0174108352512121201
-0.170148119330406189 0.305174261331558228 0.1187434121966362
0.470514446496963501 -0.364214897155761719 0.00680318614467978477
-0.291532993316650391 -0.0991308987140655518 -0.103250697255134583
0.0358051210641860962 -0.149387240409851074 -0.0218634381890296936
0.231711879372596741 0.0565471574664115906 0.308937102556228638
0.252832114696502686 -0.288443505764007568 0.320456564426422119
-0.472123324871063232 0.00151408056262880564 0.168697714805603027
0.2405356764793396 0.0629997402429580688 0.312832236289978027
0.508405208587646484 -0.351884245872497559 0.063722461462020874
0.22684893012046814 -0.314588338136672974 0.31437075138092041
-0.375880271196365356 -0.0928020253777503967 0.0862014219164848328
-0.0632474496960639954 -0.241333186626434326 0.302424728870391846
-0.223272576928138733 -0.127346858382225037 -0.0531776063144207001
-0.410347104072570801 -0.0650904178619384766 0.0985410287976264954
-0.445430666208267212 -0.044355291873216629 0.132767423987388611
0.238414078950881958 -0.293822556734085083 0.314237058162689209
0.153341770172119141 -0.324104785919189453 0.319942861795425415
0.424812465906143188 -0.255867898464202881 0.328349292278289795
0.437622696161270142 -0.342841058969497681 -0.292887955904006958
0.505775630474090576 -0.334487438201904297 -0.318290024995803833
0.444473713636398315 -0.352188020944595337 -0.28694424033164978
0.237802639603614807 0.0660648122429847717 0.312112361192703247
0.402734547853469849 -0.287314862012863159 0.325673192739486694
-0.495134800672531128 0.00709769176319241524 0.188435479998588562
0.485325425863265991 -0.0630174651741981506 0.131451472640037537
0.0119217336177825928 -0.170415759086608887 0.00971489492803812027
0.531037807464599609 -0.30747908353805542 -0.0624447613954544067
0.31417962908744812 -0.302092850208282471 -0.127035051584243774
0.445327132940292358 -0.291230916976928711 -0.285867482423782349
-0.337216347455978394 0.225125998258590698 0.125713571906089783
-0.401284366846084595 -0.0277991853654384613 -0.00188303657341748476
0.402648687362670898 -0.271526426076889038 0.323890715837478638
-0.133630856871604919 0.196215927600860596 0.167651429772377014
0.398697078227996826 -0.271462589502334595 0.32370460033416748
-0.446920663118362427 -0.0245754923671483994 0.0214601941406726837
-0.138284057378768921 0.245276272296905518 0.191611066460609436
-0.612992346286773682 0.294408887624740601 0.183831080794334412
0.12418009340763092 0.116478286683559418 0.31650388240814209
-0.121230065822601318 0.251005977392196655 0.16173766553401947
-0.583519577980041504 0.348523080348968506 0.0582192689180374146
0.426353752613067627 -0.347879379987716675 0.152817666530609131
-0.56700211763381958 0.295431405305862427 -0.068926103413105011
0.25140005350112915 0.0270086042582988739 -0.0798482745885848999
0.247244685888290405 0.100702002644538879 -0.0486324988305568695
-0.357876509428024292 -0.0553253144025802612 -0.141862839460372925
0.19832301139831543 0.120571866631507874 0.0355070792138576508
0.545190870761871338 -0.131294712424278259 0.111726291477680206
-0.581868410110473633 0.322127819061279297 -0.0227747801691293716
0.205741479992866516 0.0250456575304269791 0.176620498299598694
-0.595497608184814453 0.375533223152160645 0.172108516097068787
0.44433891773223877 -0.318970382213592529 0.127146407961845398
0.254635632038116455 -0.278406232595443726 0.3162994384765625
0.235171198844909668 0.0241648908704519272 0.316366672515869141
-0.363286286592483521 -0.0493227280676364899 -0.0237619876861572266
-0.182990163564682007 0.118603892624378204 0.0422292090952396393
0.254348874092102051 -0.287848025560379028 0.319116532802581787
0.241612806916236877 0.03353886678814888 0.321628212928771973
0.399479061365127563 0.0236557945609092712 0.114887923002243042
-0.340922743082046509 -0.0656818225979804993 -0.147316277027130127
0.0753177031874656677 -0.332578063011169434 0.2988414466381073
-0.38707926869392395 -0.060315106064081192 0.0938498228788375854
-0.448462814092636108 -0.0408295542001724243 0.127778396010398865
0.43895992636680603 -0.27900049090385437 0.333421915769577026
0.0339645706117153168 -0.122437924146652222 -0.0257745850831270218
0.413915127515792847 -0.280449897050857544 0.326769500970840454
0.43262818455696106 -0.295752435922622681 0.332927435636520386
0.367404818534851074 -0.278408288955688477 -0.130515545606613159
-0.477573633193969727 0.00198894715867936611 0.188400059938430786
-0.291944891214370728 -0.0958395376801490784 -0.104581631720066071
0.240961357951164246 -0.312615871429443359 0.309484750032424927
0.472746223211288452 -0.353937149047851562 0.00681242626160383224
-0.296773284673690796 -0.0960883349180221558 -0.107027612626552582
0.244325414299964905 -0.288194149732589722 0.319873005151748657
0.0618532970547676086 -0.329278141260147095 0.296930223703384399
0.157472744584083557 -0.267356783151626587 -0.105709485709667206
0.249833837151527405 0.0638056620955467224 0.315253973007202148
-0.482721179723739624 -0.00739777274429798126 0.178003937005996704
0.235974609851837158 0.0669820085167884827 0.31461489200592041
0.238299772143363953 -0.331427544355392456 0.321216166019439697
-0.382574766874313354 -0.0914876535534858704 0.036755632609128952
-0.216542601585388184 -0.139584973454475403 -0.0544135123491287231
-0.382988810539245605 -0.0631241500377655029 0.0835642814636230469
0.149553999304771423 -0.331218510866165161 0.331734240055084229
0.445482820272445679 -0.279533207416534424 0.333344489336013794
0.407024502754211426 -0.28016015887260437 0.324883103370666504
-0.502224624156951904 0.00707542663440108299 0.188750982284545898
-0.322218209505081177 0.0977329090237617493 -0.0702977925539016724
0.532146692276000977 -0.207243010401725769 -0.0528962910175323486
0.450522303581237793 -0.293671607971191406 -0.290754765272140503
0.487001746892929077 -0.325029820203781128 -0.311157315969467163
0.445961326360702515 -0.309514105319976807 -0.291115343570709229
-0.577842772006988525 0.269614696502685547 0.365882039070129395
-0.461730599403381348 0.1062287837266922 -0.230979561805725098
0.374403804540634155 -0.318347275257110596 0.198846891522407532
-0.589879453182220459 0.367285490036010742 0.131325975060462952
0.392067432403564453 -0.353191614151000977 -0.217749685049057007
0.440654665231704712 -0.31005522608757019 -0.289325118064880371
-0.200878620147705078 0.305864423513412476 0.0948888882994651794
-0.155724719166755676 0.268372505903244019 0.151567205786705017
0.529422640800476074 -0.338169902563095093 0.0715639218688011169
0.463389873504638672 -0.265904545783996582 -0.217954963445663452
-0.63363724946975708 0.276066452264785767 0.107130445539951324
0.437974900007247925 -0.308346718549728394 -0.287496805191040039
0.515076518058776855 -0.276999562978744507 -0.317123591899871826
0.51618504524230957 -0.340141981840133667 -0.32102242112159729
0.453928589820861816 -0.306831479072570801 -0.293550610542297363
0.490500330924987793 -0.321642786264419556 0.09411659836769104
0.0200907867401838303 -0.275375634431838989 -0.0187055822461843491
-0.654274106025695801 0.172285065054893494 -0.108044542372226715
-0.224899381399154663 0.318967223167419434 0.121298424899578094
0.46490854024887085 -0.363820105791091919 0.00564168905839323997
0.480658262968063354 -0.3365325927734375 0.0500101484358310699
0.511084377765655518 -0.339201003313064575 -0.319682955741882324
0.439730316400527954 -0.356341540813446045 -0.297895938158035278
-0.270233213901519775 0.322424113750457764 0.0418345257639884949
0.423687249422073364 -0.313064545392990112 -0.282191336154937744
0.415112882852554321 -0.294909566640853882 0.328216999769210815
-0.326401710510253906 -0.0749364793300628662 0.123473212122917175
-0.367159634828567505 -0.0662560611963272095 0.15469658374786377
-0.338469028472900391 0.215294674038887024 0.132850587368011475
0.00974145438522100449 0.119843140244483948 0.104979418218135834
0.541648387908935547 -0.308947235345840454 -0.0464764796197414398
0.0131373535841703415 -0.261355102062225342 0.0393811836838722229
-0.00402416614815592766 -0.236125320196151733 0.0941374525427818298
-0.000264584086835384369 -0.219162359833717346 0.0813933089375495911
0.464495331048965454 -0.360671758651733398 0.0300432834774255753
-0.269717961549758911 -0.137576401233673096 0.17746657133102417
-0.345374554395675659 -0.0654282718896865845 0.141276910901069641
0.122982583940029144 -0.276275515556335449 0.128809735178947449
-0.134192153811454773 0.0792592540383338928 0.0901834219694137573
0.463136434555053711 -0.0541358888149261475 0.0172482598572969437
-0.0145996715873479843 -0.216474086046218872 0.0802388042211532593
-0.554848253726959229 0.392003178596496582 0.147834956645965576
0.496194720268249512 -0.366553366184234619 0.00497585302218794823
-0.610819756984710693 0.294407874345779419 0.186634764075279236
0.529618918895721436 -0.275066226720809937 -0.31795799732208252
0.369914978742599487 -0.264302611351013184 0.181258663535118103
0.419905304908752441 -0.34419405460357666 0.15058453381061554
0.251549988985061646 0.0395104885101318359 -0.0669815614819526672
0.549089789390563965 -0.149687081575393677 0.123919032514095306
-0.570691764354705811 0.284407198429107666 -0.00625900737941265106
0.50046771764755249 -0.362407296895980835 -0.00155433767940849066
0.207838624715805054 0.11601613461971283 -0.010748889297246933
-0.289582520723342896 -0.0852109119296073914 -0.0664254575967788696
0.158734068274497986 -0.0828803032636642456 -0.0363994725048542023
-0.340258866548538208 -0.105007484555244446 0.141317248344421387
0.510613560676574707 -0.281225889921188354 -0.313476979732513428
-0.339612752199172974 -0.0791938900947570801 0.0386367812752723694
-0.369609683752059937 0.281155288219451904 -0.0625670775771141052
0.509432137012481689 -0.340737909078598022 0.064844869077205658
0.30183759331703186 -0.205594763159751892 0.247645825147628784
0.542387664318084717 -0.311836689710617065 -0.0610235407948493958
0.14116986095905304 0.069913811981678009 0.33615267276763916
-0.595040321350097656 0.267888009548187256 0.0122959259897470474
0.221578493714332581 -0.00671964371576905251 0.295314162969589233
0.230454474687576294 0.0347007289528846741 0.312501072883605957
0.533093750476837158 -0.319431692361831665 -0.013070286251604557
-0.389608621597290039 -0.0635267496109008789 0.105815917253494263
-0.447805911302566528 -0.0396814048290252686 0.126629889011383057
0.495578527450561523 -0.0910918116569519043 0.154122769832611084
0.250501245260238647 0.0634824559092521667 0.316371738910675049
-0.291594088077545166 -0.0923180431127548218 0.307689189910888672
-0.36686253547668457 -0.114310771226882935 0.104105785489082336
-0.563649594783782959 0.12768186628818512 -0.0783403739333152771
-0.501684606075286865 0.0239222384989261627 0.186796575784683228
0.51767277717590332 -0.297247529029846191 -0.314308106899261475
0.472095608711242676 -0.32813715934753418 -0.300163984298706055
-0.574376344680786133 0.269282132387161255 0.362807810306549072
-0.571278750896453857 0.355288773775100708 0.167181655764579773
-0.191959336400032043 0.305116236209869385 0.101246267557144165
-0.662236332893371582 0.240137204527854919 0.0417943224310874939
-0.505032718181610107 0.144872605800628662 0.353420883417129517
0.506663382053375244 -0.347067922353744507 -0.318579286336898804
-0.200786113739013672 0.305449724197387695 0.10191027820110321
0.474644511938095093 -0.357465475797653198 0.0043989955447614193
0.509320855140686035 -0.330554872751235962 0.0661184266209602356
-0.610839784145355225 0.367951542139053345 0.0879296436905860901
-0.562699079513549805 0.288659512996673584 -0.0558264516294002533
0.219521611928939819 0.0106437355279922485 0.308841943740844727
0.240087926387786865 0.00546586746349930763 0.321296811103820801
-0.359926402568817139 -0.056469351053237915 -0.137857630848884583
0.398833125829696655 -0.252528607845306396 0.321631819009780884
0.399133950471878052 -0.262903422117233276 0.324384778738021851
0.223570242524147034 -0.323878675699234009 0.320449739694595337
0.410620808601379395 -0.267647236585617065 0.324803143739700317
-0.509310483932495117 0.0498896725475788116 0.195390135049819946
-0.631430566310882568 0.156871169805526733 -0.0525145083665847778
-0.502004325389862061 0.147439628839492798 0.345394790172576904
0.520475924015045166 -0.350630909204483032 -0.323318541049957275
0.494839906692504883 -0.34819483757019043 -7.99472691142000258e-05
-0.198281705379486084 0.0165620669722557068 -0.0500311031937599182
-0.557916164398193359 0.342152982950210571 -0.00559510476887226105
0.488051265478134155 -0.360316842794418335 0.0407422445714473724
0.448721706867218018 -0.0740610808134078979 0.00157192768529057503
-0.556373476982116699 0.385612070560455322 0.157959237694740295
0.374095678329467773 -0.0810336694121360779 -0.120298519730567932
-0.389838248491287231 0.320045292377471924 0.168872043490409851
-0.384790688753128052 0.328611284494400024 0.19756394624710083
-0.364424467086791992 0.238424897193908691 -0.0834796801209449768
-0.407507807016372681 0.199963033199310303 0.0409581735730171204
-0.644584357738494873 0.287183642387390137 0.093777783215045929
0.408060848712921143 -0.347067564725875854 0.136107668280601501
0.221894532442092896 0.083156287670135498 -0.0338838882744312286
0.498137831687927246 -0.161118313670158386 0.123449787497520447
0.499913990497589111 -0.0927059128880500793 0.134354978799819946
0.214926347136497498 0.00220144703052937984 0.29917570948600769
-0.353486627340316772 -0.0677376911044120789 -0.00906125176697969437
-0.385648846626281738 0.266412436962127686 -0.0716460719704627991
0.50599372386932373 -0.346960395574569702 0.0545991472899913788
-0.35734933614730835 -0.0559343360364437103 -0.145450487732887268
0.131796658039093018 0.0729783028364181519 0.321882545948028564
-0.100106224417686462 -0.265222668647766113 0.00600579613819718361
0.242006972432136536 0.0236071199178695679 0.321600407361984253
-0.480580538511276245 -0.0113189732655882835 0.185385748744010925
0.242051824927330017 0.0485962964594364166 0.316778987646102905
-0.278395175933837891 0.333094239234924316 0.0406224578619003296
0.369339108467102051 -0.0307123530656099319 -0.0403467267751693726
0.519682705402374268 -0.347895592451095581 -0.0366422571241855621
0.292813420295715332 -0.0117624867707490921 0.0366423875093460083
-0.644272327423095703 0.285102546215057373 0.092624858021736145
0.0353384129703044891 0.137051790952682495 0.0848734453320503235
-0.397722005844116211 -0.0572329610586166382 0.125915810465812683
-0.441662758588790894 -0.037833038717508316 0.131369367241859436
0.523360013961791992 -0.31749233603477478 -0.0657908692955970764
0.421979308128356934 -0.279841423034667969 0.330868035554885864
0.509161174297332764 -0.344855695962905884 0.0567667819559574127
0.40339130163192749 -0.258707940578460693 0.323278456926345825
-0.480489194393157959 0.018433697521686554 0.176771834492683411
0.235102370381355286 0.0687850639224052429 0.314177036285400391
-0.479658901691436768 -0.00798080768436193466 0.16741730272769928
0.238726750016212463 0.0677922219038009644 0.314577490091323853
0.387718230485916138 0.0261210016906261444 0.105573967099189758
0.219091683626174927 -0.315873831510543823 0.310107499361038208
0.382544159889221191 0.0430281460285186768 0.0686118006706237793
0.462282687425613403 0.0108554642647504807 0.174616992473602295
0.3990153968334198 -0.258498996496200562 0.326853424310684204
-0.499798297882080078 0.0215016677975654602 0.180998742580413818
-0.573571443557739258 0.266558200120925903 0.360029935836791992
-0.664709031581878662 0.230197027325630188 0.0219382978975772858
-0.149517670273780823 0.275696903467178345 0.0789175629615783691
0.521519839763641357 -0.335054099559783936 -0.322937339544296265
-0.220598697662353516 0.316009998321533203 0.0966438651084899902
0.499379932880401611 -0.346445441246032715 0.0666555091738700867
-0.189950942993164062 0.30309826135635376 0.114646032452583313
0.313160091638565063 -0.129989326000213623 0.300363451242446899
0.224642276763916016 -0.0350137092173099518 0.304820001125335693
0.0569006837904453278 -0.330549508333206177 0.29117894172668457
0.434778481721878052 -0.279878795146942139 0.332378298044204712
0.408491909503936768 -0.285673081874847412 0.330549925565719604
0.385193884372711182 -0.26569676399230957 0.318430870771408081
0.396809101104736328 -0.38463902473449707 -0.226036965847015381
-0.162476241588592529 0.27873152494430542 0.128477990627288818
0.380185425281524658 0.0440524443984031677 0.0765543878078460693
0.390323668718338013 -0.255653709173202515 0.318436980247497559
-0.500515222549438477 0.0247838199138641357 0.185835480690002441
0.499059498310089111 -0.325930804014205933 -0.313574016094207764
0.379975259304046631 -0.37592470645904541 -0.21665211021900177
0.520582914352416992 -0.349277675151824951 -0.325334757566452026
0.520142078399658203 -0.34841609001159668 -0.322274625301361084
0.512762844562530518 -0.319662153720855713 -0.318911164999008179
0.254398196935653687 -0.222208917140960693 0.0571216978132724762
0.185385718941688538 -0.142133474349975586 -0.10597652941942215
0.507281839847564697 -0.320151150226593018 0.0288097206503152847
-0.469682157039642334 -0.0115726739168167114 0.181075260043144226
0.495642244815826416 -0.348967581987380981 -0.31023833155632019
0.520927131175994873 -0.327538102865219116 -0.322412669658660889
0.475440651178359985 -0.320246458053588867 -0.303530603647232056
-0.341445028781890869 0.230212181806564331 -0.044392414391040802
0.201267361640930176 0.133030891418457031 0.11180742084980011
-0.172987595200538635 0.0225373506546020508 0.0254278127104043961
0.265019506216049194 -0.165670394897460938 0.00563279958441853523
0.544194877147674561 -0.328259378671646118 -0.0482732728123664856
-0.456565737724304199 -0.0527833998203277588 0.162181466817855835
0.469123035669326782 -0.3560599684715271 -0.307577311992645264
0.477891296148300171 -0.269804924726486206 -0.302028834819793701
0.466732919216156006 -0.361868202686309814 -0.308665722608566284
-0.320422381162643433 0.267006933689117432 0.0114175509661436081
0.0327076241374015808 0.0988799333572387695 0.128215119242668152
-0.285013318061828613 -0.0997797101736068726 -0.0874739140272140503
-0.616977214813232422 0.217267274856567383 -0.104738600552082062
0.243899181485176086 0.10466727614402771 -0.030207514762878418
0.465706825256347656 -0.2350892573595047 -0.229011163115501404
-0.294255167245864868 -0.0882341712713241577 -0.0960141047835350037
0.248593419790267944 -0.275750488042831421 0.322206616401672363
0.221509426832199097 0.0670515969395637512 -0.0283462926745414734
-0.25128898024559021 -0.129915863275527954 -0.0556071512401103973
-0.211814671754837036 0.302353948354721069 0.148567914962768555
0.339309126138687134 -0.14044208824634552 0.317907989025115967
0.529174149036407471 -0.356495380401611328 0.0692437514662742615
-0.599978327751159668 0.356920629739761353 0.0605037510395050049
-0.346667557954788208 -0.0554609149694442749 -0.143694967031478882
-0.433014661073684692 0.157917067408561707 -0.0846459716558456421
0.526064634323120117 -0.331629127264022827 0.019945874810218811
0.527639865875244141 -0.287900447845458984 -0.0705963075160980225
-0.499123543500900269 0.142959088087081909 -0.253859758377075195
0.1460590660572052 0.156999498605728149 0.0584105886518955231
0.252763688564300537 -0.00745838088914752007 0.327268809080123901
0.349454194307327271 -0.14703001081943512 0.320142298936843872
0.441687732934951782 -0.322453081607818604 -0.2297993004322052
-0.224531084299087524 -0.139729976654052734 -0.0539340674877166748
0.521997809410095215 -0.350126922130584717 0.096507437527179718
-0.64620739221572876 0.253758132457733154 0.023973509669303894
0.392685920000076294 -0.279970526695251465 0.321881890296936035
-0.474869996309280396 -0.00952516403049230576 0.164860755205154419
0.223857671022415161 -0.324880778789520264 0.318706512451171875
-0.363949954509735107 -0.12087288498878479 0.13033565878868103
-0.238971397280693054 -0.140355527400970459 -0.0540561042726039886
-0.114427201449871063 -0.00885185878723859787 -0.0168629996478557587
0.388910233974456787 -0.278240591287612915 0.320213019847869873
-0.507158875465393066 0.0116022573783993721 0.201958358287811279
0.462049007415771484 -0.296846598386764526 -0.294743359088897705
0.350798070430755615 -0.147988379001617432 0.32099837064743042
0.457296818494796753 -0.303627341985702515 -0.229270145297050476
0.0239144321531057358 -0.14348524808883667 -0.0204136501997709274
0.368449151515960693 -0.3276328444480896 0.318368524312973022
0.391134977340698242 -0.281394034624099731 0.316474229097366333
0.127916499972343445 -0.318949848413467407 -0.0973754972219467163
-0.134770259261131287 0.278792500495910645 0.117324218153953552
-0.333622843027114868 0.0948725044727325439 -0.102462157607078552
0.373407632112503052 -0.375786006450653076 -0.215204998850822449
0.519359707832336426 -0.345665901899337769 -0.322953224182128906
0.522926926612854004 -0.357930600643157959 -0.326807200908660889
-0.0688632726669311523 -0.254503399133682251 0.0987318903207778931
0.325246155261993408 -0.130680710077285767 0.314331978559494019
0.423824995756149292 -0.259634554386138916 0.327878266572952271
-0.480098724365234375 0.0322592221200466156 0.196700975298881531
0.526118099689483643 -0.299532175064086914 -0.322428315877914429
0.537562310695648193 -0.292384594678878784 -0.324840903282165527
0.377204328775405884 -0.374024868011474609 -0.213917091488838196
0.370714902877807617 -0.356960296630859375 -0.213922992348670959
0.523550450801849365 -0.351529479026794434 -0.32519116997718811
0.524855971336364746 -0.363305419683456421 -0.323276132345199585
0.515020430088043213 -0.327078551054000854 -0.320280581712722778
0.478936493396759033 -0.352220326662063599 -0.312418073415756226
0.477898687124252319 -0.365489602088928223 -0.313130766153335571
-0.361973315477371216 0.310840040445327759 0.239737078547477722
-0.321123987436294556 0.104502260684967041 0.0221583601087331772
-0.44785657525062561 0.204659551382064819 -0.0403342209756374359
-0.377973347902297974 0.279778957366943359 -0.00728461239486932755
-0.0231122691184282303 -0.260424196720123291 0.143677398562431335
-0.592081248760223389 0.361794084310531616 0.064301706850528717
0.366905957460403442 -0.373349368572235107 -0.212707847356796265
-0.124556668102741241 -0.0102949189022183418 0.00783446058630943298
0.396001160144805908 -0.35324251651763916 -0.21853308379650116
0.50690227746963501 -0.159377008676528931 0.124836944043636322
0.194971099495887756 0.125040248036384583 0.00606159167364239693
-0.0272662416100502014 0.167267501354217529 0.382817983627319336
-0.334457695484161377 -0.120714694261550903 0.100319951772689819
-0.325521886348724365 0.303305894136428833 -0.0367652587592601776
0.533609330654144287 -0.3466605544090271 0.0375330597162246704
0.524854958057403564 -0.331692010164260864 0.0342000909149646759
-0.595885872840881348 0.382443249225616455 0.113486319780349731
-0.0116782896220684052 -0.14390188455581665 -0.0270200725644826889
-0.235618516802787781 0.172454819083213806 -0.00175830675289034843
-0.485748887062072754 -0.0102118654176592827 0.177285999059677124
-0.278314501047134399 0.336505740880966187 0.0421726778149604797
0.512945592403411865 -0.348913192749023438 0.0967684835195541382
-0.44891020655632019 -0.0353652127087116241 0.117472425103187561
0.433911710977554321 -0.253082931041717529 0.331476032733917236
0.41438370943069458 -0.278194844722747803 0.326953023672103882
-0.469142526388168335 0.0348765775561332703 0.193633437156677246
0.501759946346282959 -0.33941650390625 0.00765802524983882904
-0.481705665588378906 -0.00236731581389904022 0.177615746855735779
-0.377832859754562378 -0.106288857758045197 0.092948131263256073
-0.501264691352844238 0.0226353425532579422 0.184397414326667786
0.360044360160827637 -0.286754399538040161 -0.142077341675758362
0.000984424841590225697 -0.23102886974811554 0.0899182036519050598
-0.140568315982818604 0.265497356653213501 0.0882990062236785889
-0.129895031452178955 0.254814445972442627 0.0712846219539642334
0.311980366706848145 -0.293097972869873047 -0.13142317533493042
0.427742063999176025 -0.255321890115737915 0.329976648092269897
-0.615524411201477051 0.30699765682220459 0.392306596040725708
0.410166680812835693 -0.357832342386245728 -0.226601541042327881
0.504602491855621338 -0.346390098333358765 -0.320052862167358398
0.507299125194549561 -0.352426737546920776 -0.322758078575134277
0.523099243640899658 -0.298392057418823242 -0.318851232528686523
0.509261608123779297 -0.346737116575241089 -0.320377081632614136
0.269434660673141479 -0.169180363416671753 -0.0798259302973747253
0.13337138295173645 0.120724938809871674 0.328885763883590698
0.251322776079177856 -0.284779191017150879 0.327947705984115601
0.323999702930450439 -0.119972832500934601 0.31036531925201416
0.301923096179962158 -0.204166010022163391 0.250912755727767944
0.249646976590156555 -0.00346893491223454475 0.324824690818786621
0.506793797016143799 -0.342949837446212769 0.0873048827052116394
0.241344451904296875 0.0902153700590133667 0.309729874134063721
0.462354123592376709 -0.283937335014343262 -0.231393679976463318
-0.262477964162826538 0.314390599727630615 0.0457942076027393341
0.343652188777923584 -0.139739096164703369 0.329169213771820068
0.373256295919418335 -0.363709956407546997 -0.208917558193206787
0.337196379899978638 -0.129004716873168945 0.320411950349807739
0.52601325511932373 -0.347080022096633911 -0.324194222688674927
0.523777365684509277 -0.351936280727386475 -0.32674679160118103
0.479537874460220337 -0.372200638055801392 -0.313218951225280762
-0.360384553670883179 -0.0646009296178817749 0.0829226225614547729
-0.407831370830535889 0.0890290886163711548 -0.113134585320949554
0.0137058179825544357 0.0985627248883247375 0.21699225902557373
-0.378939270973205566 -0.0928107872605323792 -0.028291996568441391
0.264996826648712158 0.0686813518404960632 -0.092141374945640564
-0.108725555241107941 -0.0147633012384176254 0.0459147095680236816
-0.358509182929992676 -0.0916359797120094299 0.0129577536135911942
-0.290590733289718628 0.305238097906112671 0.166583538055419922
-0.355935066938400269 -0.0731739029288291931 0.0406607091426849365
-0.598721623420715332 0.294933557510375977 0.186684325337409973
0.248961731791496277 0.0970627516508102417 -0.0346086546778678894
0.378547847270965576 -0.354763716459274292 -0.20959116518497467
0.469261974096298218 -0.324532270431518555 0.137722402811050415
0.463964492082595825 -0.27167665958404541 -0.0932472944259643555
-0.439972937107086182 -0.0426878370344638824 0.084296301007270813
-0.336717993021011353 -0.124387301504611969 0.127622604370117188
0.527835428714752197 -0.341733723878860474 0.0507644712924957275
0.392328917980194092 0.0473708808422088623 0.133268073201179504
-0.186183929443359375 0.314499467611312866 0.107759051024913788
-0.441917061805725098 -0.0425809957087039948 0.117866657674312592
0.536868393421173096 -0.326024800539016724 -0.0558971799910068512
-0.353257983922958374 0.306818068027496338 0.114217810332775116
0.493625909090042114 -0.345921754837036133 0.0438455194234848022
-0.575685560703277588 0.305547952651977539 0.379447340965270996
0.430483430624008179 -0.280786037445068359 0.3334369957447052
-0.477897763252258301 0.0043957047164440155 0.164202019572257996
0.524469435214996338 -0.349699944257736206 -0.00281895836815237999
-0.0678129494190216064 -0.262558013200759888 0.298349320888519287
-0.512182056903839111 0.00494079990312457085 0.18814396858215332
0.389299213886260986 -0.360190987586975098 -0.215885579586029053
-0.118807397782802582 0.254784822463989258 0.0635057911276817322
-0.500694513320922852 0.00536322407424449921 0.193328365683555603
0.425964921712875366 -0.274286508560180664 0.330369055271148682
-0.333969771862030029 0.104513064026832581 -0.118545040488243103
-0.106157585978507996 0.254652738571166992 0.0935166999697685242
0.510183334350585938 -0.341630548238754272 -0.319855958223342896
-0.612986743450164795 0.30296286940574646 0.396327763795852661
-0.509249866008758545 0.0369454175233840942 0.188663780689239502
-0.291576296091079712 -0.0888212472200393677 -0.0786694660782814026
0.509037017822265625 -0.344909936189651489 -0.321280360221862793
0.071419939398765564 0.139691799879074097 0.0723054185509681702
0.245211318135261536 0.10753447562456131 0.321176081895828247
0.472638338804244995 -0.286700785160064697 -0.230922088027000427
0.3047141432762146 -0.31450238823890686 0.331502825021743774
0.511252105236053467 -0.349977731704711914 -0.322303622961044312
-0.315835446119308472 -0.0866438448429107666 -0.034298088401556015
0.513865232467651367 -0.355682343244552612 -0.323267430067062378
-0.625500380992889404 0.180670320987701416 -0.0860897824168205261
-0.354015558958053589 -0.0555597096681594849 -0.143990173935890198
-0.331571906805038452 0.269932866096496582 -0.0551168918609619141
-0.17767632007598877 0.139321193099021912 0.00489579886198043823
0.544957220554351807 -0.217284008860588074 0.158886462450027466
0.0301495455205440521 0.102912798523902893 0.0651818588376045227
0.509311854839324951 -0.330845743417739868 -0.319658994674682617
0.585393965244293213 -0.325132936239242554 -0.320233404636383057
0.249186307191848755 -0.288092702627182007 0.318168759346008301
0.25511932373046875 -0.00277758389711380005 0.327761054039001465
0.301021605730056763 -0.282371461391448975 0.331018984317779541
-0.344628572463989258 -0.0904423519968986511 0.017975296825170517
-0.374812871217727661 -0.0896397903561592102 -0.0182519257068634033
-0.065922759473323822 -0.273144781589508057 0.159294500946998596
-0.630685687065124512 0.276008129119873047 0.076047748327255249
0.365995794534683228 -0.365531653165817261 -0.212486356496810913
-0.124901540577411652 -0.0288293454796075821 -0.0067307567223906517
-0.598764300346374512 0.342695027589797974 0.0906468331813812256
0.443410396575927734 -0.249389976263046265 -0.286563187837600708
0.382061123847961426 -0.348012834787368774 -0.212358877062797546
0.311760753393173218 -0.372600287199020386 -0.156348839402198792
-0.179820969700813293 0.313136368989944458 0.0999433323740959167
0.53463435173034668 -0.319203943014144897 -0.0327108465135097504
-0.655410706996917725 0.23871341347694397 0.0141463605687022209
-0.453361034393310547 -0.0535097010433673859 0.163327917456626892
0.499440997838973999 -0.34846872091293335 0.0710686147212982178
0.440030932426452637 -0.260731220245361328 0.334042906761169434
0.506727457046508789 -0.343698590993881226 0.0296141374856233597
0.264085531234741211 0.121849887073040009 0.0267824027687311172
0.39942970871925354 0.0327704139053821564 0.139436572790145874
-0.106777787208557129 0.253047943115234375 0.0725422501564025879
0.316014021635055542 -0.380628526210784912 -0.157225027680397034
-0.566902458667755127 0.295900464057922363 -0.0513539612293243408
0.389757752418518066 -0.362707614898681641 -0.22126452624797821
0.35857236385345459 0.0336708612740039825 0.0482254251837730408
0.193904995918273926 -0.365281552076339722 -0.0960183218121528625
0.39063689112663269 -0.355633169412612915 -0.217392489314079285
0.519189834594726562 -0.335146039724349976 -0.322801411151885986
0.522396445274353027 -0.333331137895584106 -0.324241846799850464
0.243850022554397583 0.0244457293301820755 0.323687106370925903
0.211912587285041809 -0.338368028402328491 0.318383604288101196
0.236701220273971558 0.106393113732337952 0.314754366874694824
0.521151065826416016 -0.33705553412437439 -0.32588958740234375
0.317514330148696899 -0.37973824143409729 -0.151380181312561035
0.583723545074462891 -0.318017303943634033 -0.334450453519821167
-0.381421715021133423 -0.0930782333016395569 -0.01775311678647995
0.457749009132385254 -0.32536587119102478 0.124737001955509186
0.388503968715667725 0.0537950098514556885 0.131258457899093628
-0.174055144190788269 0.307741045951843262 0.10582173615694046
-0.462500214576721191 -0.0296968128532171249 0.134564325213432312
0.439168393611907959 -0.261315226554870605 0.334821432828903198
