ply
format ascii 1.0
element vertex 737
property float x
property float y
property float z
end_header
0.208587348461151123 0.00907776039093732834 0.300957649946212769
-0.634176433086395264 0.248566508293151855 -0.00554763572290539742
-0.128081455826759338 0.270429998636245728 0.132533624768257141
0.270924568176269531 -0.329810082912445068 0.180195212364196777
0.532900035381317139 -0.209702834486961365 -0.0988046154379844666
-0.126605510711669922 -0.112074993550777435 -0.0545484907925128937
0.453977346420288086 -0.338467448949813843 -0.297999352216720581
-0.212708175182342529 0.0368246696889400482 -0.0594025664031505585
-0.553194940090179443 0.176309108734130859 0.0132261822000145912
-0.198597490787506104 0.140224114060401917 0.0214209277182817459
-0.0127102723345160484 -0.101948834955692291 -0.0427379496395587921
0.264611005783081055 -0.274418383836746216 0.202540963888168335
0.3484954833984375 -0.320624351501464844 3.74825540347956121e-05
-0.156033456325531006 0.0703854113817214966 0.0277943890541791916
-0.249281376600265503 0.131396636366844177 -0.0341464616358280182
0.19898831844329834 0.00220019696280360222 0.0191905423998832703
0.0762393772602081299 0.0814362391829490662 0.0241180919110774994
-0.283490687608718872 0.288880616426467896 -0.00561346486210823059
0.476759463548660278 -0.289390146732330322 -0.301647782325744629
-0.556885957717895508 0.266280204057693481 -0.0168112050741910934
-0.237475037574768066 0.0982425510883331299 -0.0321664698421955109
0.137705147266387939 -0.280306398868560791 0.150206506252288818
0.296194672584533691 -0.296883344650268555 0.0570053383708000183
-0.286094069480895996 0.257856696844100952 0.000874608871527016163
-0.0211905892938375473 -0.0397700592875480652 0.0891992524266242981
0.204381853342056274 0.0432951897382736206 0.0658129975199699402
-0.143838658928871155 -0.0845841243863105774 0.0919550657272338867
0.372367382049560547 -0.0728870034217834473 0.0316112823784351349
0.521200656890869141 -0.198640406131744385 -0.0984987765550613403
0.486905336380004883 -0.297390371561050415 -0.305299878120422363
0.480288267135620117 -0.314358979463577271 0.122341029345989227
0.513427436351776123 -0.306737005710601807 -0.102376140654087067
0.495829790830612183 -0.309021592140197754 -0.309663623571395874
0.505994856357574463 -0.327361017465591431 -0.00409718276932835579
0.511591076850891113 -0.324063688516616821 0.11837603896856308
0.465684622526168823 -0.288290113210678101 -0.296504348516464233
0.437786102294921875 -0.262971192598342896 -0.194250553846359253
0.135002046823501587 0.117490850389003754 0.337189793586730957
0.39644196629524231 -0.243860989809036255 0.318794548511505127
-0.601634502410888672 0.354817092418670654 0.0660279914736747742
-0.505219459533691406 0.357746213674545288 0.178781121969223022
0.542487263679504395 -0.282037526369094849 0.0979370847344398499
0.256244063377380371 0.037447173148393631 -0.0719944238662719727
-0.233282819390296936 0.156591638922691345 -0.00500300340354442596
0.505985081195831299 -0.331528425216674805 -0.00251955608837306499
0.444593757390975952 -0.249561205506324768 -0.227968901395797729
-0.639172613620758057 0.255050182342529297 0.0550303906202316284
0.532460331916809082 -0.262207478284835815 0.0932516977190971375
-0.393265426158905029 -0.0586539693176746368 0.100773394107818604
0.52373349666595459 -0.289200842380523682 -0.092074468731880188
0.027772657573223114 -0.273590236902236938 -0.0351262390613555908
0.384970128536224365 -0.305556207895278931 0.118843324482440948
-0.582307517528533936 0.367365092039108276 0.13221701979637146
0.240057393908500671 0.00349835027009248734 0.181208163499832153
-0.113126680254936218 0.166092678904533386 0.347780495882034302
0.481995612382888794 -0.367900252342224121 -0.0220403894782066345
0.412008672952651978 -0.320705980062484741 -0.210979685187339783
0.507130682468414307 -0.15501779317855835 0.124019511044025421
0.528642892837524414 -0.334254711866378784 0.0128378253430128098
-0.584269940853118896 0.336967974901199341 0.0346001647412776947
-0.590882837772369385 0.38245883584022522 0.131776750087738037
0.526125490665435791 -0.243919804692268372 -0.310591429471969604
0.474227845668792725 -0.290311485528945923 -0.299400806427001953
-0.59734499454498291 0.354242563247680664 0.170173913240432739
-0.587472856044769287 0.371995598077774048 0.101630628108978271
-0.212291315197944641 -0.128959774971008301 -0.0574271306395530701
0.234219282865524292 -0.292537122964859009 0.315049618482589722
0.237906649708747864 0.0676930621266365051 0.320169687271118164
0.541683971881866455 -0.313400000333786011 -0.0580894649028778076
-0.444847404956817627 -0.047793123871088028 0.127443760633468628
0.359300702810287476 -0.387903451919555664 -0.208945319056510925
-0.556740283966064453 0.211741015315055847 -0.113222137093544006
0.520633697509765625 -0.279113322496414185 -0.177081853151321411
0.241763666272163391 0.0353329777717590332 0.314642429351806641
0.242559641599655151 0.0010328489588573575 0.0237449854612350464
0.38050156831741333 0.0394250005483627319 0.0119390273466706276
0.526598274707794189 -0.23021775484085083 -0.310100018978118896
0.326805531978607178 0.0967889502644538879 -0.0358575880527496338
-0.374455392360687256 -0.0596504434943199158 -0.132563918828964233
0.512758135795593262 -0.167018517851829529 0.135913148522377014
-0.574641823768615723 0.322576165199279785 0.0499672964215278625
-0.559124171733856201 0.283985555171966553 0.364580422639846802
0.224220782518386841 0.0325603336095809937 -0.0581020452082157135
-0.574524343013763428 0.215195804834365845 -0.220660015940666199
-0.0444850511848926544 0.157236993312835693 0.0814331620931625366
0.113881923258304596 0.11070694774389267 0.0255996715277433395
0.342506140470504761 -0.246483013033866882 -0.0968292653560638428
-0.285275876522064209 0.301073729991912842 -0.00249336729757487774
0.153078138828277588 -0.00375310145318508148 -0.00344314216636121273
0.0688590705394744873 0.139498472213745117 0.075835302472114563
-0.270268350839614868 0.280828356742858887 0.00202054204419255257
0.50316697359085083 -0.292159914970397949 -0.159322738647460938
0.136743515729904175 -0.0251777078956365585 0.0132505837827920914
-0.339241564273834229 -0.0313597880303859711 0.0231233183294534683
0.373180180788040161 -0.0912820696830749512 0.0443230941891670227
0.199715033173561096 0.101894550025463104 -0.00172001775354146957
-0.297485232353210449 -0.0243910029530525208 0.0362405925989151001
0.13154253363609314 -0.0171727072447538376 -0.0259520411491394043
0.101178362965583801 0.0167082305997610092 0.0913720875978469849
0.175473481416702271 0.120008565485477448 0.0381509102880954742
-0.230720117688179016 -0.0630358383059501648 0.104925796389579773
0.485889017581939697 -0.296253323554992676 -0.303529202938079834
-0.603314995765686035 0.290063619613647461 0.18561910092830658
0.467007070779800415 -0.308235436677932739 0.120098143815994263
0.378053009510040283 -0.0138939283788204193 0.0064238901250064373
0.514177680015563965 -0.294870615005493164 -0.103469483554363251
0.518664062023162842 -0.239308744668960571 -0.307599931955337524
0.477719932794570923 -0.309319138526916504 -0.300281912088394165
0.483194082975387573 -0.274103522300720215 -0.299915313720703125
0.11705133318901062 0.119399145245552063 0.297768265008926392
-0.584337592124938965 0.35688704252243042 0.0662484839558601379
0.383521318435668945 -0.33684810996055603 0.12553723156452179
-0.574633479118347168 0.318237602710723877 -0.026140064001083374
-0.604618668556213379 0.217687949538230896 -0.0865098237991333008
0.267514824867248535 0.0398401916027069092 -0.0861951634287834167
-0.356631219387054443 -0.0215550102293491364 -0.130859583616256714
-0.564439237117767334 0.314873039722442627 -0.00749432947486639023
0.190387874841690063 -0.34029698371887207 -0.0746730417013168335
0.403930813074111938 -0.357197493314743042 -0.224028438329696655
-0.500342071056365967 0.1461753249168396 0.35501369833946228
0.509431958198547363 -0.150979399681091309 0.114991433918476105
0.49666285514831543 -0.263511687517166138 -0.304394692182540894
0.457766503095626831 -0.280462056398391724 -0.289752721786499023
0.440724700689315796 -0.264539122581481934 -0.283704906702041626
-0.588155150413513184 0.357989907264709473 0.0621612817049026489
0.50503838062286377 -0.126294896006584167 0.124410845339298248
-0.206397354602813721 0.313050925731658936 0.109053812921047211
0.268032431602478027 -0.283573746681213379 0.319221615791320801
0.232386484742164612 0.00409138202667236328 0.317940026521682739
0.513075888156890869 -0.175247132778167725 -0.281773030757904053
-0.115447483956813812 0.0105120502412319183 0.00612330762669444084
0.403662383556365967 -0.359226435422897339 -0.224651649594306946
0.417417168617248535 -0.312783032655715942 0.143785566091537476
-0.55560535192489624 0.377017885446548462 0.187251612544059753
-0.175815150141716003 0.309719622135162354 0.11872391402721405
-0.389934659004211426 0.276634544134140015 -0.0847162380814552307
0.365065515041351318 0.0523662380874156952 0.0246487893164157867
0.129025578498840332 0.116285935044288635 0.318990141153335571
-0.286745965480804443 -0.0999782532453536987 -0.0918217748403549194
0.25791284441947937 0.101474761962890625 -0.0619639270007610321
-0.361472040414810181 -0.0592089034616947174 -0.143832728266716003
0.133980199694633484 0.114242203533649445 0.337933123111724854
-0.563294827938079834 0.199856936931610107 -0.228642329573631287
-0.276601403951644897 0.288605481386184692 -0.000612108095083385706
0.454686850309371948 -0.246030852198600769 -0.288295626640319824
0.460031509399414062 -0.274993479251861572 -0.290820211172103882
-0.634973704814910889 0.308680027723312378 0.170826822519302368
0.512302756309509277 -0.317028641700744629 -0.0385652557015419006
0.468741446733474731 -0.265392601490020752 -0.297948151826858521
0.47795635461807251 -0.294612765312194824 -0.300224155187606812
0.457945168018341064 -0.245814874768257141 -0.289867430925369263
0.380888789892196655 -0.360557824373245239 -0.213838547468185425
-0.479531228542327881 -0.0119614433497190475 0.186218753457069397
-0.516591072082519531 0.36631360650062561 0.174486562609672546
-0.618700623512268066 0.202577173709869385 -0.0867721140384674072
-0.237504303455352783 0.0194232184439897537 -0.072294279932975769
-0.382751733064651489 -0.0584265328943729401 0.024024616926908493
0.474677383899688721 -0.367889344692230225 0.021827157586812973
-0.649396121501922607 0.237292021512985229 0.0326517671346664429
0.412360250949859619 -0.346295773983001709 -0.221627265214920044
0.525896608829498291 -0.336689949035644531 0.0800840035080909729
0.50585484504699707 -0.238609492778778076 -0.308061480522155762
0.249387547373771667 -0.281751871109008789 0.318284511566162109
0.239060476422309875 0.0671237334609031677 0.314713954925537109
0.53940117359161377 -0.301400572061538696 -0.0936481133103370667
-0.448001086711883545 -0.0407959744334220886 0.126878947019577026
-0.0439826026558876038 0.105067633092403412 0.318009912967681885
0.247819602489471436 0.0215725898742675781 0.322267323732376099
-0.285070240497589111 -0.0991123542189598083 -0.0988381952047348022
-0.137974202632904053 -0.0144964586943387985 -0.0485879145562648773
-0.278037488460540771 0.338445872068405151 0.047321077436208725
-0.254890263080596924 0.29049384593963623 -0.0029392424039542675
-0.219066902995109558 0.3224678635597229 0.0701527222990989685
-0.573405146598815918 0.152826592326164246 -0.0740976929664611816
-0.290122121572494507 0.293303400278091431 0.0163525696843862534
0.525461435317993164 -0.320206195116043091 0.0271971169859170914
0.345909208059310913 -0.0299794115126132965 -0.0344355069100856781
0.522081851959228516 -0.362453699111938477 0.0894200056791305542
-0.0835201218724250793 -0.111230343580245972 0.0786763802170753479
-0.404108703136444092 0.326630085706710815 0.121611550450325012
0.504580557346343994 -0.366623729467391968 -0.00446381885558366776
-0.118863306939601898 0.266682296991348267 0.121216848492622375
0.518555164337158203 -0.342499643564224243 0.0358681641519069672
0.13011467456817627 -0.334162265062332153 0.301327109336853027
0.46644708514213562 -0.31058385968208313 0.0724797472357749939
0.482686161994934082 -0.373545706272125244 0.0523511879146099091
0.420923233032226562 -0.0255392789840698242 0.0648834481835365295
0.493970394134521484 -0.363084137439727783 -0.0155133772641420364
-0.233116179704666138 0.287746548652648926 0.0844404026865959167
0.531054556369781494 -0.33130878210067749 -0.00720147229731082916
-0.272098392248153687 0.315990626811981201 0.114292040467262268
0.308052420616149902 0.0031263942364603281 0.0463537201285362244
0.467222929000854492 -0.263000637292861938 -0.296019792556762695
0.473652899265289307 -0.303856760263442993 0.114249646663665771
0.510997176170349121 -0.313200891017913818 -0.104364156723022461
0.509004056453704834 -0.244957506656646729 -0.308379203081130981
0.447741538286209106 -0.292093038558959961 -0.292704850435256958
0.466187536716461182 -0.282860368490219116 -0.297228366136550903
0.138212487101554871 0.113359667360782623 0.33687099814414978
-0.652216613292694092 0.286247313022613525 0.098477974534034729
-0.638440728187561035 0.245370015501976013 -0.0377807468175888062
0.136189326643943787 0.0698413178324699402 0.337985605001449585
-0.577237308025360107 0.304360389709472656 -0.0551438480615615845
0.262291282415390015 0.0310216527432203293 -0.0734011903405189514
0.541808724403381348 -0.21625518798828125 0.111574307084083557
-0.360263139009475708 -0.0351962000131607056 -0.13403765857219696
-0.574874997138977051 0.328040778636932373 -0.0291475392878055573
-0.361949354410171509 -0.0703610852360725403 -0.0336969979107379913
-0.130772367119789124 -0.267047971487045288 0.119269900023937225
0.494942396879196167 -0.365377992391586304 -0.000351932161720469594
0.373577147722244263 -0.358953922986984253 -0.210003674030303955
-0.378531664609909058 -0.106332339346408844 0.101606935262680054
-0.0672533363103866577 -0.26353570818901062 0.296613335609436035
0.51968836784362793 -0.242911547422409058 -0.309398293495178223
0.509282529354095459 -0.330110490322113037 0.0152911422774195671
-0.593455076217651367 0.369533121585845947 0.121036335825920105
-0.655507087707519531 0.176211178302764893 -0.102611415088176727
-0.223231539130210876 -0.143596261739730835 -0.0535044744610786438
-0.191394016146659851 0.317229211330413818 0.101004749536514282
0.256491273641586304 -0.283044815063476562 0.319716006517410278
0.239028900861740112 0.0327632017433643341 0.319179415702819824
-0.12032792717218399 -0.045517999678850174 0.00751213729381561279
-0.64166259765625 0.30919039249420166 0.102322407066822052
0.364458471536636353 -0.373497754335403442 -0.206917643547058105
0.537602722644805908 -0.217272102832794189 0.161856293678283691
-0.552839338779449463 0.383025050163269043 0.158420443534851074
-0.122647926211357117 0.259901195764541626 0.115348920226097107
0.119258001446723938 0.10306047648191452 0.0895624905824661255
-0.375607162714004517 0.266479432582855225 -0.0892639979720115662
0.516714990139007568 -0.348601937294006348 0.098783642053604126
-0.293730437755584717 -0.10659576952457428 -0.109063506126403809
0.2748299241065979 0.10352364182472229 -0.0576103627681732178
-0.575257599353790283 0.220104172825813293 -0.212253063917160034
-0.115674428641796112 0.269182860851287842 0.180035218596458435
0.23584359884262085 -0.287520885467529297 0.314409196376800537
0.309975087642669678 -0.186840802431106567 0.241050034761428833
0.541588068008422852 -0.325395673513412476 -0.0208968073129653931
0.0787888839840888977 -0.337245047092437744 0.282298743724822998
-0.00665702857077121735 -0.171295985579490662 0.00441780732944607735
-0.282415598630905151 0.262360721826553345 0.00731304707005620003
0.512939393520355225 -0.236681699752807617 -0.309395581483840942
-0.647027134895324707 0.278813987970352173 0.0799924060702323914
-0.646437704563140869 0.18372662365436554 -0.0904597938060760498
0.513920962810516357 -0.322068899869918823 0.0243012756109237671
-0.407073527574539185 -0.0630549490451812744 0.113821350038051605
0.516638457775115967 -0.355264127254486084 -0.0206023044884204865
-0.566652894020080566 0.374894857406616211 0.152930572628974915
0.235783904790878296 0.0435790196061134338 0.313729941844940186
-0.664919674396514893 0.227686077356338501 0.0235334169119596481
-0.448208779096603394 -0.0378976017236709595 0.127388447523117065
0.502805829048156738 -0.301843702793121338 -0.178848639130592346
-0.589206933975219727 0.361595600843429565 0.0865372121334075928
-0.194234639406204224 0.315504252910614014 0.105122976005077362
0.246803894639015198 0.0244766790419816971 0.323861956596374512
0.530732333660125732 -0.323363423347473145 -0.0580593198537826538
-0.182980716228485107 0.307606637477874756 0.12873232364654541
0.247049182653427124 0.00754917319864034653 0.323991239070892334
0.0585209205746650696 0.140254020690917969 0.345866173505783081
-0.505766689777374268 0.1499747633934021 0.357217907905578613
0.270550847053527832 -0.310803383588790894 0.326254785060882568
-0.253931343555450439 0.0241638999432325363 -0.0705012381076812744
0.240894913673400879 -0.294838845729827881 0.322509288787841797
0.248837247490882874 0.0443611219525337219 0.31445351243019104
0.468203186988830566 -0.10146813839673996 0.0346062108874320984
-0.124913923442363739 0.195723757147789001 0.115605480968952179
0.239785283803939819 -0.326166242361068726 0.317961066961288452
0.500059425830841064 -0.366146326065063477 0.0746584385633468628
0.523253679275512695 -0.32427370548248291 0.0262208320200443268
0.444478303194046021 -0.252817213535308838 0.332337766885757446
0.321268647909164429 -0.13095247745513916 -0.106644719839096069
0.0632021501660346985 -0.0101830596104264259 0.3217887282371521
0.511113584041595459 -0.360449105501174927 0.0475237146019935608
0.135458856821060181 -0.100126393139362335 0.0406095422804355621
0.0493335165083408356 0.0121403131633996964 0.0298371464014053345
0.0206017866730690002 0.0488346777856349945 0.0427134446799755096
0.0879563465714454651 -0.0655058547854423523 0.289710253477096558
-0.162293970584869385 -0.265143215656280518 0.148162618279457092
0.264760524034500122 -0.0196245741099119186 0.0615719221532344818
-0.0290726833045482635 -0.0284607373178005219 0.295677393674850464
0.502004921436309814 -0.239925011992454529 -0.30198138952255249
0.475756436586380005 -0.314552128314971924 -0.301915168762207031
-0.630954205989837646 0.306831508874893188 0.167810305953025818
0.475294917821884155 -0.320375382900238037 0.121016144752502441
0.508908331394195557 -0.300426363945007324 -0.105528295040130615
0.52805858850479126 -0.274507343769073486 -0.317150473594665527
0.493374824523925781 -0.332022994756698608 -0.310662269592285156
0.503342390060424805 -0.319698750972747803 0.0980137735605239868
0.474003136157989502 -0.305384933948516846 -0.298071235418319702
-0.559360742568969727 0.268639028072357178 0.364900201559066772
0.12488885223865509 0.117419436573982239 0.314293593168258667
-0.633623659610748291 0.282788485288619995 0.0547170639038085938
-0.587391257286071777 0.363349556922912598 0.102878667414188385
0.371299564838409424 -0.373652011156082153 -0.212694898247718811
0.438286572694778442 -0.347552239894866943 0.154343917965888977
0.058002181351184845 0.121883466839790344 0.321239560842514038
-0.574591934680938721 0.369365781545639038 0.215987548232078552
0.264549970626831055 0.0251300595700740814 -0.0586048364639282227
0.36861690878868103 -0.336360543966293335 0.160635054111480713
0.510351479053497314 -0.301146715879440308 -0.111975766718387604
0.13342323899269104 -0.320134460926055908 -0.0976684615015983582
0.516416966915130615 -0.348388582468032837 -0.0202596914023160934
0.389100164175033569 -0.346379548311233521 -0.214055120944976807
-0.577067553997039795 0.319637805223464966 0.0412224419414997101
0.53587806224822998 -0.277479112148284912 -0.320552527904510498
0.467711716890335083 -0.310520917177200317 -0.299205750226974487
0.507036924362182617 -0.346723169088363647 0.017955562099814415
-0.555945336818695068 0.310288369655609131 0.102692671120166779
0.193698912858963013 -0.338914453983306885 -0.0590848103165626526
0.0699194744229316711 -0.281752616167068481 -0.0777662992477416992
0.252361923456192017 -0.249888911843299866 0.320183426141738892
0.239822819828987122 0.0314055010676383972 0.316956937313079834
-0.121188968420028687 -0.0473168529570102692 0.00836652237921953201
0.178588315844535828 -0.0996965169906616211 -0.014722505584359169
0.532316327095031738 -0.33191603422164917 -0.013139551505446434
0.370167970657348633 -0.349101483821868896 -0.208832442760467529
0.53486025333404541 -0.245439276099205017 0.177269786596298218
0.561013460159301758 -0.315437167882919312 -0.33087429404258728
0.554430365562438965 -0.21132013201713562 0.13392619788646698
-0.543302416801452637 0.38132941722869873 0.164956122636795044
0.122768312692642212 0.117716357111930847 0.133237168192863464
-0.582274377346038818 0.352474242448806763 0.0982651859521865845
-0.48165854811668396 0.18654923141002655 -0.0911623984575271606
0.515495717525482178 -0.338796019554138184 0.0388601496815681458
0.253372460603713989 -0.27881893515586853 0.322001516819000244
0.278333783149719238 -0.355569630861282349 -0.125992909073829651
0.507775664329528809 -0.286287695169448853 -0.31362450122833252
-0.432202965021133423 -0.0567366033792495728 0.117058292031288147
0.201875567436218262 0.0909843891859054565 0.223443225026130676
0.244169712066650391 0.105031475424766541 -0.0571669116616249084
-0.195734500885009766 0.202070474624633789 0.349538892507553101
0.25038599967956543 0.0253632292151451111 0.32338520884513855
0.239743009209632874 0.0194576624780893326 0.321079760789871216
-0.031487051397562027 0.163224264979362488 0.382843345403671265
-0.482530802488327026 -0.0151791619136929512 0.180570468306541443
0.483684629201889038 -0.368714034557342529 0.0461056455969810486
-0.64354705810546875 0.287626981735229492 0.0867110416293144226
0.275800406932830811 -0.165414363145828247 -0.0704318657517433167
-0.411880761384963989 -0.0564015507698059082 0.0792664885520935059
-0.64309394359588623 0.176195472478866577 -0.0815456286072731018
-0.2260703444480896 -0.133488595485687256 -0.0519621185958385468
0.254874497652053833 -0.265226989984512329 0.321163743734359741
-0.345443159341812134 0.0178059954196214676 -0.116593927145004272
-0.287252724170684814 -0.0911016166210174561 -0.106236107647418976
-0.585156083106994629 0.21031266450881958 -0.2175578773021698
0.267531454563140869 -0.296695142984390259 0.315236151218414307
-0.0257579516619443893 -0.186851173639297485 -0.0432741418480873108
-0.618110179901123047 0.277433156967163086 0.0318875052034854889
-0.608872950077056885 0.298752129077911377 0.0929742082953453064
-0.397617101669311523 -0.0624067559838294983 0.119236558675765991
-0.451746165752410889 -0.0377265997231006622 0.119875058531761169
0.431054860353469849 -0.271450608968734741 0.329213380813598633
-0.05252886563539505 0.141306355595588684 0.0919295623898506165
-0.503032922744750977 0.15160013735294342 0.355832576751708984
0.240747794508934021 -0.318990349769592285 0.32285839319229126
0.497068494558334351 -0.370535939931869507 0.0574235953390598297
0.399243742227554321 -0.256564289331436157 0.322495341300964355
-0.158433780074119568 -0.2631378173828125 0.181788235902786255
-0.499201327562332153 0.014470364898443222 0.158506378531455994
0.417533695697784424 -0.297085165977478027 0.328762590885162354
0.53524094820022583 -0.33990749716758728 -0.0183676164597272873
0.34416043758392334 -0.267093449831008911 -0.127779722213745117
-0.496492683887481689 0.0724363997578620911 0.204405650496482849
0.443600296974182129 -0.271896660327911377 0.333438962697982788
0.521976590156555176 -0.335110902786254883 0.0328636132180690765
0.453269273042678833 -0.319653898477554321 -0.292946010828018188
0.474174380302429199 -0.311386257410049438 0.116754122078418732
0.517158806324005127 -0.278176724910736084 -0.312736272811889648
0.502588987350463867 -0.32570841908454895 -0.314227670431137085
0.51806938648223877 -0.326826751232147217 0.101978421211242676
0.479235172271728516 -0.311187922954559326 -0.302086085081100464
0.114481106400489807 0.119032189249992371 0.289158940315246582
-0.121991060674190521 0.26912534236907959 0.159053057432174683
-0.614856421947479248 0.265909761190414429 0.0525900945067405701
-0.479409575462341309 0.00349949672818183899 0.18175312876701355
0.426620751619338989 -0.354744762182235718 0.158626198768615723
-0.292427211999893188 -0.110179796814918518 -0.105488985776901245
0.130434572696685791 0.0659230872988700867 0.321353107690811157
0.253616631031036377 0.0390558987855911255 -0.0777142271399497986
0.235391214489936829 0.0942596346139907837 -0.0529871135950088501
0.417583644390106201 -0.26129266619682312 -0.202276259660720825
0.521629810333251953 -0.354388266801834106 -0.0193843245506286621
-0.608899593353271484 0.381529539823532104 0.181758522987365723
0.51751023530960083 -0.279077619314193726 -0.314658284187316895
0.499058037996292114 -0.349732697010040283 0.0241468474268913269
-0.587874054908752441 0.369721978902816772 0.113563016057014465
0.505935549736022949 -0.104414403438568115 0.147312015295028687
-0.198092922568321228 0.312040150165557861 0.113241791725158691
0.263981074094772339 -0.286279588937759399 0.319826245307922363
0.236856773495674133 0.0625212118029594421 0.310624778270721436
-0.144625693559646606 -0.0430561564862728119 0.00443888502195477486
-0.657838761806488037 0.21509552001953125 -0.0456975437700748444
-0.288708984851837158 -0.0755509361624717712 -0.0683253258466720581
0.227136895060539246 0.042542826384305954 -0.0480573475360870361
0.551508307456970215 -0.144190549850463867 0.132067546248435974
0.51971358060836792 -0.295091241598129272 0.0749494880437850952
0.517521440982818604 -0.283819258213043213 -0.181112468242645264
-0.358160018920898438 -0.0166639760136604309 -0.0276068132370710373
0.0913616642355918884 0.0886515229940414429 0.0859274417161941528
0.466567158699035645 -0.361633211374282837 -0.0106027936562895775
-0.433008402585983276 0.158205509185791016 -0.066095307469367981
0.523743629455566406 -0.33537822961807251 0.0689608082175254822
0.262840569019317627 -0.28564789891242981 0.318549901247024536
0.00919891055673360825 -0.0905772745609283447 -0.0259197540581226349
0.0323877707123756409 -0.129983186721801758 0.0220457185059785843
-0.630772411823272705 0.265416920185089111 0.0295502040535211563
0.242063522338867188 0.074689917266368866 0.318892002105712891
0.240130767226219177 0.0299297180026769638 0.318969756364822388
-0.174886897206306458 0.301317930221557617 0.116608105599880219
0.304552793502807617 -0.150985345244407654 0.307845920324325562
0.261875510215759277 -0.290450602769851685 0.32103535532951355
-0.476244330406188965 -0.00777546921744942665 0.16662319004535675
0.242698267102241516 0.0821293145418167114 0.312251389026641846
0.520165622234344482 -0.351032376289367676 0.0819955393671989441
-0.0350640565156936646 -0.237215831875801086 0.124275960028171539
-0.638360917568206787 0.29040980339050293 0.099336870014667511
-0.234384402632713318 -0.132461771368980408 -0.0577447116374969482
-0.379377216100692749 -0.108417630195617676 0.105872355401515961
-0.236593917012214661 -0.147487670183181763 -0.0575917735695838928
-0.658048629760742188 0.214789882302284241 -0.0334009416401386261
0.528806567192077637 -0.352366209030151367 0.0779397562146186829
-0.621213555335998535 0.270683109760284424 0.0529885068535804749
-0.404237627983093262 -0.0639508888125419617 0.112414442002773285
-0.446406930685043335 -0.0411139428615570068 0.122375890612602234
0.267944574356079102 -0.285342365503311157 0.323508709669113159
0.12753663957118988 -0.32632109522819519 0.312658250331878662
0.15219859778881073 -0.342820912599563599 0.31792294979095459
0.447595447301864624 -0.335413932800292969 -0.292916864156723022
0.515656709671020508 -0.30272519588470459 -0.107895776629447937
0.515130341053009033 -0.280048400163650513 -0.312754601240158081
0.48474845290184021 -0.327473074197769165 -0.309711664915084839
0.464215934276580811 -0.345680922269821167 -0.302586585283279419
0.549507260322570801 -0.210014581680297852 -0.315913200378417969
0.52399909496307373 -0.299838423728942871 -0.322399914264678955
0.517861843109130859 -0.300648361444473267 -0.318297326564788818
0.246782094240188599 0.0574058443307876587 0.316481977701187134
0.241267502307891846 0.0878839120268821716 0.312820017337799072
-0.291878193616867065 -0.100180253386497498 -0.101625218987464905
-0.453665733337402344 -0.0515983700752258301 0.117472968995571136
0.404714971780776978 -0.271989762783050537 0.32253757119178772
-0.502454936504364014 0.00416305242106318474 0.189546540379524231
0.401007026433944702 -0.286972790956497192 0.32485276460647583
0.399154782295227051 -0.273285508155822754 0.323333531618118286
0.342099100351333618 -0.258657693862915039 0.0901633724570274353
-0.0189670734107494354 -0.244010493159294128 0.128842517733573914
-0.464559346437454224 0.0363898463547229767 0.189950659871101379
-0.194487527012825012 0.222063630819320679 0.172341570258140564
0.366691499948501587 -0.328991591930389404 -0.0234490316361188889
0.323233813047409058 -0.389836788177490234 -0.15879155695438385
0.53532719612121582 -0.323371648788452148 -0.0581601262092590332
-0.441835612058639526 -0.00432872166857123375 0.153085857629776001
-0.0192875582724809647 -0.0590953566133975983 0.141918748617172241
-0.000418840209022164345 -0.235740259289741516 0.106561183929443359
0.526112258434295654 -0.201530978083610535 -0.0799875631928443909
0.449655741453170776 -0.308096647262573242 -0.292805373668670654
0.526730000972747803 -0.275209486484527588 -0.315605610609054565
0.499783217906951904 -0.324657738208770752 -0.312598079442977905
0.475083142518997192 -0.30481448769569397 -0.297324180603027344
-0.127561315894126892 0.247093334794044495 0.139234483242034912
-0.649062395095825195 0.282428622245788574 0.0947311893105506897
-0.199033066630363464 0.287113994359970093 0.336183696985244751
0.497915744781494141 -0.0864250585436820984 0.136680781841278076
0.20055040717124939 -0.35884249210357666 -0.0907061025500297546
0.505297422409057617 -0.367411613464355469 -0.0226433221250772476
0.527175962924957275 -0.242383241653442383 0.172973603010177612
-0.586017489433288574 0.379754066467285156 0.171149164438247681
0.444870531558990479 -0.31468886137008667 -0.287679612636566162
0.498487621545791626 -0.110791109502315521 0.112193167209625244
-0.655885875225067139 0.175895214080810547 -0.103308521211147308
-0.202070504426956177 0.309237688779830933 0.0894571691751480103
0.201206579804420471 -0.0132189290598034859 0.29534149169921875
0.159859552979469299 -0.0617675706744194031 -0.0439349114894866943
-0.579594194889068604 0.302675545215606689 0.369120985269546509
0.274929195642471313 0.0987604856491088867 -0.029036790132522583
-0.435381382703781128 0.155906736850738525 -0.0856193080544471741
0.534344732761383057 -0.332770109176635742 0.0128009337931871414
-0.568873763084411621 0.197770386934280396 -0.228650614619255066
-0.497743576765060425 0.0454579778015613556 -0.0864230766892433167
0.031252201646566391 -0.103581994771957397 0.0331992767751216888
0.53398585319519043 -0.264248967170715332 -0.316251873970031738
0.00966496206820011139 0.198130562901496887 0.0277950502932071686
0.302021265029907227 0.0392496734857559204 -0.0844033136963844299
-0.332285284996032715 -0.0155159719288349152 -0.107364475727081299
0.236403673887252808 0.0148148331791162491 0.321885198354721069
0.124965645372867584 0.0134034687653183937 0.299077153205871582
0.527423501014709473 -0.354884684085845947 0.0663884282112121582
0.466960638761520386 -0.309579819440841675 -0.233055934309959412
-0.652040421962738037 0.285767644643783569 0.10483945906162262
0.546518027782440186 -0.219659298658370972 0.163533762097358704
0.527940809726715088 -0.32309645414352417 -0.0159860160201787949
-0.383065313100814819 -0.0559344924986362457 0.0765866860747337341
0.456779152154922485 -0.310579150915145874 -0.292503058910369873
0.504861354827880859 -0.339582145214080811 -0.317831337451934814
0.47870326042175293 -0.314063489437103271 -0.299445092678070068
0.520270109176635742 -0.301053345203399658 -0.317261636257171631
-0.00242860708385705948 -0.139564752578735352 -0.0245937798172235489
0.397488653659820557 -0.272843420505523682 0.323508799076080322
0.401159793138504028 -0.271270215511322021 0.323813498020172119
0.506010115146636963 -0.331683248281478882 0.105904757976531982
-0.467557907104492188 0.042929232120513916 0.171069145202636719
0.409948766231536865 -0.345560938119888306 0.156649112701416016
-0.360876351594924927 -0.0348061695694923401 -0.147740006446838379
-0.128309160470962524 -0.267285823822021484 0.11263352632522583
0.512518525123596191 -0.368749648332595825 -0.01458730548620224
-0.21369151771068573 0.31304013729095459 0.0979946181178092957
0.250544130802154541 -0.286789298057556152 0.322976887226104736
0.208839759230613708 0.00983574427664279938 -0.045982707291841507
0.0698446854948997498 -0.151096835732460022 -0.0170432478189468384
-0.169727683067321777 0.305269211530685425 0.119171448051929474
0.471021950244903564 -0.36404988169670105 0.00711658690124750137
-0.290998548269271851 -0.0989705473184585571 -0.102882944047451019
0.0363363772630691528 -0.149254336953163147 -0.0214929245412349701
0.23215174674987793 0.0566391050815582275 0.309310019016265869
0.25335007905960083 -0.288351327180862427 0.320758074522018433
-0.471659630537033081 0.00162168021779507399 0.169086501002311707
0.240973144769668579 0.0630928575992584229 0.313206762075424194
0.508896827697753906 -0.351724475622177124 0.0640360265970230103
0.22737450897693634 -0.314498603343963623 0.314668416976928711
-0.375377029180526733 -0.0926656723022460938 0.0865577384829521179
-0.0627424046397209167 -0.241251736879348755 0.302727222442626953
-0.222737029194831848 -0.127200871706008911 -0.0528086051344871521
-0.409855157136917114 -0.0649643987417221069 0.0989124476909637451
-0.444949746131896973 -0.0442380644381046295 0.133146420121192932
0.238934487104415894 -0.293731421232223511 0.314537912607192993
0.153870761394500732 -0.324022889137268066 0.320234209299087524
0.425302237272262573 -0.255752891302108765 0.328657209873199463
0.438145071268081665 -0.342639684677124023 -0.292568981647491455
0.506281137466430664 -0.334283888339996338 -0.317976832389831543
0.444996148347854614 -0.351987659931182861 -0.286626935005187988
0.238239243626594543 0.0661576166749000549 0.312487363815307617
0.403235018253326416 -0.287201821804046631 0.325976699590682983
-0.494675487279891968 0.00720074493438005447 0.188828378915786743
0.485763967037200928 -0.0628545805811882019 0.131812348961830139
0.0124572766944766045 -0.170290231704711914 0.0100807594135403633
0.531525731086730957 -0.30730360746383667 -0.0621277503669261932
0.314717113971710205 -0.301921278238296509 -0.126701653003692627
0.445839643478393555 -0.291026294231414795 -0.285544663667678833
-0.336787641048431396 0.22523149847984314 0.126117900013923645
-0.400785684585571289 -0.0276585984975099564 -0.00149575108662247658
0.403145879507064819 -0.271413207054138184 0.324196577072143555
-0.133202791213989258 0.196304962038993835 0.16805720329284668
0.399194985628128052 -0.271349847316741943 0.32401043176651001
-0.446429610252380371 -0.0244405176490545273 0.0218538660556077957
-0.137867391109466553 0.245358377695083618 0.192021757364273071
-0.612590432167053223 0.294509291648864746 0.18427574634552002
0.124602995812892914 0.116551011800765991 0.316882401704788208
-0.120811738073825836 0.251094341278076172 0.162154406309127808
-0.583111763000488281 0.348640888929367065 0.0586757808923721313
0.426861584186553955 -0.347735553979873657 0.153131276369094849
-0.566569924354553223 0.295576184988021851 -0.0684696733951568604
0.251873642206192017 0.0271833110600709915 -0.0794394165277481079
0.247691616415977478 0.100877150893211365 -0.0482102558016777039
-0.357354670763015747 -0.0551611557602882385 -0.141480311751365662
0.198755204677581787 0.120722763240337372 0.0359254702925682068
0.545634031295776367 -0.13112892210483551 0.112066790461540222
-0.581445574760437012 0.322262048721313477 -0.0223162341862916946
0.206196919083595276 0.0251617841422557831 0.177000701427459717
-0.595107555389404297 0.375628292560577393 0.172560945153236389
0.444837242364883423 -0.318819493055343628 0.127463623881340027
0.255151540040969849 -0.278313398361206055 0.316602796316146851
0.235620573163032532 0.0242549236863851547 0.316732287406921387
-0.362778186798095703 -0.0491774789988994598 -0.0233818423002958298
-0.182522788643836975 0.118721850216388702 0.0426375046372413635
0.254866719245910645 -0.287755489349365234 0.319418400526046753
0.242058888077735901 0.0336293280124664307 0.32199588418006897
0.399915158748626709 0.0238192826509475708 0.115280672907829285
-0.340397566556930542 -0.0655166581273078918 -0.14693625271320343
0.0758501887321472168 -0.332497864961624146 0.299132257699966431
-0.386586248874664307 -0.0601876452565193176 0.094218723475933075
-0.447982281446456909 -0.0407117418944835663 0.128159165382385254
0.439451694488525391 -0.27888450026512146 0.333725839853286743
0.0344905257225036621 -0.122303806245326996 -0.0253979861736297607
0.414412051439285278 -0.280335754156112671 0.327073901891708374
0.433124393224716187 -0.295637011528015137 0.333229333162307739
0.36792793869972229 -0.278229266405105591 -0.130181655287742615
-0.477118611335754395 0.00209422595798969269 0.188788026571273804
-0.29141119122505188 -0.0956792756915092468 -0.10421278327703476
0.241486042737960815 -0.312523692846298218 0.309784203767776489
0.473250925540924072 -0.353771895170211792 0.00712790247052907944
-0.296241015195846558 -0.0959284976124763489 -0.106657214462757111
0.244843795895576477 -0.288103014230728149 0.320174068212509155
0.0623845644295215607 -0.32919803261756897 0.297221779823303223
0.158023878931999207 -0.26720389723777771 -0.105367466807365417
0.250270754098892212 0.0639001950621604919 0.315629243850708008
-0.482257455587387085 -0.00729161687195301056 0.178392797708511353
0.236410826444625854 0.0670738965272903442 0.314989596605300903
0.23882777988910675 -0.331337153911590576 0.321511894464492798
-0.382067322731018066 -0.091349385678768158 0.0371236205101013184
-0.216004461050033569 -0.139438971877098083 -0.0540462695062160492
-0.382493525743484497 -0.0629947036504745483 0.0839331299066543579
0.150083273649215698 -0.331138134002685547 0.332022875547409058
0.445973485708236694 -0.279416531324386597 0.333648264408111572
0.407522708177566528 -0.280046522617340088 0.32518768310546875
-0.501765251159667969 0.00717812264338135719 0.18914543092250824
-0.321731299161911011 0.0978798419237136841 -0.0698924064636230469
0.532618820667266846 -0.207062408328056335 -0.0525657758116722107
0.451034009456634521 -0.293466240167617798 -0.290433168411254883
0.487510055303573608 -0.32482561469078064 -0.310841858386993408
0.446476489305496216 -0.309310466051101685 -0.290794312953948975
-0.577445924282073975 0.269686251878738403 0.366308480501174927
-0.461238950490951538 0.106403879821300507 -0.230559483170509338
0.374917328357696533 -0.318214863538742065 0.199160546064376831
-0.589483380317687988 0.367388695478439331 0.13177981972694397
0.392603009939193726 -0.353001713752746582 -0.21742624044418335
0.441171109676361084 -0.309852004051208496 -0.2890034019947052
-0.200452923774719238 0.305965721607208252 0.0953160971403121948
-0.155305325984954834 0.268462598323822021 0.151985332369804382
0.529906988143920898 -0.338009893894195557 0.0718775689601898193
0.463893771171569824 -0.265707403421401978 -0.21762944757938385
-0.6332244873046875 0.276182830333709717 0.107581406831741333
0.438491702079772949 -0.308143645524978638 -0.287174582481384277
0.515572845935821533 -0.276792436838150024 -0.316805452108383179
0.516689121723175049 -0.339939028024673462 -0.320710480213165283
0.454441577196121216 -0.306627005338668823 -0.293230533599853516
0.490989118814468384 -0.321484357118606567 0.0944325625896453857
0.0206496939063072205 -0.275250643491744995 -0.0183551311492919922
-0.653818666934967041 0.17243446409702301 -0.107590340077877045
-0.224479973316192627 0.319062352180480957 0.121723674237728119
0.465417265892028809 -0.363655239343643188 0.00595603045076131821
0.481154769659042358 -0.336370974779129028 0.0503269508481025696
0.511589348316192627 -0.338997840881347656 -0.319370567798614502
0.440254271030426025 -0.356140196323394775 -0.297578513622283936
-0.269798636436462402 0.322538167238235474 0.0422669686377048492
0.424208134412765503 -0.312862813472747803 -0.281867891550064087
0.41561242938041687 -0.294795423746109009 0.328519463539123535
-0.325906187295913696 -0.0748141556978225708 0.123831205070018768
-0.366671562194824219 -0.0661393329501152039 0.155056491494178772
-0.338039755821228027 0.215399101376533508 0.133252978324890137
0.0101829329505562782 0.119951888918876648 0.105389058589935303
0.54213327169418335 -0.308773636817932129 -0.0461601130664348602
0.0136861158534884453 -0.261237442493438721 0.039725087583065033
-0.00348769407719373703 -0.236014261841773987 0.0944751128554344177
0.000269890559138730168 -0.219048574566841125 0.0817356929183006287
0.465001285076141357 -0.360509932041168213 0.0303591787815093994
-0.269213825464248657 -0.137461945414543152 0.177803888916969299
-0.344884216785430908 -0.0653095319867134094 0.141636401414871216
0.123518452048301697 -0.276165604591369629 0.129133284091949463
-0.13372589647769928 0.0793675854802131653 0.0905833616852760315
0.463585019111633301 -0.0539561398327350616 0.0176218170672655106
-0.0140650849789381027 -0.216360166668891907 0.0805820673704147339
-0.554457128047943115 0.392098754644393921 0.14828568696975708
0.496695816516876221 -0.366388201713562012 0.00528869777917861938
-0.610418319702148438 0.294507682323455811 0.18707902729511261
0.530112326145172119 -0.274859607219696045 -0.317640960216522217
0.370418399572372437 -0.264165043830871582 0.181580901145935059
0.4204140305519104 -0.344050288200378418 0.150898933410644531
0.252017855644226074 0.0396842099726200104 -0.0665707066655158997
0.549536168575286865 -0.149523988366127014 0.124255433678627014
-0.570282101631164551 0.284548491239547729 -0.00580065790563821793
0.500967442989349365 -0.362241297960281372 -0.00124092854093760252
0.208276897668838501 0.116177588701248169 -0.0103260688483715057
-0.289056926965713501 -0.0850591361522674561 -0.0660526379942893982
0.15923956036567688 -0.0827330276370048523 -0.0360198654234409332
-0.339759647846221924 -0.104886487126350403 0.141668841242790222
0.511111319065093994 -0.281019121408462524 -0.313159048557281494
-0.339105606079101562 -0.0790571495890617371 0.0390039011836051941
-0.369156897068023682 0.281301140785217285 -0.0621394477784633636
0.509921729564666748 -0.340577572584152222 0.065159335732460022
0.302336931228637695 -0.205483496189117432 0.247970268130302429
0.542873799800872803 -0.311661809682846069 -0.0607076510787010193
0.141605794429779053 0.0699840933084487915 0.336519598960876465
-0.594616830348968506 0.268020033836364746 0.0127478865906596184
0.222038805484771729 -0.00662901997566223145 0.295673578977584839
0.230900987982749939 0.0347909703850746155 0.31286892294883728
0.533579647541046143 -0.31926196813583374 -0.0127544542774558067
-0.389116525650024414 -0.0634011328220367432 0.106183327734470367
-0.447325468063354492 -0.0395634286105632782 0.127010852098464966
0.496020734310150146 -0.0909336656332015991 0.154474243521690369
0.250938206911087036 0.0635768622159957886 0.316746830940246582
-0.291111975908279419 -0.0922254621982574463 0.308020144701004028
-0.366357892751693726 -0.11418132483959198 0.104460209608078003
-0.563187479972839355 0.127826288342475891 -0.0779025256633758545
-0.501228928565979004 0.0240245182067155838 0.187193334102630615
0.518171191215515137 -0.297042191028594971 -0.313992500305175781
0.472607791423797607 -0.327933907508850098 -0.299847453832626343
-0.57397925853729248 0.26935383677482605 0.363233685493469238
-0.570886731147766113 0.355385422706604004 0.167629048228263855
-0.191535100340843201 0.305215984582901001 0.101672917604446411
-0.661808252334594727 0.240264669060707092 0.0422463938593864441
-0.504608392715454102 0.144942551851272583 0.353819876909255981
0.507170379161834717 -0.346865147352218628 -0.318267285823822021
-0.200361773371696472 0.305549532175064087 0.102336429059505463
0.475149631500244141 -0.357299983501434326 0.00471361586824059486
0.509808778762817383 -0.330393970012664795 0.0664337947964668274
-0.610437214374542236 0.368063539266586304 0.088389270007610321
-0.562267124652862549 0.288801759481430054 -0.0553725212812423706
0.219976082444190979 0.0107316337525844574 0.309203654527664185
0.24054226279258728 0.00555533822625875473 0.321658313274383545
-0.359404861927032471 -0.0563058331608772278 -0.137475296854972839
0.399326890707015991 -0.252415686845779419 0.321940869092941284
0.399629890918731689 -0.262790769338607788 0.324691832065582275
0.224097505211830139 -0.323790013790130615 0.320745408535003662
0.411115705966949463 -0.267533242702484131 0.325109541416168213
-0.508861958980560303 0.0499889776110649109 0.195791140198707581
-0.630978584289550781 0.15701216459274292 -0.0520676262676715851
-0.501580536365509033 0.147510677576065063 0.345794051885604858
0.520980298519134521 -0.350428551435470581 -0.323007822036743164
0.495338529348373413 -0.348028272390365601 0.000235218118177726865
-0.197774484753608704 0.0167002864181995392 -0.0496312975883483887
-0.557498157024383545 0.342282086610794067 -0.00513754365965723991
0.488550573587417603 -0.360155552625656128 0.0410566143691539764
0.449178934097290039 -0.0738805979490280151 0.00194381177425384521
-0.555983662605285645 0.385706543922424316 0.158408805727958679
0.374582797288894653 -0.0808427780866622925 -0.119919158518314362
-0.389432698488235474 0.320138543844223022 0.169287592172622681
-0.38438907265663147 0.328697919845581055 0.197977781295776367
-0.363962382078170776 0.238576218485832214 -0.0830571874976158142
-0.407065331935882568 0.200089588761329651 0.0413705036044120789
-0.644172489643096924 0.287303924560546875 0.0942333564162254333
0.408573120832443237 -0.346922427415847778 0.136423602700233459
0.22234596312046051 0.0833223387598991394 -0.0334660820662975311
0.49859464168548584 -0.160957217216491699 0.123788163065910339
0.500356078147888184 -0.0925436913967132568 0.134707003831863403
0.215384572744369507 0.00228975131176412106 0.299535840749740601
-0.352976053953170776 -0.0675934627652168274 -0.00868713855743408203
-0.385194212198257446 0.266561627388000488 -0.0712202489376068115
0.50648576021194458 -0.34679943323135376 0.0549134984612464905
-0.356827080249786377 -0.0557695627212524414 -0.145068064332008362
0.132232785224914551 0.0730503350496292114 0.322251766920089722
-0.0995494350790977478 -0.265101641416549683 0.00635728845372796059
0.242456048727035522 0.0236973725259304047 0.321966052055358887
-0.480116963386535645 -0.0112137803807854652 0.185772880911827087
0.242493554949760437 0.0486883893609046936 0.317150354385375977
-0.277961701154708862 0.333207935094833374 0.0410566218197345734
0.369807720184326172 -0.0305301584303379059 -0.0399548634886741638
0.520177662372589111 -0.347725331783294678 -0.0363278798758983612
0.293280094861984253 -0.0116013139486312866 0.0370360426604747772
-0.643859982490539551 0.285223037004470825 0.0930802151560783386
0.0357751697301864624 0.137168198823928833 0.0852875411510467529
-0.397234410047531128 -0.0571120381355285645 0.126284271478652954
-0.441182911396026611 -0.0377157963812351227 0.131748974323272705
0.523851394653320312 -0.317317068576812744 -0.0654743090271949768
0.422474503517150879 -0.279726952314376831 0.331172138452529907
0.509652018547058105 -0.344694793224334717 0.057081121951341629
0.403885632753372192 -0.258594632148742676 0.323586344718933105
-0.480030685663223267 0.0185387115925550461 0.17716410756111145
0.235538080334663391 0.0688769072294235229 0.314552068710327148
-0.479193061590194702 -0.00787276681512594223 0.167806357145309448
