ply
format ascii 1.0
element vertex 738
property float x
property float y
property float z
end_header
-0.425509512424468994 -0.0544848404824733734 0.0993722379207611084
-0.477896422147750854 0.0205711424350738525 -0.0364160649478435516
0.20894622802734375 0.00896444264799356461 0.301004409790039062
-0.634049594402313232 0.248444601893424988 -0.0058146938681602478
-0.127911731600761414 0.270235210657119751 0.132395088672637939
0.271412819623947144 -0.329860270023345947 0.18023797869682312
0.533301293849945068 -0.209689751267433167 -0.0987754985690116882
-0.12616632878780365 -0.112183421850204468 -0.0547070987522602081
0.454519927501678467 -0.338405787944793701 -0.29800945520401001
-0.212375178933143616 0.0366795621812343597 -0.0595862753689289093
-0.553065121173858643 0.176164284348487854 0.0129568558186292648
-0.198342695832252502 0.140048444271087646 0.0212516635656356812
-0.0122210094705224037 -0.102057993412017822 -0.0428605750203132629
0.265078812837600708 -0.274476975202560425 0.202592566609382629
0.349034011363983154 -0.320640712976455688 5.62409113626927137e-05
-0.155722737312316895 0.0702260881662368774 0.0276412442326545715
-0.249018996953964233 0.131223380565643311 -0.0343394353985786438
0.199449315667152405 0.00210422510281205177 0.0191806890070438385
0.0766368582844734192 0.0813012644648551941 0.0240559577941894531
-0.283300548791885376 0.288675248622894287 -0.00582666927948594093
0.477270215749740601 -0.289324939250946045 -0.301649868488311768
-0.556751847267150879 0.266136109828948975 -0.0170909278094768524
-0.237194478511810303 0.0980761051177978516 -0.0323560982942581177
0.138205647468566895 -0.280407100915908813 0.15018819272518158
0.29672667384147644 -0.296927124261856079 0.0570214316248893738
-0.285897642374038696 0.257657885551452637 0.000665360072162002325
-0.0207733195275068283 -0.0399096682667732239 0.089103400707244873
0.204794794321060181 0.0431914590299129486 0.06581859290599823
-0.143468841910362244 -0.0847264528274536133 0.0918171778321266174
0.372798830270767212 -0.0729193240404129028 0.0316612608730792999
0.52160722017288208 -0.198627814650535583 -0.0984662696719169617
0.4874095618724823 -0.297327488660812378 -0.305305570363998413
0.480697482824325562 -0.314374446868896484 0.122398816049098969
0.513877213001251221 -0.306719839572906494 -0.102360613644123077
0.496329963207244873 -0.308960169553756714 -0.309673070907592773
0.506430685520172119 -0.327360719442367554 -0.00406819488853216171
0.511984407901763916 -0.324077337980270386 0.118427962064743042
0.466203957796096802 -0.288224548101425171 -0.296504825353622437
0.438301801681518555 -0.262937396764755249 -0.194239690899848938
0.135303199291229248 0.117331914603710175 0.337191760540008545
0.396802395582199097 -0.243881791830062866 0.318895280361175537
-0.601541876792907715 0.354665637016296387 0.0657582953572273254
-0.505150735378265381 0.357542514801025391 0.178526893258094788
0.54285132884979248 -0.282053351402282715 0.0979844927787780762
0.256699204444885254 0.037385307252407074 -0.0719827041029930115
-0.233037412166595459 0.156412184238433838 -0.00518725300207734108
0.506421864032745361 -0.331528156995773315 -0.0024908529594540596
0.445105552673339844 -0.249519079923629761 -0.227959945797920227
-0.639067888259887695 0.254920393228530884 0.0547698810696601868
0.532827854156494141 -0.262223571538925171 0.0933024734258651733
-0.39304274320602417 -0.0588131770491600037 0.100552670657634735
0.524166345596313477 -0.289186209440231323 -0.0920562818646430969
0.028326813131570816 -0.273680359125137329 -0.0352473296225070953
0.385444283485412598 -0.305580437183380127 0.118896231055259705
-0.582237541675567627 0.367198348045349121 0.131953611969947815
0.240454062819480896 0.00339752179570496082 0.181244120001792908
-0.112938351929187775 0.165910094976425171 0.347682446241378784
0.482468307018280029 -0.367892980575561523 -0.0220142118632793427
0.412566304206848145 -0.320667147636413574 -0.210980460047721863
0.507472038269042969 -0.155043214559555054 0.124090671539306641
0.529059946537017822 -0.334257692098617554 0.0128645943477749825
-0.584162592887878418 0.336816489696502686 0.034325137734413147
-0.590813338756561279 0.382293403148651123 0.131514444947242737
0.526581704616546631 -0.243861347436904907 -0.310593694448471069
0.474741190671920776 -0.290245741605758667 -0.299402117729187012
-0.597283661365509033 0.354078739881515503 0.169918745756149292
-0.587400555610656738 0.371836096048355103 0.101358287036418915
-0.211895361542701721 -0.12907092273235321 -0.0576116554439067841
0.234628364443778992 -0.292569458484649658 0.315130412578582764
0.238228693604469299 0.067576974630355835 0.320221304893493652
0.542103946208953857 -0.313392043113708496 -0.058073192834854126
-0.44466167688369751 -0.0479464344680309296 0.12721841037273407
0.359911918640136719 -0.387866795063018799 -0.208958834409713745
-0.556563675403594971 0.211614951491355896 -0.113499663770198822
0.521084904670715332 -0.279082655906677246 -0.177073583006858826
0.242101192474365234 0.0352259501814842224 0.314697414636611938
0.243006318807601929 0.000952871108893305063 0.023756345734000206
0.380873173475265503 0.0393893532454967499 0.0119972545653581619
0.527050316333770752 -0.230159252882003784 -0.310099571943283081
0.327180862426757812 0.0967412292957305908 -0.0358096659183502197
-0.374137461185455322 -0.0597708187997341156 -0.132814839482307434
0.513096630573272705 -0.167044684290885925 0.135984420776367188
-0.574539244174957275 0.32242092490196228 0.049693576991558075
-0.559082090854644775 0.283813953399658203 0.364367038011550903
0.224679559469223022 0.0324842594563961029 -0.058104097843170166
-0.574310779571533203 0.215101391077041626 -0.220937758684158325
-0.0442021451890468597 0.157070532441139221 0.0813294947147369385
0.114261090755462646 0.11057620495557785 0.0255589950829744339
0.343054085969924927 -0.246487885713577271 -0.0968211442232131958
-0.285087645053863525 0.300870120525360107 -0.0027067922055721283
0.153546050190925598 -0.00385757605545222759 -0.00347828585654497147
0.0691913291811943054 0.139348700642585754 0.0757815316319465637
-0.270075976848602295 0.280627965927124023 0.0018149578245356679
0.50363314151763916 -0.292132049798965454 -0.159312054514884949
0.137214824557304382 -0.0252871718257665634 0.0132085541263222694
-0.338973194360733032 -0.0315186567604541779 0.0229001790285110474
0.373614519834518433 -0.0913152694702148438 0.0443744324147701263
0.200127899646759033 0.101784586906433105 -0.00171533552929759026
-0.297204196453094482 -0.0245525278151035309 0.0360352359712123871
0.132022812962532043 -0.017277328297495842 -0.0260025188326835632
0.101609334349632263 0.0165712181478738785 0.091330111026763916
0.175840958952903748 0.119892783463001251 0.038145940750837326
-0.230414658784866333 -0.0631906092166900635 0.104761980473995209
0.48639380931854248 -0.2961902916431427 -0.303534179925918579
-0.603255808353424072 0.289907664060592651 0.1853676438331604
0.467423766851425171 -0.308252006769180298 0.120156899094581604
0.378470778465270996 -0.0139213744550943375 0.00647659879177808762
0.514623045921325684 -0.294853538274765015 -0.103452295064926147
0.519124686717987061 -0.239249974489212036 -0.307600051164627075
0.478234827518463135 -0.309256941080093384 -0.300288408994674683
0.483694374561309814 -0.27404022216796875 -0.299915879964828491
0.117360629141330719 0.119233503937721252 0.29775625467300415
-0.58424532413482666 0.356729596853256226 0.0659759119153022766
0.384000122547149658 -0.336870759725570679 0.125588476657867432
-0.574500083923339844 0.31809505820274353 -0.0264212321490049362
-0.604457557201385498 0.217571943998336792 -0.0867837145924568176
0.267971903085708618 0.0397851355373859406 -0.0861790850758552551
-0.356319040060043335 -0.0216850284487009048 -0.131106197834014893
-0.564313054084777832 0.314725160598754883 -0.00777601078152656555
0.19099147617816925 -0.340347796678543091 -0.0747294425964355469
0.404507577419281006 -0.357154250144958496 -0.224034905433654785
-0.50027763843536377 0.145999506115913391 0.354822427034378052
0.509772837162017822 -0.151003658771514893 0.115061528980731964
0.497148364782333374 -0.263450801372528076 -0.304396331310272217
0.458288460969924927 -0.280399292707443237 -0.289752274751663208
0.441253244876861572 -0.264481008052825928 -0.283704102039337158
-0.588061153888702393 0.357834011316299438 0.0618889220058917999
0.505371630191802979 -0.126320868730545044 0.12448495626449585
-0.206249445676803589 0.312842458486557007 0.108878843486309052
0.268434256315231323 -0.283597856760025024 0.319312065839767456
0.232738032937049866 0.00398811604827642441 0.317995429039001465
0.513519823551177979 -0.175192877650260925 -0.281756788492202759
-0.115068301558494568 0.0103714289143681526 0.00598084647208452225
0.404240041971206665 -0.359182983636856079 -0.224658355116844177
0.417861372232437134 -0.312805235385894775 0.143846377730369568
-0.555561244487762451 0.376837730407714844 0.186987146735191345
-0.175665855407714844 0.309515327215194702 0.118561871349811554
-0.389725178480148315 0.276438891887664795 -0.0849746465682983398
0.365431755781173706 0.052323557436466217 0.024706035852432251
0.129331156611442566 0.116125404834747314 0.318987160921096802
-0.286371409893035889 -0.100109398365020752 -0.0920414701104164124
0.258319288492202759 0.101406224071979523 -0.0619404949247837067
-0.361144602298736572 -0.05932646244764328 -0.144080072641372681
0.134283140301704407 0.114083662629127502 0.337935149669647217
-0.563074946403503418 0.199762299656867981 -0.228919997811317444
-0.276412039995193481 0.288400888442993164 -0.000822186819277703762
0.455198764801025391 -0.245972111821174622 -0.288291841745376587
0.460549920797348022 -0.274930804967880249 -0.290819227695465088
-0.634908199310302734 0.308532834053039551 0.170577868819236755
0.512740373611450195 -0.317023247480392456 -0.0385418273508548737
0.469249993562698364 -0.265329957008361816 -0.297947317361831665
0.47846752405166626 -0.294548213481903076 -0.300227046012878418
0.458454638719558716 -0.24575573205947876 -0.289863616228103638
0.381482988595962524 -0.36051824688911438 -0.213846653699874878
-0.479400366544723511 -0.0121223852038383484 0.185992419719696045
-0.516523420810699463 0.366114407777786255 0.174230918288230896
-0.618538916110992432 0.202466264367103577 -0.087043464183807373
-0.237171158194541931 0.0192803852260112762 -0.072489812970161438
-0.382493495941162109 -0.0585786402225494385 0.0237882975488901138
0.47514227032661438 -0.367888480424880981 0.0218622535467147827
-0.649280965328216553 0.237168878316879272 0.0323914773762226105
0.412926852703094482 -0.34625321626663208 -0.221631810069084167
0.526296436786651611 -0.336700856685638428 0.0801236256957054138
0.506325662136077881 -0.238549292087554932 -0.308060169219970703
0.249792158603668213 -0.281781941652297974 0.318369567394256592
0.239383876323699951 0.0670082420110702515 0.314765512943267822
0.539825320243835449 -0.301385432481765747 -0.0936345681548118591
-0.447818905115127563 -0.0409500189125537872 0.126651987433433533
-0.0437221117317676544 0.10490032285451889 0.317940264940261841
0.248160243034362793 0.0214709118008613586 0.322326451539993286
-0.284693986177444458 -0.0992407724261283875 -0.0990575775504112244
-0.137579679489135742 -0.0146248070523142815 -0.0487450994551181793
-0.277875751256942749 0.338231563568115234 0.0471100136637687683
-0.254694759845733643 0.290298223495483398 -0.00313871772959828377
-0.218906864523887634 0.322262585163116455 0.0699684247374534607
-0.573238134384155273 0.152703508734703064 -0.0743704214692115784
-0.289941310882568359 0.293097019195556641 0.0161384735256433487
0.525872170925140381 -0.320211619138717651 0.02722894586622715
0.346355646848678589 -0.0300120096653699875 -0.0343982242047786713
0.522488534450531006 -0.362464010715484619 0.0894593745470046997
-0.0831003040075302124 -0.111364372074604034 0.0785528570413589478
-0.403996378183364868 0.326406359672546387 0.121364980936050415
0.505030214786529541 -0.366620570421218872 -0.00443825311958789825
-0.118688374757766724 0.26649126410484314 0.121081709861755371
0.51897507905960083 -0.342505037784576416 0.0358998402953147888
0.130544528365135193 -0.334213346242904663 0.301373124122619629
0.466880679130554199 -0.310595840215682983 0.0725283175706863403
0.48313477635383606 -0.373550295829772949 0.0523886382579803467
0.421287834644317627 -0.0255695134401321411 0.0649496689438819885
0.4944305419921875 -0.363078773021697998 -0.0154874343425035477
-0.232954755425453186 0.28753998875617981 0.084254823625087738
0.531474530696868896 -0.331308901309967041 -0.00717813614755868912
-0.27195817232131958 0.315769195556640625 0.114090785384178162
0.308470696210861206 0.00306644989177584648 0.0463928654789924622
0.467731684446334839 -0.262938648462295532 -0.296018540859222412
0.474064826965332031 -0.303872913122177124 0.114308342337608337
0.511451601982116699 -0.31318315863609314 -0.104349605739116669
0.50947415828704834 -0.244897589087486267 -0.308379441499710083
0.448274344205856323 -0.292031437158584595 -0.292708069086074829
0.466704726219177246 -0.282794833183288574 -0.297228246927261353
0.138516157865524292 0.113202407956123352 0.336875051259994507
-0.652145624160766602 0.286122441291809082 0.0982228443026542664
-0.638300836086273193 0.245253875851631165 -0.0380494482815265656
0.136515647172927856 0.0696942508220672607 0.337995231151580811
-0.577091753482818604 0.304225504398345947 -0.0554258190095424652
0.262750476598739624 0.0309629775583744049 -0.0733880549669265747
0.542150497436523438 -0.216275185346603394 0.111633256077766418
-0.359946668148040771 -0.0353219322860240936 -0.134284943342208862
-0.57474064826965332 0.327897220849990845 -0.029429018497467041
-0.361655503511428833 -0.0705018043518066406 -0.0339348241686820984
-0.130349636077880859 -0.267158865928649902 0.119144313037395477
0.495398819446563721 -0.365374267101287842 -0.000322630890877917409
0.374174803495407104 -0.358916282653808594 -0.210012510418891907
-0.378286182880401611 -0.106491908431053162 0.101385541260242462
-0.0668748319149017334 -0.263603836297988892 0.29659569263458252
0.520149350166320801 -0.242852598428726196 -0.309399455785751343
0.509711205959320068 -0.330113142728805542 0.0153224784880876541
-0.593382954597473145 0.369371652603149414 0.120771907269954681
-0.655341267585754395 0.176116406917572021 -0.102877847850322723
-0.222839444875717163 -0.143706470727920532 -0.0536918118596076965
-0.191243827342987061 0.317024260759353638 0.100834444165229797
0.256894618272781372 -0.283072203397750854 0.319803327322006226
0.239366963505744934 0.0326558239758014679 0.319234251976013184
-0.119929298758506775 -0.0456505678594112396 0.00736653804779052734
-0.641580581665039062 0.309052944183349609 0.102065138518810272
0.365067005157470703 -0.373460620641708374 -0.206928208470344543
0.537933528423309326 -0.217295914888381958 0.161924511194229126
-0.552775204181671143 0.38284185528755188 0.158159971237182617
-0.122468322515487671 0.259711086750030518 0.115212433040142059
0.119628086686134338 0.102919593453407288 0.089534372091293335
-0.375391006469726562 0.266286492347717285 -0.0895149260759353638
0.517118752002716064 -0.348613202571868896 0.0988277643918991089
-0.29336431622505188 -0.106709927320480347 -0.109282977879047394
0.275229424238204956 0.103460535407066345 -0.0575796738266944885
-0.575047969818115234 0.22000749409198761 -0.212530910968780518
-0.115514658391475677 0.268982023000717163 0.179904311895370483
0.236251965165138245 -0.28755420446395874 0.31449010968208313
0.310390949249267578 -0.186898007988929749 0.241122320294380188
0.542002499103546143 -0.325394302606582642 -0.0208768174052238464
0.079226762056350708 -0.33730781078338623 0.282319903373718262
-0.00615677423775196075 -0.171409428119659424 0.00429631024599075317
-0.282222509384155273 0.262160629034042358 0.00710492813959717751
0.513404130935668945 -0.236621946096420288 -0.309394776821136475
-0.646938562393188477 0.278684496879577637 0.0797345563769340515
-0.646276712417602539 0.1836271733045578 -0.0907269269227981567
0.514341115951538086 -0.322073459625244141 0.0243344027549028397
-0.40686073899269104 -0.0632115155458450317 0.113601550459861755
0.517079830169677734 -0.355260372161865234 -0.0205815285444259644
-0.566588401794433594 0.374718964099884033 0.152669399976730347
0.236119046807289124 0.043467935174703598 0.313781976699829102
-0.66479957103729248 0.227568507194519043 0.0232749488204717636
-0.448027968406677246 -0.0380521789193153381 0.127161279320716858
0.503279566764831543 -0.301811397075653076 -0.178841546177864075
-0.589125275611877441 0.361438065767288208 0.0862658917903900146
-0.194085627794265747 0.315298289060592651 0.104952126741409302
0.247143089771270752 0.0243739727884531021 0.323920696973800659
0.531163692474365234 -0.323354870080947876 -0.0580427460372447968
-0.182833939790725708 0.307399779558181763 0.128568544983863831
0.24739539623260498 0.00745039014145731926 0.324051648378372192
0.0587972588837146759 0.140078797936439514 0.345830559730529785
-0.505703330039978027 0.149799644947052002 0.357025831937789917
0.270954817533493042 -0.310819119215011597 0.32634696364402771
-0.253609567880630493 0.0240169186145067215 -0.070703558623790741
0.241300985217094421 -0.29486691951751709 0.322593510150909424
0.249169439077377319 0.044254448264837265 0.314510226249694824
0.468576312065124512 -0.101483695209026337 0.0346685498952865601
-0.12469792366027832 0.195537358522415161 0.115472160279750824
0.24019913375377655 -0.32618868350982666 0.318043887615203857
0.500487327575683594 -0.36615404486656189 0.0746994316577911377
0.523667514324188232 -0.324278742074966431 0.026252327486872673
0.444809287786483765 -0.252827644348144531 0.332441359758377075
0.32179298996925354 -0.13096986711025238 -0.106631740927696228
0.0635593011975288391 -0.0103197013959288597 0.321779727935791016
0.51154017448425293 -0.360454827547073364 0.0475568808615207672
0.135951101779937744 -0.100236237049102783 0.040568031370639801
0.0497668720781803131 0.0120098637416958809 0.0297602210193872452
0.0209999587386846542 0.048694998025894165 0.0426286347210407257
0.0883459374308586121 -0.0656356960535049438 0.289712727069854736
-0.161905214190483093 -0.265251338481903076 0.148041874170303345
0.265200406312942505 -0.0197004172950983047 0.061597626656293869
-0.0287327896803617477 -0.0285948049277067184 0.295637845993041992
0.502478659152984619 -0.239865660667419434 -0.301979273557662964
0.476274400949478149 -0.314490050077438354 -0.301922857761383057
-0.630887985229492188 0.306683450937271118 0.16756044328212738
0.475710004568099976 -0.320390433073043823 0.121073238551616669
0.509360313415527344 -0.300408601760864258 -0.105511479079723358
0.528522074222564697 -0.274448215961456299 -0.317159354686737061
0.493884235620498657 -0.331961870193481445 -0.310674905776977539
0.503745913505554199 -0.319711595773696899 0.0980633348226547241
0.474519908428192139 -0.305322200059890747 -0.29807630181312561
-0.559314966201782227 0.268468022346496582 0.364689499139785767
0.125194847583770752 0.117257378995418549 0.314287871122360229
-0.633522212505340576 0.282655537128448486 0.0544539019465446472
-0.587316215038299561 0.363189816474914551 0.102608516812324524
0.371904760599136353 -0.37361261248588562 -0.212704896926879883
0.438722938299179077 -0.34756845235824585 0.154406324028968811
0.0582933239638805389 0.121711596846580505 0.321203917264938354
-0.574542105197906494 0.369189232587814331 0.215737029910087585
0.265006422996520996 0.0250699259340763092 -0.0585908256471157074
0.369088083505630493 -0.336387872695922852 0.160692915320396423
0.510804176330566406 -0.301127851009368896 -0.111960351467132568
0.134027764201164246 -0.32019573450088501 -0.0977554842829704285
0.516856491565704346 -0.34838518500328064 -0.0202380027621984482
0.389682769775390625 -0.346340417861938477 -0.214061468839645386
-0.576961517333984375 0.319485098123550415 0.0409479886293411255
0.536336183547973633 -0.277420490980148315 -0.320563435554504395
0.468234866857528687 -0.310458540916442871 -0.299212068319320679
0.507471740245819092 -0.346725195646286011 0.0179858151823282242
-0.555863559246063232 0.31012195348739624 0.102422595024108887
0.194296717643737793 -0.338968068361282349 -0.0591367818415164948
0.0705023258924484253 -0.281832784414291382 -0.0778772532939910889
0.252761095762252808 -0.249926924705505371 0.320267587900161743
0.240161880850791931 0.0312987156212329865 0.317011892795562744
-0.120790421962738037 -0.0474493876099586487 0.00822069402784109116
0.179107397794723511 -0.0997887924313545227 -0.0147497300058603287
0.532737255096435547 -0.33191525936126709 -0.0131175210699439049
0.370762288570404053 -0.349065780639648438 -0.208841726183891296
0.535195589065551758 -0.245460078120231628 0.177338957786560059
0.561464309692382812 -0.315382480621337891 -0.330896437168121338
0.554757833480834961 -0.211342155933380127 0.133987575769424438
-0.543238520622253418 0.381141692399978638 0.164696931838989258
0.123112745583057404 0.117570057511329651 0.13321368396282196
-0.58219534158706665 0.352313697338104248 0.0979952141642570496
-0.481477320194244385 0.18637789785861969 -0.0914453417062759399
0.515915751457214355 -0.338801831007003784 0.0388933755457401276
0.253774702548980713 -0.278847813606262207 0.322088271379470825
0.278944551944732666 -0.355576872825622559 -0.126019209623336792
0.508259296417236328 -0.286226600408554077 -0.313632220029830933
-0.432004779577255249 -0.0568902604281902313 0.116833366453647614
0.202218830585479736 0.0908537358045578003 0.22346554696559906
0.244573488831520081 0.104956723749637604 -0.0571486540138721466
-0.195599868893623352 0.201875284314155579 0.349417716264724731
0.250724285840988159 0.0252615567296743393 0.323444962501525879
0.24008624255657196 0.0193536393344402313 0.321136355400085449
-0.0312573164701461792 0.163043230772018433 0.382771998643875122
-0.482393801212310791 -0.0153353996574878693 0.180346265435218811
0.484133392572402954 -0.368718117475509644 0.0461421199142932892
-0.643462538719177246 0.287495553493499756 0.0864530131220817566
0.276341438293457031 -0.165453135967254639 -0.0704334452748298645
-0.411658763885498047 -0.0565566383302211761 0.0790358036756515503
-0.642932772636413574 0.176092594861984253 -0.0818123295903205872
-0.22568260133266449 -0.133601754903793335 -0.0521505102515220642
0.255274951457977295 -0.265259534120559692 0.321249872446060181
-0.345145165920257568 0.0176634117960929871 -0.116835847496986389
-0.286885946989059448 -0.0912222340703010559 -0.106454379856586456
-0.584945380687713623 0.210220739245414734 -0.217835143208503723
0.267937153577804565 -0.296716868877410889 0.315326064825057983
-0.0252499878406524658 -0.186949893832206726 -0.043407585471868515
-0.617999672889709473 0.277299314737319946 0.0316195935010910034
-0.608788013458251953 0.298606216907501221 0.0927099362015724182
-0.397402465343475342 -0.0625648275017738342 0.11902068555355072
-0.451564222574234009 -0.0378803908824920654 0.119644708931446075
0.431398063898086548 -0.271457791328430176 0.329317927360534668
-0.0522395782172679901 0.141139447689056396 0.0918231979012489319
-0.502969443798065186 0.151423841714859009 0.355640411376953125
0.241158232092857361 -0.31901279091835022 0.322942733764648438
0.497504562139511108 -0.370541632175445557 0.0574604123830795288
0.399603605270385742 -0.2565804123878479 0.32259783148765564
-0.158059790730476379 -0.263239592313766479 0.181685835123062134
-0.499066770076751709 0.0143168242648243904 0.158275455236434937
0.417890250682830811 -0.297087013721466064 0.328868061304092407
0.535663723945617676 -0.339905858039855957 -0.0183481834828853607
0.344722718000411987 -0.267089128494262695 -0.12777748703956604
-0.496389955282211304 0.072269245982170105 0.204181894659996033
0.443934738636016846 -0.271901547908782959 0.333544135093688965
0.522392749786376953 -0.335116386413574219 0.0328950546681880951
0.453805893659591675 -0.319593191146850586 -0.292953342199325562
0.474588274955749512 -0.311401903629302979 0.116811737418174744
0.517632126808166504 -0.278117001056671143 -0.312743782997131348
0.503088831901550293 -0.32564777135848999 -0.314240902662277222
0.518464446067810059 -0.326839476823806763 0.102025397121906281
0.479749441146850586 -0.311125844717025757 -0.302093327045440674
0.114793121814727783 0.118865355849266052 0.289144575595855713
-0.121825695037841797 0.268927127122879028 0.158918559551239014
-0.614752531051635742 0.265772730112075806 0.052324831485748291
-0.479284614324569702 0.0033332121092826128 0.181521594524383545
0.427065074443817139 -0.354761332273483276 0.158688709139823914
-0.29206046462059021 -0.11029401421546936 -0.105707570910453796
0.130766287446022034 0.0657751262187957764 0.321358233690261841
0.254073411226272583 0.0389940105378627777 -0.0777036026120185852
0.235803499817848206 0.094181254506111145 -0.0529742240905761719
0.41811680793762207 -0.261258095502853394 -0.202268064022064209
0.522066950798034668 -0.354385077953338623 -0.0193642638623714447
-0.608841478824615479 0.381366103887557983 0.181506738066673279
0.517983615398406982 -0.279017627239227295 -0.314666211605072021
0.499497681856155396 -0.349735081195831299 0.0241792071610689163
-0.587801873683929443 0.369560211896896362 0.113295093178749084
0.506255149841308594 -0.104443520307540894 0.147390902042388916
-0.197945624589920044 0.311832576990127563 0.113070547580718994
0.264383792877197266 -0.286303997039794922 0.319915771484375
0.237183794379234314 0.0624060221016407013 0.310675352811813354
-0.144241109490394592 -0.0431908555328845978 0.0042849462479352951
-0.657692849636077881 0.214986786246299744 -0.0459622479975223541
-0.288364619016647339 -0.0756807029247283936 -0.0685397610068321228
0.227584883570671082 0.04246516153216362 -0.0480559393763542175
0.551817834377288818 -0.144215449690818787 0.132135823369026184
0.520105361938476562 -0.295103639364242554 0.0749946832656860352
0.517977535724639893 -0.283787548542022705 -0.181104987859725952
-0.357887327671051025 -0.0168180428445339203 -0.0278467275202274323
0.0917510688304901123 0.0885007902979850769 0.0858871713280677795
0.467046737670898438 -0.361627727746963501 -0.010572296567261219
-0.432805746793746948 0.158035650849342346 -0.0663558691740036011
0.524147927761077881 -0.335388064384460449 0.0689987540245056152
0.263243824243545532 -0.285672992467880249 0.318638890981674194
0.00968895573168992996 -0.0906907916069030762 -0.0260320510715246201
0.0328787267208099365 -0.130100861191749573 0.0219506807625293732
-0.630660057067871094 0.265287935733795166 0.029284818097949028
0.242381617426872253 0.0745737403631210327 0.318944722414016724
0.240469932556152344 0.0298233907669782639 0.319025188684463501
-0.174735471606254578 0.301115036010742188 0.116447374224662781
0.304935097694396973 -0.151041135191917419 0.307930439710617065
0.262278825044631958 -0.29047432541847229 0.321124613285064697
-0.476101070642471313 -0.00793303642421960831 0.166396960616111755
0.243014097213745117 0.0820118561387062073 0.312303304672241211
0.520572900772094727 -0.351042509078979492 0.0820350348949432373
-0.0346022695302963257 -0.237333372235298157 0.124182216823101044
-0.638279199600219727 0.290274441242218018 0.0990794003009796143
-0.23399960994720459 -0.132574558258056641 -0.0579364970326423645
-0.379133313894271851 -0.108573541045188904 0.10565505176782608
-0.236206889152526855 -0.147597357630729675 -0.0577838532626628876
-0.657907843589782715 0.214679688215255737 -0.0336646214127540588
0.529209613800048828 -0.352376490831375122 0.0779763013124465942
-0.621110260486602783 0.270547598600387573 0.0527239330112934113
-0.404022663831710815 -0.0641077533364295959 0.11219487339258194
-0.446222364902496338 -0.0412681363523006439 0.122147925198078156
0.268345177173614502 -0.285365253686904907 0.323599845170974731
0.127960607409477234 -0.326370120048522949 0.312707841396331787
0.152622237801551819 -0.342860519886016846 0.317982017993927002
0.448141515254974365 -0.335353285074234009 -0.292926251888275146
0.516104698181152344 -0.302707195281982422 -0.107880778610706329
0.515605926513671875 -0.27998843789100647 -0.312762171030044556
0.485263466835021973 -0.327411025762557983 -0.309722900390625
0.464753627777099609 -0.345618337392807007 -0.302597850561141968
0.549936175346374512 -0.209956884384155273 -0.31591227650642395
0.524473667144775391 -0.299778550863265991 -0.322413027286529541
0.518341541290283203 -0.300588309764862061 -0.318309247493743896
0.247108191251754761 0.0572953484952449799 0.316537290811538696
0.241580426692962646 0.0877647176384925842 0.312871009111404419
-0.291511654853820801 -0.100301146507263184 -0.101844765245914459
-0.453478574752807617 -0.0517492517828941345 0.117243029177188873
0.405074894428253174 -0.272000789642333984 0.322641521692276001
-0.502330005168914795 0.00401045847684144974 0.189322769641876221
0.40137094259262085 -0.28697967529296875 0.324957847595214844
0.399517446756362915 -0.273296654224395752 0.323437690734863281
0.342589080333709717 -0.258695125579833984 0.0902032181620597839
-0.0184978358447551727 -0.244127362966537476 0.128755271434783936
-0.464432209730148315 0.036222461611032486 0.189731091260910034
-0.194323047995567322 0.221858814358711243 0.172185540199279785
0.367231130599975586 -0.328999042510986328 -0.0234308671206235886
0.323845028877258301 -0.38982158899307251 -0.158810019493103027
0.5357552170753479 -0.323363304138183594 -0.0581443347036838531
-0.441673427820205688 -0.00449195178225636482 0.152864351868629456
-0.0188800767064094543 -0.059238135814666748 0.141836509108543396
6.48823479423299432e-05 -0.235859483480453491 0.106471128761768341
0.526511430740356445 -0.201521873474121094 -0.0799539834260940552
0.450191736221313477 -0.308035552501678467 -0.292811065912246704
0.527194619178771973 -0.275150507688522339 -0.315614253282546997
0.500285029411315918 -0.324596971273422241 -0.312610656023025513
0.475598990917205811 -0.304751753807067871 -0.297328978776931763
-0.127380430698394775 0.246899455785751343 0.139098554849624634
-0.648985505104064941 0.282301217317581177 0.09447527676820755
-0.198915943503379822 0.286903947591781616 0.33604845404624939
0.498236149549484253 -0.0864538922905921936 0.136760279536247253
0.201166793704032898 -0.358885705471038818 -0.0907620415091514587
0.505751490592956543 -0.367406070232391357 -0.0226218067109584808
0.527516782283782959 -0.24240487813949585 0.173043191432952881
-0.585961639881134033 0.379584252834320068 0.170890122652053833
0.445411711931228638 -0.314629286527633667 -0.287685960531234741
0.498822242021560669 -0.110815532505512238 0.112269192934036255
-0.655719518661499023 0.175800517201423645 -0.103574931621551514
-0.201916247606277466 0.309033662080764771 0.0892828628420829773
0.201577544212341309 -0.0133307203650474548 0.295388728380203247
0.160366594791412354 -0.0618580766022205353 -0.0439762994647026062
-0.579548418521881104 0.302509039640426636 0.368909567594528198
0.275322169065475464 0.0986930951476097107 -0.0290059912949800491
-0.435171604156494141 0.155741333961486816 -0.0858811959624290466
0.534757375717163086 -0.332773447036743164 0.0128267677500844002
-0.568654954433441162 0.197677627205848694 -0.228928223252296448
-0.497529357671737671 0.0453272387385368347 -0.0866968482732772827
0.0317309387028217316 -0.103704094886779785 0.0331079736351966858
0.534441649913787842 -0.264190614223480225 -0.316259622573852539
0.00994576048105955124 0.197977274656295776 0.0277089141309261322
0.302467405796051025 0.0392065010964870453 -0.0843744874000549316
-0.331972062587738037 -0.015652880072593689 -0.107601158320903778
0.236749216914176941 0.0147107038646936417 0.321941286325454712
0.125325724482536316 0.0132662849500775337 0.299082577228546143
0.527831673622131348 -0.354893684387207031 0.0664226263761520386
0.467475324869155884 -0.309534341096878052 -0.23305530846118927
-0.651967048645019531 0.285639911890029907 0.104585103690624237
0.54684370756149292 -0.219682693481445312 0.163600847125053406
0.528362751007080078 -0.32309529185295105 -0.0159623362123966217
-0.382829278707504272 -0.0560933575034141541 0.0763624608516693115
0.457310348749160767 -0.310518026351928711 -0.292508721351623535
0.505363762378692627 -0.339521467685699463 -0.31784704327583313
0.479218602180480957 -0.314002007246017456 -0.299452453851699829
0.520747840404510498 -0.300993829965591431 -0.317273825407028198
-0.00193036103155463934 -0.139673307538032532 -0.0247126016765832901
0.397851943969726562 -0.272854804992675781 0.323612987995147705
0.401520907878875732 -0.271281629800796509 0.323917537927627563
0.506413519382476807 -0.331695765256881714 0.105954110622406006
-0.467426866292953491 0.0427616089582443237 0.170843884348869324
0.41040194034576416 -0.345580548048019409 0.156710460782051086
-0.360555738210678101 -0.0349284298717975616 -0.147988170385360718
-0.127881646156311035 -0.267397224903106689 0.112505517899990082
0.512965083122253418 -0.368745803833007812 -0.0145659567788243294
-0.213540330529212952 0.312832146883010864 0.0978158041834831238
0.250947624444961548 -0.286816596984863281 0.323063433170318604
0.209311053156852722 0.00975407939404249191 -0.0459940172731876373
0.0703643709421157837 -0.151203274726867676 -0.0171325337141752243
-0.169576302170753479 0.305066376924514771 0.119012303650379181
0.471495121717453003 -0.364045619964599609 0.00715188775211572647
-0.29063144326210022 -0.0990913882851600647 -0.103102348744869232
0.0368485897779464722 -0.149361342191696167 -0.0215969681739807129
0.232482731342315674 0.0565236136317253113 0.309359073638916016
0.253754317760467529 -0.288377970457077026 0.320844918489456177
-0.471519768238067627 0.00146035559009760618 0.168859884142875671
0.241298466920852661 0.0629790127277374268 0.313259214162826538
0.509317517280578613 -0.351732403039932251 0.0640738829970359802
0.227788329124450684 -0.31452786922454834 0.314747542142868042
-0.375128328800201416 -0.092829190194606781 0.0863307788968086243
-0.0623668171465396881 -0.241325020790100098 0.302712708711624146
-0.222348719835281372 -0.12731480598449707 -0.0529961436986923218
-0.409637033939361572 -0.0651198327541351318 0.0986876562237739563
-0.444767415523529053 -0.0443920940160751343 0.132922455668449402
0.239343628287315369 -0.293762326240539551 0.314619690179824829
0.154289945960044861 -0.324065208435058594 0.32029452919960022
0.425646156072616577 -0.255765318870544434 0.328760504722595215
0.438700675964355469 -0.342579007148742676 -0.292579382658004761
0.506780743598937988 -0.334223330020904541 -0.317992061376571655
0.445549547672271729 -0.351927787065505981 -0.286637037992477417
0.238563820719718933 0.0660420730710029602 0.312538444995880127
0.403597563505172729 -0.287208229303359985 0.32608187198638916
-0.494551002979278564 0.00704388599842786789 0.188603311777114868
0.486083716154098511 -0.0628845542669296265 0.131892472505569458
0.0129609154537320137 -0.170404002070426941 0.00996898207813501358
0.531951904296875 -0.307294607162475586 -0.0621094517409801483
0.315302073955535889 -0.30192190408706665 -0.126711085438728333
0.44637298583984375 -0.290966451168060303 -0.285547047853469849
-0.336644619703292847 0.225016176700592041 0.125901505351066589
-0.400538116693496704 -0.0278121288865804672 -0.00174523494206368923
0.403505951166152954 -0.271424323320388794 0.324300646781921387
-0.133002638816833496 0.196111336350440979 0.167925268411636353
0.399557024240493774 -0.271361410617828369 0.324114501476287842
-0.446212530136108398 -0.0245893839746713638 0.0215991735458374023
-0.137700542807579041 0.245157018303871155 0.191886141896247864
-0.612529277801513672 0.294355601072311401 0.184025958180427551
0.124908901751041412 0.116389140486717224 0.316876977682113647
-0.120636917650699615 0.25089755654335022 0.16202227771282196
-0.583015084266662598 0.34848448634147644 0.0584029294550418854
0.427305817604064941 -0.347752839326858521 0.153192773461341858
-0.566418290138244629 0.295442581176757812 -0.0687543898820877075
0.252339571714401245 0.0271223168820142746 -0.0794314295053482056
0.248094469308853149 0.100802496075630188 -0.0481908731162548065
-0.357027441263198853 -0.0552801676094532013 -0.141726195812225342
0.199121147394180298 0.120614975690841675 0.0359317734837532043
0.545946419239044189 -0.131151780486106873 0.112134724855422974
-0.581314682960510254 0.322120636701583862 -0.0225965939462184906
0.206591144204139709 0.025045325979590416 0.17702166736125946
-0.595049679279327393 0.375461667776107788 0.172304496169090271
0.445270508527755737 -0.318837106227874756 0.127522066235542297
0.255555540323257446 -0.278343081474304199 0.31668892502784729
0.235963538289070129 0.0241483170539140701 0.316786527633666992
-0.362496465444564819 -0.0493244901299476624 -0.0236198548227548599
-0.182257905602455139 0.118548616766929626 0.0424761027097702026
0.255271166563034058 -0.287782162427902222 0.319505363702774048
0.242395386099815369 0.0335228107869625092 0.322051972150802612
0.400253385305404663 0.0237765088677406311 0.115352608263492584
-0.340057075023651123 -0.0656313449144363403 -0.147176176309585571
0.0762799084186553955 -0.332555234432220459 0.299160182476043701
-0.386357337236404419 -0.060347188264131546 0.0939978510141372681
-0.447800636291503906 -0.0408658310770988464 0.127932608127593994
0.439789950847625732 -0.278887957334518433 0.333831369876861572
0.0349956527352333069 -0.12241247296333313 -0.0255014412105083466
0.41476711630821228 -0.280342698097229004 0.327178716659545898
0.433470457792282104 -0.295636832714080811 0.333335250616073608
0.36848410964012146 -0.278217941522598267 -0.130174309015274048
-0.477015763521194458 0.00190986203961074352 0.188539013266563416
-0.291045308113098145 -0.0958001390099525452 -0.10443241149187088
0.241900444030761719 -0.312550902366638184 0.309865415096282959
0.473717182874679565 -0.353770136833190918 0.00716117722913622856
-0.29587891697883606 -0.0960469767451286316 -0.106878086924552917
0.245249226689338684 -0.288132250308990479 0.320258587598800659
0.0628134980797767639 -0.329256772994995117 0.297244340181350708
0.158617004752159119 -0.267262727022171021 -0.105438202619552612
0.250593304634094238 0.0637894421815872192 0.315685421228408813
-0.48212394118309021 -0.00745100155472755432 0.178165510296821594
0.236734688282012939 0.0669574514031410217 0.315040171146392822
0.239241272211074829 -0.331357717514038086 0.321595460176467896
-0.381801903247833252 -0.0914974361658096313 0.0368915349245071411
-0.21560920774936676 -0.139549151062965393 -0.054231397807598114
-0.382257640361785889 -0.0631534010171890259 0.0837107822299003601
0.150499939918518066 -0.331175714731216431 0.332085788249969482
0.446307837963104248 -0.279419034719467163 0.33375394344329834
0.407881885766983032 -0.280054599046707153 0.325292378664016724
-0.501640856266021729 0.0070247650146484375 0.188921362161636353
-0.321471035480499268 0.0977103710174560547 -0.070118144154548645
0.5330086350440979 -0.207058444619178772 -0.0525306202471256256
0.451564669609069824 -0.293404757976531982 -0.290435910224914551
0.488022029399871826 -0.324763596057891846 -0.310853034257888794
0.447015136480331421 -0.309249967336654663 -0.290800124406814575
-0.577401280403137207 0.269521445035934448 0.366097122430801392
-0.460974663496017456 0.106289386749267578 -0.230833366513252258
0.375365495681762695 -0.318243116140365601 0.19923122227191925
-0.589413225650787354 0.36722448468208313 0.131517305970191956
0.393186032772064209 -0.352961033582687378 -0.217432901263237
0.441713869571685791 -0.309792071580886841 -0.289009422063827515
-0.200301125645637512 0.30576130747795105 0.0951434671878814697
-0.155144736170768738 0.268260926008224487 0.151837751269340515
0.530307114124298096 -0.338020205497741699 0.0719145387411117554
0.464393883943557739 -0.265666723251342773 -0.217620477080345154
-0.633142173290252686 0.276045054197311401 0.107324883341789246
0.439035922288894653 -0.308084189891815186 -0.287180334329605103
0.516047358512878418 -0.276731729507446289 -0.316813021898269653
0.517181813716888428 -0.339879781007766724 -0.320728152990341187
0.454973518848419189 -0.306565523147583008 -0.293235719203948975
0.491402477025985718 -0.321496903896331787 0.0944829359650611877
0.0211999509483575821 -0.275344938039779663 -0.0184785500168800354
-0.653648555278778076 0.172339022159576416 -0.107857123017311096
-0.224337309598922729 0.318848013877868652 0.121542111039161682
0.465893954038619995 -0.363651484251022339 0.00599048472940921783
0.481594383716583252 -0.336377948522567749 0.0503671020269393921
0.512086033821105957 -0.338937997817993164 -0.319387257099151611
0.4408130943775177 -0.356077998876571655 -0.297590404748916626
-0.269630998373031616 0.322328358888626099 0.0420603826642036438
0.42476460337638855 -0.312804877758026123 -0.281874597072601318
0.415969520807266235 -0.294798135757446289 0.328624904155731201
-0.325655251741409302 -0.0749725848436355591 0.123640425503253937
-0.366456180810928345 -0.0662983879446983337 0.154861748218536377
-0.337897270917892456 0.215184390544891357 0.133038118481636047
0.0105115491896867752 0.119791790843009949 0.105309188365936279
0.542548477649688721 -0.308768123388290405 -0.0461414642632007599
0.0142076052725315094 -0.261344343423843384 0.0396163500845432281
-0.00300017651170492172 -0.236132830381393433 0.0943794324994087219
0.000758859736379235983 -0.219169899821281433 0.0816378146409988403
0.465466707944869995 -0.360512197017669678 0.0303950216621160507
-0.268938153982162476 -0.137600421905517578 0.177656903862953186
-0.344653278589248657 -0.0654692426323890686 0.141444563865661621
0.124028094112873077 -0.276271522045135498 0.129100397229194641
-0.13343106210231781 0.079201430082321167 0.0904454365372657776
0.46394646167755127 -0.053972247987985611 0.0176849421113729477
-0.0135822463780641556 -0.216481432318687439 0.080479152500629425
-0.554389595985412598 0.391915678977966309 0.148024514317512512
0.497149288654327393 -0.366385489702224731 0.00531835388392210007
-0.610358059406280518 0.29435315728187561 0.186829298734664917
0.530574321746826172 -0.274800688028335571 -0.317650258541107178
0.370866149663925171 -0.264205604791641235 0.181648135185241699
0.420862257480621338 -0.344068646430969238 0.150959685444831848
0.252470105886459351 0.0396194905042648315 -0.0665601268410682678
0.549850106239318848 -0.14954790472984314 0.124322414398193359
-0.570172965526580811 0.284422129392623901 -0.00609842408448457718
0.501417815685272217 -0.362238615751266479 -0.00121356151066720486
0.208663836121559143 0.116079024970531464 -0.0103189470246434212
-0.288710087537765503 -0.0851875320076942444 -0.066266670823097229
0.159753009676933289 -0.0828241035342216492 -0.0360618792474269867
-0.339513391256332397 -0.105037681758403778 0.14148123562335968
0.511590480804443359 -0.28095853328704834 -0.313166290521621704
-0.338825196027755737 -0.0792082995176315308 0.0387868434190750122
-0.368953853845596313 0.281105399131774902 -0.0623868629336357117
0.510338068008422852 -0.340586304664611816 0.0651984065771102905
0.30275428295135498 -0.205537497997283936 0.248044073581695557
0.543292820453643799 -0.311653405427932739 -0.0606916807591915131
0.141932323575019836 0.0698382779955863953 0.336531579494476318
-0.594498574733734131 0.267883777618408203 0.0124740265309810638
0.222402781248092651 -0.00673457887023687363 0.295724302530288696
0.231241136789321899 0.0346802361309528351 0.31292000412940979
0.533995330333709717 -0.319261699914932251 -0.0127307455986738205
-0.388892382383346558 -0.0635603517293930054 0.105965256690979004
-0.447143524885177612 -0.0397178381681442261 0.126783952116966248
0.496340245008468628 -0.0909643396735191345 0.154556050896644592
0.251260519027709961 0.063466392457485199 0.316803425550460815
-0.290922343730926514 -0.0923415645956993103 0.307922184467315674
-0.366105616092681885 -0.114333368837833405 0.104249581694602966
-0.563014745712280273 0.12770378589630127 -0.0781761929392814636
-0.501107573509216309 0.0238688159734010696 0.186968535184860229
0.518649280071258545 -0.296982824802398682 -0.31400337815284729
0.473132342100143433 -0.327872633934020996 -0.299856811761856079
-0.573934018611907959 0.269187569618225098 0.363022029399871826
-0.570826053619384766 0.355212390422821045 0.167370155453681946
-0.191385582089424133 0.305012136697769165 0.101504527032375336
-0.661695301532745361 0.240142703056335449 0.0419886521995067596
-0.50454401969909668 0.144768103957176208 0.353627711534500122
0.507673144340515137 -0.346804916858673096 -0.318284153938293457
-0.200212046504020691 0.30534401535987854 0.102164432406425476
0.475617110729217529 -0.357297033071517944 0.00474692648276686668
0.510221600532531738 -0.330403387546539307 0.0664743185043334961
-0.610354423522949219 0.367911547422409058 0.0881230905652046204
-0.5621185302734375 0.288663476705551147 -0.055654868483543396
0.220329433679580688 0.0106223691254854202 0.309253573417663574
0.240890935063362122 0.00545468227937817574 0.321716547012329102
-0.359079450368881226 -0.0564256682991981506 -0.137721598148345947
0.399686217308044434 -0.252433121204376221 0.322042882442474365
0.399989902973175049 -0.262804687023162842 0.324795186519622803
0.224510997533798218 -0.323816299438476562 0.320825308561325073
0.411470651626586914 -0.267544478178024292 0.325213342905044556
-0.508751511573791504 0.0498312301933765411 0.195566609501838684
-0.630823194980621338 0.156901657581329346 -0.0523327849805355072
-0.501515626907348633 0.14733453094959259 0.345600038766860962
0.521472573280334473 -0.350369960069656372 -0.323027700185775757
0.495788067579269409 -0.348026782274246216 0.000264559028437361121
-0.197427093982696533 0.016559213399887085 -0.049808841198682785
-0.557372450828552246 0.342126429080963135 -0.00542006688192486763
0.488995224237442017 -0.360159516334533691 0.0410923101007938385
0.449564844369888306 -0.0738940462470054626 0.00200208975002169609
-0.555920124053955078 0.385524362325668335 0.158148303627967834
0.375069260597229004 -0.0808439925312995911 -0.119886644184589386
-0.389330804347991943 0.319908350706100464 0.16905328631401062
-0.384294003248214722 0.328463912010192871 0.197750359773635864
-0.363743185997009277 0.238389790058135986 -0.0832978412508964539
-0.406905680894851685 0.199890241026878357 0.0411219149827957153
-0.64409184455871582 0.287172675132751465 0.0939763560891151428
0.409035384654998779 -0.346941202878952026 0.13647972047328949
0.222762167453765869 0.0832362249493598938 -0.0334594883024692535
0.498943209648132324 -0.160983055830001831 0.12385965883731842
0.500677645206451416 -0.0925719216465950012 0.13478580117225647
0.215745300054550171 0.00218016654253005981 0.299584835767745972
-0.352687954902648926 -0.0677400156855583191 -0.00891921296715736389
-0.384989291429519653 0.266369819641113281 -0.0714727267622947693
0.506909489631652832 -0.346806585788726807 0.0549503974616527557
-0.356498241424560547 -0.0558874942362308502 -0.14531397819519043
0.132561013102531433 0.0729008540511131287 0.32225683331489563
-0.0990680977702140808 -0.265196889638900757 0.00620397087186574936
0.242796793580055237 0.0235933270305395126 0.322023212909698486
-0.479986578226089478 -0.011374911293387413 0.185546085238456726
0.242824316024780273 0.0485784448683261871 0.317204743623733521
-0.277796387672424316 0.332995593547821045 0.0408456213772296906
0.370243936777114868 -0.0305550098419189453 -0.0399119071662425995
0.520618617534637451 -0.347719490528106689 -0.0363095328211784363
0.293716460466384888 -0.0116638876497745514 0.0370677448809146881
-0.643778622150421143 0.28509184718132019 0.092823125422000885
0.0360994338989257812 0.137012690305709839 0.085218675434589386
-0.397024244070053101 -0.0572710372507572174 0.126070529222488403
-0.441000819206237793 -0.0378717631101608276 0.131524711847305298
0.524287641048431396 -0.317306995391845703 -0.0654568076133728027
0.422823697328567505 -0.27973252534866333 0.331277310848236084
0.510072231292724609 -0.344702422618865967 0.0571181401610374451
0.404243171215057373 -0.258609503507614136 0.32368922233581543
-0.479900926351547241 0.0183765199035406113 0.176937580108642578
0.235861361026763916 0.0687597319483757019 0.314602106809616089
