ply
format ascii 1.0
element vertex 738
property float x
property float y
property float z
end_header
0.201186656951904297 -0.359509587287902832 -0.090494893491268158
0.505887627601623535 -0.367908090353012085 -0.022287614643573761
0.527752339839935303 -0.242912515997886658 0.173399686813354492
-0.586405575275421143 0.379091143608093262 0.170747041702270508
0.445459902286529541 -0.315137594938278198 -0.287383735179901123
0.49911150336265564 -0.111298128962516785 0.112689651548862457
-0.656163156032562256 0.175240248441696167 -0.103646770119667053
-0.202125027775764465 0.308493524789810181 0.0894328504800796509
0.201784327626228333 -0.01390079315751791 0.295681297779083252
0.160450443625450134 -0.0624370090663433075 -0.0436276867985725403
-0.579969942569732666 0.301977097988128662 0.368794113397598267
0.275595188140869141 0.0981883183121681213 -0.0285764504224061966
-0.435617327690124512 0.155111163854598999 -0.0858364403247833252
0.534916281700134277 -0.333262056112289429 0.0131700998172163963
-0.56914985179901123 0.197120726108551025 -0.228973761200904846
-0.498002499341964722 0.0446736179292201996 -0.0867229029536247253
0.0316839367151260376 -0.10434626042842865 0.0333559587597846985
0.534492075443267822 -0.264648228883743286 -0.31595844030380249
0.00998969189822673798 0.197418525815010071 0.027995401993393898
0.302702724933624268 0.0387006178498268127 -0.0839474797248840332
-0.332388192415237427 -0.0163255147635936737 -0.107530906796455383
0.236988380551338196 0.0141717791557312012 0.322251379489898682
0.125451445579528809 0.0126755945384502411 0.299338579177856445
0.528004050254821777 -0.355397999286651611 0.0667557194828987122
0.467547714710235596 -0.310029506683349609 -0.23273468017578125
-0.652382254600524902 0.285126984119415283 0.104432821273803711
0.547080636024475098 -0.220174938440322876 0.163965567946434021
0.528514623641967773 -0.323581278324127197 -0.0156150981783866882
-0.383241623640060425 -0.0567938424646854401 0.0763692036271095276
0.457358628511428833 -0.31102067232131958 -0.292205542325973511
0.505388855934143066 -0.34000396728515625 -0.317573606967926025
0.479262590408325195 -0.31449475884437561 -0.299154967069625854
0.520785808563232422 -0.301463603973388672 -0.316985875368118286
-0.00204191938973963261 -0.140335202217102051 -0.0244945213198661804
0.39810451865196228 -0.273429244756698608 0.323900490999221802
0.401774019002914429 -0.271854311227798462 0.32420685887336731
0.506611824035644531 -0.332214564085006714 0.10629349946975708
-0.467856287956237793 0.0420814678072929382 0.170787200331687927
0.410609275102615356 -0.346150130033493042 0.157026767730712891
-0.361000180244445801 -0.0356053225696086884 -0.147953078150749207
-0.128097012639045715 -0.268147289752960205 0.112585559487342834
0.513102889060974121 -0.36924588680267334 -0.0142327845096588135
-0.213763624429702759 0.312292248010635376 0.0979557409882545471
0.251135110855102539 -0.287458151578903198 0.323270231485366821
0.209473028779029846 0.00921098329126834869 -0.0456043481826782227
0.0703311562538146973 -0.151845246553421021 -0.0168657358735799789
-0.169742032885551453 0.304526537656784058 0.119169697165489197
0.471657335758209229 -0.364567965269088745 0.00749888736754655838
-0.291034668684005737 -0.0997838303446769714 -0.103012584149837494
0.0367776751518249512 -0.150014206767082214 -0.0213544629514217377
0.232729911804199219 0.0559956282377243042 0.309683024883270264
0.25394362211227417 -0.289018630981445312 0.321053475141525269
-0.471961736679077148 0.000769631704315543175 0.168791860342025757
0.241555079817771912 0.062457498162984848 0.313588112592697144
0.509494364261627197 -0.352244675159454346 0.0644107460975646973
0.227951303124427795 -0.315186053514480591 0.314932137727737427
-0.375544935464859009 -0.0935348719358444214 0.0863337069749832153
-0.0624672658741474152 -0.242080330848693848 0.302762806415557861
-0.222676187753677368 -0.128020614385604858 -0.0529021807014942169
-0.410058408975601196 -0.0658243671059608459 0.0986680164933204651
-0.445196539163589478 -0.0450921542942523956 0.132874414324760437
0.23952038586139679 -0.294411003589630127 0.314819633960723877
0.15438823401927948 -0.324758738279342651 0.320427566766738892
0.425903469324111938 -0.256325423717498779 0.32906264066696167
0.438737034797668457 -0.343093991279602051 -0.292292267084121704
0.506807565689086914 -0.334704488515853882 -0.317716598510742188
0.44558560848236084 -0.352440565824508667 -0.286351561546325684
0.238819003105163574 0.0655203834176063538 0.312867164611816406
0.403847604990005493 -0.287785232067108154 0.326364666223526001
-0.494995206594467163 0.00635848008096218109 0.188515007495880127
0.486393451690673828 -0.0633653923869132996 0.132318496704101562
0.0128672579303383827 -0.171078413724899292 0.0101913558319211006
0.532089114189147949 -0.307771146297454834 -0.061761319637298584
0.315392673015594482 -0.302483528852462769 -0.126381710171699524
0.446430832147598267 -0.291471540927886963 -0.285231858491897583
-0.336996376514434814 0.224400416016578674 0.125968888401985168
-0.400976091623306274 -0.02850322425365448 -0.0017229106742888689
0.403759092092514038 -0.271996408700942993 0.324590474367141724
-0.133133247494697571 0.195504277944564819 0.168103188276290894
0.399809926748275757 -0.271934747695922852 0.324403077363967896
-0.446662753820419312 -0.0252775270491838455 0.0215817764401435852
-0.137830600142478943 0.244576305150985718 0.192051663994789124
-0.612956404685974121 0.293821275234222412 0.183884263038635254
0.125058397650718689 0.115838095545768738 0.317158043384552002
-0.120742470026016235 0.250327616930007935 0.162202581763267517
-0.583456099033355713 0.347973763942718506 0.0583209916949272156
0.427512407302856445 -0.348316192626953125 0.153512150049209595
-0.566878259181976318 0.294901579618453979 -0.0687797889113426208
0.252534806728363037 0.0265986155718564987 -0.0790218934416770935
0.248333826661109924 0.100292079150676727 -0.0477723851799964905
-0.357469379901885986 -0.0559635497629642487 -0.14169524610042572
0.199355795979499817 0.120090365409851074 0.0363239534199237823
0.546215951442718506 -0.131616175174713135 0.112543225288391113
-0.581766128540039062 0.321596682071685791 -0.022642768919467926
0.20680806040763855 0.0244942065328359604 0.177368611097335815
-0.595488667488098145 0.374967813491821289 0.172162219882011414
0.445483386516571045 -0.31938326358795166 0.127861589193344116
0.255748122930526733 -0.278980553150177002 0.316904127597808838
0.23620469868183136 0.0236115604639053345 0.31710052490234375
-0.362917155027389526 -0.0500174947082996368 -0.0235777422785758972
-0.182481527328491211 0.117918863892555237 0.042652323842048645
0.255461752414703369 -0.288421988487243652 0.319715499877929688
0.242644011974334717 0.0329929441213607788 0.322370350360870361
0.400592029094696045 0.0232866182923316956 0.115781478583812714
-0.340490221977233887 -0.0663165748119354248 -0.147139891982078552
0.0762987136840820312 -0.333283275365829468 0.299249559640884399
-0.386768937110900879 -0.0610498823225498199 0.0939963832497596741
-0.448231637477874756 -0.0415640026330947876 0.12788468599319458
0.440044045448303223 -0.279452353715896606 0.334126412868499756
0.0349283106625080109 -0.123055435717105865 -0.0252528991550207138
0.415019214153289795 -0.280914217233657837 0.327467679977416992
0.43371996283531189 -0.296207815408706665 0.333621829748153687
0.368598133325576782 -0.278751373291015625 -0.129820942878723145
-0.477525115013122559 0.00119831471238285303 0.188454657793045044
-0.291447997093200684 -0.0964915603399276733 -0.104343771934509277
0.242074251174926758 -0.313201844692230225 0.310061186552047729
0.473878383636474609 -0.354289442300796509 0.00750692281872034073
-0.296281129121780396 -0.096740424633026123 -0.106802292168140411
0.245431959629058838 -0.288776814937591553 0.32046237587928772
0.0628191009163856506 -0.329989194869995117 0.297328293323516846
0.158614769577980042 -0.267894476652145386 -0.105163104832172394
0.250858008861541748 0.0632723197340965271 0.316018342971801758
-0.482573717832565308 -0.00814429018646478653 0.178085237741470337
0.236988291144371033 0.0664357841014862061 0.315367579460144043
0.23940923810005188 -0.332013219594955444 0.321778029203414917
-0.382223635911941528 -0.0922071784734725952 0.0369004160165786743
-0.215931475162506104 -0.140259250998497009 -0.0541394874453544617
-0.382668972015380859 -0.063855975866317749 0.0837141573429107666
0.150594323873519897 -0.331872165203094482 0.332209169864654541
0.446562349796295166 -0.279982179403305054 0.334050416946411133
0.408133745193481445 -0.280628114938735962 0.325579792261123657
-0.502081573009490967 0.00634300429373979568 0.188828065991401672
-0.321854203939437866 0.0970642715692520142 -0.0700051188468933105
0.533190608024597168 -0.207520782947540283 -0.0521426424384117126
0.451620161533355713 -0.293908089399337769 -0.290122777223587036
0.488056480884552002 -0.32525336742401123 -0.310567229986190796
0.447064042091369629 -0.309757083654403687 -0.290496170520782471
-0.57781904935836792 0.26896899938583374 0.365986108779907227
-0.461469501256942749 0.105670958757400513 -0.230845779180526733
0.375586271286010742 -0.31882593035697937 0.199537068605422974
-0.589849412441253662 0.366724461317062378 0.131398051977157593
0.393246471881866455 -0.353493660688400269 -0.21712765097618103
0.441763073205947876 -0.310301601886749268 -0.288705378770828247
-0.20050676167011261 0.305218726396560669 0.0952939093112945557
-0.15529400110244751 0.267695963382720947 0.151999711990356445
0.530487418174743652 -0.338521838188171387 0.0722529739141464233
0.464489102363586426 -0.2661571204662323 -0.21727558970451355
-0.633564531803131104 0.275512963533401489 0.107196763157844543
0.439086318016052246 -0.308594614267349243 -0.286874890327453613
0.516094624996185303 -0.277201175689697266 -0.316513150930404663
0.517204582691192627 -0.340355932712554932 -0.320458263158798218
0.455022901296615601 -0.307068854570388794 -0.292930662631988525
0.491605818271636963 -0.322018176317214966 0.0948303043842315674
0.0210851915180683136 -0.276042163372039795 -0.0182881578803062439
-0.654096364974975586 0.171777352690696716 -0.107929937541484833
-0.22457335889339447 0.318308770656585693 0.121667176485061646
0.466054618358612061 -0.36417582631111145 0.00633614929392933846
0.481775820255279541 -0.336897850036621094 0.0507129654288291931
0.512110114097595215 -0.339416772127151489 -0.319115430116653442
0.440843045711517334 -0.356593817472457886 -0.297310978174209595
-0.269928961992263794 0.32178923487663269 0.0421876907348632812
0.424814730882644653 -0.313322007656097412 -0.28157004714012146
0.416218191385269165 -0.295373618602752686 0.32890784740447998
-0.326023608446121216 -0.0756822526454925537 0.123663589358329773
-0.366846352815628052 -0.0670115277171134949 0.154852256178855896
-0.338249862194061279 0.214561834931373596 0.133102789521217346
0.0105377072468400002 0.119198746979236603 0.105577051639556885
0.542690396308898926 -0.309242069721221924 -0.0457939654588699341
0.0141088413074612617 -0.262044012546539307 0.0398030728101730347
-0.00309361610561609268 -0.236838564276695251 0.094554416835308075
0.000668389489874243736 -0.219868913292884827 0.0818260535597801208
0.4656333327293396 -0.361039638519287109 0.0307350587099790573
-0.269252955913543701 -0.138340353965759277 0.177675068378448486
-0.345031052827835083 -0.0661799609661102295 0.141452744603157043
0.124071158468723297 -0.27694132924079895 0.12932470440864563
-0.133602052927017212 0.0785632133483886719 0.090627714991569519
0.4642333984375 -0.0544510334730148315 0.018121231347322464
-0.0136874867603182793 -0.217184141278266907 0.0806592702865600586
-0.554829418659210205 0.391418427228927612 0.147918581962585449
0.497302621603012085 -0.366896063089370728 0.00565826427191495895
-0.610785722732543945 0.293817818164825439 0.186687737703323364
0.530620574951171875 -0.275261789560317993 -0.317353248596191406
0.371099680662155151 -0.264774084091186523 0.181981638073921204
0.421069473028182983 -0.344633132219314575 0.151279911398887634
0.252675712108612061 0.0390977151691913605 -0.0661491155624389648
0.550110816955566406 -0.150016099214553833 0.12472100555896759
-0.570626139640808105 0.283864527940750122 -0.00613370304927229881
0.501567721366882324 -0.362745374441146851 -0.000874269520863890648
0.20889224112033844 0.115558251738548279 -0.00991282425820827484
-0.289093434810638428 -0.085881158709526062 -0.066186368465423584
0.159831762313842773 -0.0834097862243652344 -0.0357176102697849274
-0.339888006448745728 -0.105760686099529266 0.141480609774589539
0.511638283729553223 -0.281430810689926147 -0.312865674495697021
-0.339219063520431519 -0.0799124389886856079 0.0388251058757305145
-0.369362413883209229 0.280533254146575928 -0.0622918494045734406
0.510519206523895264 -0.34109652042388916 0.0655390620231628418
0.302982300519943237 -0.206128209829330444 0.24834209680557251
0.543427109718322754 -0.312125861644744873 -0.0603472068905830383
0.142088443040847778 0.0692813843488693237 0.336803942918777466
-0.594938158988952637 0.267333269119262695 0.012411004863679409
0.222626298666000366 -0.00729122897610068321 0.296029061079025269
0.231481030583381653 0.0341446399688720703 0.313235878944396973
0.534149110317230225 -0.31974482536315918 -0.0123825892806053162
-0.389303326606750488 -0.0642650574445724487 0.105957828462123871
-0.447574496269226074 -0.0404156520962715149 0.126737043261528015
0.496639132499694824 -0.0914486944675445557 0.154972672462463379
0.251525580883026123 0.0629496276378631592 0.317136257886886597
-0.291215389966964722 -0.0930960476398468018 0.307903140783309937
-0.366506367921829224 -0.11505301296710968 0.10424235463142395
-0.563474476337432861 0.127093404531478882 -0.0782199352979660034
-0.501544594764709473 0.0231920257210731506 0.18687950074672699
0.518690228462219238 -0.297453165054321289 -0.313711851835250854
0.473170995712280273 -0.32836991548538208 -0.299566298723220825
-0.574351966381072998 0.268633395433425903 0.362912625074386597
-0.571269035339355469 0.354700684547424316 0.167243093252182007
-0.191578954458236694 0.304469913244247437 0.101658299565315247
-0.662120223045349121 0.239600330591201782 0.0418818779289722443
-0.504946410655975342 0.144126579165458679 0.353558778762817383
0.507695257663726807 -0.347286880016326904 -0.318014472723007202
-0.200417056679725647 0.304800599813461304 0.102312847971916199
0.475777298212051392 -0.357815831899642944 0.00509290117770433426
0.510407149791717529 -0.330912262201309204 0.0668186917901039124
-0.610788464546203613 0.367418825626373291 0.0880116820335388184
-0.562574982643127441 0.288117468357086182 -0.0556809864938259125
0.220554530620574951 0.0100726969540119171 0.309558093547821045
0.24113135039806366 0.00491420365869998932 0.322026073932647705
-0.359521865844726562 -0.0571098662912845612 -0.137691378593444824
0.399941593408584595 -0.25299990177154541 0.322340071201324463
0.400243997573852539 -0.263374894857406616 0.32508733868598938
0.22466963529586792 -0.324477612972259521 0.321002066135406494
0.411724984645843506 -0.268112808465957642 0.325507104396820068
-0.509183645248413086 0.0491629987955093384 0.195475324988365173
-0.631268322467803955 0.156322404742240906 -0.0524077452719211578
-0.501918911933898926 0.14669191837310791 0.345532536506652832
0.521490156650543213 -0.350844800472259521 -0.322764158248901367
0.495944023132324219 -0.348534107208251953 0.000608709466177970171
-0.197716459631919861 0.0159087888896465302 -0.0496545955538749695
-0.557826995849609375 0.34160691499710083 -0.005460360087454319
0.489163517951965332 -0.360678374767303467 0.0414301417768001556
0.449837058782577515 -0.0743798092007637024 0.0024354797787964344
-0.556363046169281006 0.385024815797805786 0.158033713698387146
0.375270068645477295 -0.0813463553786277771 -0.119464583694934845
-0.389733314514160156 0.319346636533737183 0.169060662388801575
-0.384694963693618774 0.327906996011734009 0.197752445936203003
-0.364149808883666992 0.237797647714614868 -0.0831990242004394531
-0.407312542200088501 0.199263021349906921 0.0411721207201480865
-0.64451134204864502 0.286654263734817505 0.0938392654061317444
0.409238427877426147 -0.347507834434509277 0.136800706386566162
0.222976431250572205 0.0827131718397140503 -0.0330527983605861664
0.499208420515060425 -0.161475807428359985 0.124259993433952332
0.500974357128143311 -0.0930526405572891235 0.135205328464508057
0.215966016054153442 0.00162358558736741543 0.299887686967849731
-0.353101342916488647 -0.068438895046710968 -0.00887676235288381577
-0.385410398244857788 0.265788733959197998 -0.0713868588209152222
0.507084965705871582 -0.347317516803741455 0.0552899539470672607
-0.356940716505050659 -0.056570742279291153 -0.145283862948417664
0.132707923650741577 0.0723382234573364258 0.322528719902038574
-0.0992867797613143921 -0.265936434268951416 0.00631626741960644722
0.243043333292007446 0.0230600964277982712 0.322338908910751343
-0.480440884828567505 -0.0120723564177751541 0.18546430766582489
0.243077650666236877 0.0480532273650169373 0.317529141902923584
-0.278103798627853394 0.33246263861656189 0.0409673489630222321
0.370497524738311768 -0.0310554318130016327 -0.0394857488572597504
0.520752906799316406 -0.34820982813835144 -0.0359724052250385284
0.293970465660095215 -0.0121879773214459419 0.0374747365713119507
-0.644198238849639893 0.284572184085845947 0.0926870107650756836
0.0361611917614936829 0.136436581611633301 0.0855066850781440735
-0.39743494987487793 -0.0579768121242523193 0.126053124666213989
-0.441428899765014648 -0.0385702922940254211 0.131481096148490906
0.524420499801635742 -0.317787766456604004 -0.0651117265224456787
0.423076391220092773 -0.280301421880722046 0.331567913293838501
0.510248720645904541 -0.345211952924728394 0.0574579276144504547
0.404498249292373657 -0.259176969528198242 0.323984861373901367
-0.480341643095016479 0.0176913496106863022 0.176864966750144958
0.236114785075187683 0.0682382509112358093 0.314929753541946411
-0.479493290185928345 -0.00872031785547733307 0.167505115270614624
0.23974195122718811 0.067248813807964325 0.315333157777786255
0.3888416588306427 0.0257505942136049271 0.106466732919216156
0.220191031694412231 -0.316479086875915527 0.310662120580673218
0.383661329746246338 0.0426670871675014496 0.0695121735334396362
0.463343262672424316 0.0104911532253026962 0.175523266196250916
0.400123327970504761 -0.258970141410827637 0.32755744457244873
-0.499655455350875854 0.0207716841250658035 0.181082159280776978
-0.573543548583984375 0.265907138586044312 0.360135197639465332
-0.664583206176757812 0.229664579033851624 0.0220322683453559875
-0.149050846695899963 0.275061547756195068 0.0793800130486488342
0.522532284259796143 -0.335264831781387329 -0.322373062372207642
-0.220255002379417419 0.315362393856048584 0.0970262587070465088
0.50047910213470459 -0.34681016206741333 0.0673500671982765198
-0.189571350812911987 0.302445352077484131 0.115054942667484283
0.314274221658706665 -0.130502358078956604 0.301093935966491699
0.225695028901100159 -0.0355862751603126526 0.305521130561828613
0.0578630939126014709 -0.331263363361358643 0.291572779417037964
0.43586614727973938 -0.280332684516906738 0.333081454038619995
0.409599184989929199 -0.286139994859695435 0.331242859363555908
0.386314541101455688 -0.266176611185073853 0.319128483533859253
0.397984623908996582 -0.384938806295394897 -0.225435853004455566
-0.162050783634185791 0.278069078922271729 0.128910809755325317
0.381302863359451294 0.0436876006424427032 0.0774540454149246216
0.391438722610473633 -0.256130099296569824 0.31914132833480835
-0.500374913215637207 0.0240531414747238159 0.185919374227523804
0.500100076198577881 -0.326149612665176392 -0.312989890575408936
0.381172895431518555 -0.376234292984008789 -0.216041684150695801
0.521596133708953857 -0.349490851163864136 -0.32478061318397522
0.521157026290893555 -0.348629921674728394 -0.321718126535415649
0.51378554105758667 -0.319873511791229248 -0.318330824375152588
0.255584001541137695 -0.222727194428443909 0.0578071996569633484
0.186521977186203003 -0.142626509070396423 -0.105313889682292938
0.508368790149688721 -0.320492714643478394 0.0295136198401451111
-0.469528228044509888 -0.0123269082978367805 0.181163236498832703
0.4966907799243927 -0.349192559719085693 -0.30966612696647644
0.521939933300018311 -0.327747553586959839 -0.321842879056930542
0.476510465145111084 -0.320475161075592041 -0.302929699420928955
-0.341156303882598877 0.22956278920173645 -0.0440910868346691132
0.202281653881072998 0.132524356245994568 0.112610630691051483
-0.172409474849700928 0.0218561794608831406 0.0258247200399637222
0.266204744577407837 -0.16614532470703125 0.00636813836172223091
0.545235693454742432 -0.328556269407272339 -0.0476045943796634674
-0.4563465416431427 -0.0535265728831291199 0.162276163697242737
0.470204025506973267 -0.356296271085739136 -0.30699998140335083
0.478956103324890137 -0.270021200180053711 -0.301389425992965698
0.467817217111587524 -0.362105846405029297 -0.308091670274734497
-0.320146918296813965 0.26634824275970459 0.0117313675582408905
0.0335405617952346802 0.0982344746589660645 0.128822341561317444
-0.284510970115661621 -0.100438483059406281 -0.087215125560760498
-0.616816937923431396 0.216751173138618469 -0.104610197246074677
0.244982898235321045 0.104248046875 -0.0293487608432769775
0.466797530651092529 -0.235332250595092773 -0.228315234184265137
-0.293766289949417114 -0.0888896659016609192 -0.0957712829113006592
0.249699071049690247 -0.276329457759857178 0.322805404663085938
0.222599044442176819 0.066602557897567749 -0.027524096891283989
-0.250730752944946289 -0.130592808127403259 -0.0553605407476425171
-0.211477875709533691 0.301678508520126343 0.148942172527313232
0.340416312217712402 -0.140937253832817078 0.318645209074020386
0.530239999294281006 -0.356849610805511475 0.0699221193790435791
-0.599914789199829102 0.356384158134460449 0.06060071662068367
-0.346246898174285889 -0.0560972392559051514 -0.143517181277275085
-0.432780236005783081 0.157271355390548706 -0.0844414159655570984
0.527131378650665283 -0.331960856914520264 0.0206345897167921066
0.528691887855529785 -0.288186728954315186 -0.06990090012550354
-0.49889180064201355 0.142443329095840454 -0.253740251064300537
0.147009760141372681 0.156476482748985291 0.0591777041554450989
0.253818154335021973 -0.00800015497952699661 0.328002423048019409
0.350560456514358521 -0.14751918613910675 0.320881903171539307
0.442812114953994751 -0.322721719741821289 -0.229162558913230896
-0.223931461572647095 -0.140405669808387756 -0.0536678656935691833
0.523070693016052246 -0.350493758916854858 0.0971939638257026672
-0.646093487739562988 0.253225564956665039 0.0240712929517030716
0.393805205821990967 -0.280446410179138184 0.322574704885482788
-0.474697768688201904 -0.0102651575580239296 0.164952203631401062
0.224958091974258423 -0.325479745864868164 0.319258958101272583
-0.363594621419906616 -0.121624112129211426 0.130472287535667419
-0.238392025232315063 -0.14103330671787262 -0.053804352879524231
-0.113726712763309479 -0.00949976220726966858 -0.0164246354252099991
0.390032052993774414 -0.278718680143356323 0.320905774831771851
-0.507018804550170898 0.0108711952343583107 0.202035054564476013
0.463136106729507446 -0.297075212001800537 -0.294114530086517334
0.351903945207595825 -0.148476794362068176 0.321738094091415405
0.458403915166854858 -0.303885310888290405 -0.228621497750282288
0.0248699802905321121 -0.144116222858428955 -0.0199138019233942032
0.369584590196609497 -0.328123599290847778 0.319026172161102295
0.392258733510971069 -0.281871289014816284 0.31716763973236084
0.129044041037559509 -0.319518506526947021 -0.0968927592039108276
-0.134299024939537048 0.278145045042037964 0.117788262665271759
-0.333262443542480469 0.0942189693450927734 -0.10218532383441925
0.374610155820846558 -0.376100033521652222 -0.214595422148704529
0.52037513256072998 -0.345879346132278442 -0.322394967079162598
0.523937106132507324 -0.358144253492355347 -0.326260358095169067
-0.0680204257369041443 -0.255238533020019531 0.099076293408870697
0.326354235410690308 -0.131184518337249756 0.315066099166870117
0.424917638301849365 -0.260092854499816895 0.328589498996734619
-0.479956358671188354 0.0315132550895214081 0.196799978613853455
0.527123212814331055 -0.299733400344848633 -0.321841657161712646
0.538553476333618164 -0.292579472064971924 -0.324255704879760742
0.378406524658203125 -0.374336302280426025 -0.213304072618484497
0.371911495923995972 -0.357276618480682373 -0.213305756449699402
0.524560451507568359 -0.35174211859703064 -0.324639648199081421
0.525865495204925537 -0.363520145416259766 -0.322731673717498779
0.516040623188018799 -0.32729041576385498 -0.319706887006759644
0.480003476142883301 -0.352451324462890625 -0.311843663454055786
0.478969216346740723 -0.365722358226776123 -0.312563866376876831
-0.361855477094650269 0.310116440057754517 0.239949807524681091
-0.320794463157653809 0.10379008948802948 0.0224434752017259598
-0.447663277387619019 0.204008787870407104 -0.0401331335306167603
-0.377776205539703369 0.279102802276611328 -0.00703360093757510185
-0.0222139023244380951 -0.261159896850585938 0.144054964184761047
-0.592023253440856934 0.361253559589385986 0.0643978267908096313
0.36811181902885437 -0.373668551445007324 -0.212098196148872375
-0.123878136277198792 -0.0109571916982531548 0.00826165825128555298
0.397176474332809448 -0.353542149066925049 -0.217910975217819214
0.507964015007019043 -0.15973016619682312 0.12564559280872345
0.196005538105964661 0.124567389488220215 0.00688638584688305855
-0.0266435779631137848 0.166544854640960693 0.383322983980178833
-0.334057509899139404 -0.121457032859325409 0.100484579801559448
-0.325241267681121826 0.3026866614818573 -0.0364443808794021606
0.534669458866119385 -0.346998929977416992 0.0382120534777641296
0.525923669338226318 -0.332030117511749268 0.0348909907042980194
-0.595853090286254883 0.381898164749145508 0.113560840487480164
-0.0107697276398539543 -0.144543543457984924 -0.0265576224774122238
-0.235192865133285522 0.171784505248069763 -0.00135715084616094828
-0.485594868659973145 -0.0109541108831763268 0.177366822957992554
-0.278024792671203613 0.335875034332275391 0.0425168387591838837
0.514028847217559814 -0.349283993244171143 0.0974592044949531555
-0.448679685592651367 -0.0360963195562362671 0.117580652236938477
0.434994906187057495 -0.253535687923431396 0.332192599773406982
0.415486901998519897 -0.278658837080001831 0.327652394771575928
-0.468993395566940308 0.0341264083981513977 0.193740859627723694
0.502854585647583008 -0.339754879474639893 0.00834974367171525955
-0.481564223766326904 -0.00311581394635140896 0.177697539329528809
-0.377494364976882935 -0.107025168836116791 0.0930729582905769348
-0.501123547554016113 0.0219054296612739563 0.184480234980583191
0.361240118741989136 -0.287099868059158325 -0.141395553946495056
0.001920894137583673 -0.231738463044166565 0.0903436914086341858
-0.140086814761161804 0.264855653047561646 0.0887677595019340515
-0.129385381937026978 0.254179656505584717 0.0717693939805030823
0.313191771507263184 -0.293487668037414551 -0.130766674876213074
0.428830444812774658 -0.255777865648269653 0.330690711736679077
-0.615484356880187988 0.30639997124671936 0.392410844564437866
0.411327004432678223 -0.358122497797012329 -0.22598499059677124
0.505635976791381836 -0.346609294414520264 -0.319487601518630981
0.508328855037689209 -0.35264548659324646 -0.322199136018753052
0.524108946323394775 -0.298594951629638672 -0.31826058030128479
0.510289669036865234 -0.346954762935638428 -0.319814056158065796
0.270623743534088135 -0.169613450765609741 -0.0790994688868522644
0.134252697229385376 0.120094157755374908 0.329547762870788574
0.25242951512336731 -0.285354793071746826 0.328543007373809814
0.325108766555786133 -0.120475150644779205 0.311105489730834961
0.303066462278366089 -0.204699710011482239 0.251609355211257935
0.25069892406463623 -0.00401294557377696037 0.325557917356491089
0.507884204387664795 -0.343318760395050049 0.0880006551742553711
0.242351949214935303 0.0896785333752632141 0.310498535633087158
0.463453501462936401 -0.284188747406005859 -0.230732828378677368
-0.2621631920337677 0.313752472400665283 0.0461539290845394135
0.34475475549697876 -0.140230759978294373 0.329906374216079712
0.374459803104400635 -0.364025145769119263 -0.20829831063747406
0.338301628828048706 -0.129498928785324097 0.321153104305267334
0.527020812034606934 -0.347291290760040283 -0.323640376329421997
0.524786472320556641 -0.352148592472076416 -0.326196461915969849
0.480607539415359497 -0.372433483600616455 -0.312656193971633911
-0.360038608312606812 -0.0653334632515907288 0.0830913856625556946
-0.407547026872634888 0.0883785784244537354 -0.112936608493328094
0.0144836194813251495 0.0978642478585243225 0.217553362250328064
-0.378565549850463867 -0.0935068204998970032 -0.0281429886817932129
0.266122370958328247 0.0682964548468589783 -0.091279253363609314
-0.108029969036579132 -0.0154373450204730034 0.0463496670126914978
-0.358125865459442139 -0.0923484042286872864 0.0131251290440559387
-0.290371149778366089 0.30453801155090332 0.166868224740028381
-0.355564504861831665 -0.0738932713866233826 0.0408364944159984589
-0.598695993423461914 0.294334501028060913 0.186736062169075012
0.250053703784942627 0.0966476947069168091 -0.0337488800287246704
0.379741966724395752 -0.3550758957862854 -0.208967804908752441
0.470382153987884521 -0.324937582015991211 0.138434320688247681
0.465081602334976196 -0.271973222494125366 -0.092522643506526947
-0.439718753099441528 -0.0434112735092639923 0.0844119340181350708
-0.336327850818634033 -0.125138342380523682 0.127781331539154053
0.528901994228363037 -0.342078953981399536 0.051450047641992569
0.393427103757858276 0.0469924174249172211 0.134165704250335693
-0.185799762606620789 0.313856273889541626 0.108172550797462463
-0.441676169633865356 -0.0433141998946666718 0.117977730929851532
0.537915945053100586 -0.326320856809616089 -0.0552261583507061005
-0.35308384895324707 0.306133121252059937 0.1144556924700737
0.494730621576309204 -0.346279889345169067 0.0445396378636360168
-0.575672447681427002 0.304919838905334473 0.379554957151412964
0.431573957204818726 -0.281241863965988159 0.334138274192810059
-0.477734744548797607 0.00365729467011988163 0.164294883608818054
0.525537729263305664 -0.350026160478591919 -0.00214397208765149117
-0.0670322999358177185 -0.263306289911270142 0.298673003911972046
-0.512037217617034912 0.00421664165332913399 0.188215449452400208
0.390484273433685303 -0.360495239496231079 -0.215266093611717224
-0.118278905749320984 0.254157960414886475 0.06400347501039505
-0.500552594661712646 0.00462799984961748123 0.193405628204345703
0.427058279514312744 -0.274744391441345215 0.331073015928268433
-0.333607971668243408 0.103871159255504608 -0.118266724050045013
-0.105621680617332458 0.254015535116195679 0.0940187722444534302
0.511210203170776367 -0.341847091913223267 -0.319289714097976685
-0.612946152687072754 0.302362024784088135 0.396434009075164795
-0.509115993976593018 0.0362207591533660889 0.188745900988578796
-0.29108622670173645 -0.0894856452941894531 -0.0784299150109291077
0.510064840316772461 -0.345127075910568237 -0.320716530084609985
0.0722927302122116089 0.139103949069976807 0.0729822367429733276
0.246205970644950867 0.107004635035991669 0.321951061487197876
0.47372785210609436 -0.286948025226593018 -0.230264559388160706
0.305844336748123169 -0.315033942461013794 0.332124888896942139
0.512277305126190186 -0.350194811820983887 -0.321744471788406372
-0.315387427806854248 -0.0873326510190963745 -0.0340862758457660675
0.514887332916259766 -0.355899333953857422 -0.322713464498519897
-0.625334978103637695 0.180138766765594482 -0.0859706476330757141
-0.35360342264175415 -0.0561965629458427429 -0.143819704651832581
-0.331280380487442017 0.269307851791381836 -0.0548006147146224976
-0.177156433463096619 0.138658419251441956 0.00534081831574440002
0.545980632305145264 -0.217643991112709045 0.159644067287445068
0.0309918317943811417 0.102296836674213409 0.0658024102449417114
0.510338962078094482 -0.331060528755187988 -0.319085210561752319
0.586342990398406982 -0.325326412916183472 -0.319688290357589722
0.250296562910079956 -0.288671314716339111 0.318763136863708496
0.256173491477966309 -0.00331639871001243591 0.32849884033203125
0.302146196365356445 -0.282906502485275269 0.331654965877532959
-0.344229429960250854 -0.0911551043391227722 0.018155781552195549
-0.374440759420394897 -0.0903407782316207886 -0.0180973690003156662
-0.0650869980454444885 -0.273895800113677979 0.159623473882675171
-0.630601823329925537 0.275460541248321533 0.0761267021298408508
0.367198854684829712 -0.365851640701293945 -0.211873799562454224
-0.124211274087429047 -0.0294875651597976685 -0.00631265062838792801
-0.598711371421813965 0.342144429683685303 0.090729832649230957
0.444509565830230713 -0.249625757336616516 -0.285899460315704346
0.383248120546340942 -0.348322063684463501 -0.211733311414718628
0.31298375129699707 -0.372986555099487305 -0.155748307704925537
-0.179424390196800232 0.312498182058334351 0.100366078317165375
0.5356864333152771 -0.319508850574493408 -0.0320283770561218262
-0.655287086963653564 0.238182634115219116 0.0142450015991926193
-0.453139334917068481 -0.0542541220784187317 0.163424506783485413
0.500540673732757568 -0.34883543848991394 0.0717626363039016724
0.44111064076423645 -0.261181443929672241 0.334756612777709961
0.507817268371582031 -0.344044685363769531 0.0303041432052850723
0.265164643526077271 0.121431022882461548 0.0276580415666103363
0.40052950382232666 0.0323914997279644012 0.140329062938690186
-0.106234245002269745 0.252420157194137573 0.0730493143200874329
0.317235708236694336 -0.381011605262756348 -0.156626909971237183
-0.566781938076019287 0.295361846685409546 -0.0512106269598007202
0.390940159559249878 -0.363010406494140625 -0.220649421215057373
0.359702885150909424 0.0332994274795055389 0.0491118207573890686
0.195120558142662048 -0.365806460380554199 -0.0954883843660354614
0.39181816577911377 -0.355936229228973389 -0.216771632432937622
0.520204901695251465 -0.335357576608657837 -0.322236150503158569
0.523407280445098877 -0.333540916442871094 -0.32367745041847229
0.244886413216590881 0.0239005181938409805 0.32442706823348999
0.213007539510726929 -0.338976502418518066 0.318918526172637939
0.237693414092063904 0.105854861438274384 0.315522551536560059
0.522162854671478271 -0.337266087532043457 -0.32532799243927002
0.318735122680664062 -0.380122721195220947 -0.150778993964195251
0.584667980670928955 -0.318205982446670532 -0.33390730619430542
-0.381055712699890137 -0.0937800556421279907 -0.0176058318465948105
0.458882689476013184 -0.325771540403366089 0.125449612736701965
0.389601737260818481 0.0534161515533924103 0.132158145308494568
-0.173650994896888733 0.307099431753158569 0.106248714029788971
-0.462289243936538696 -0.0304288286715745926 0.134663507342338562
0.440248638391494751 -0.261765867471694946 0.335534423589706421
0.400947332382202148 0.0245860423892736435 0.128459692001342773
0.427929013967514038 -0.263915508985519409 0.332464218139648438
-0.509894788265228271 0.00393936922773718834 0.191006198525428772
-0.130916282534599304 0.253388732671737671 0.0819429084658622742
-0.283964395523071289 0.335591644048690796 0.0345870554447174072
0.455930739641189575 -0.259785056114196777 0.337061047554016113
-0.330831855535507202 0.097537800669670105 -0.117466993629932404
-0.508617520332336426 0.0357342883944511414 0.188703149557113647
0.25868147611618042 0.00726907653734087944 0.327994257211685181
0.446505516767501831 -0.256303936243057251 0.334246963262557983
0.236834585666656494 0.108862444758415222 0.309295475482940674
0.303056389093399048 -0.329526752233505249 0.334760397672653198
-0.320550143718719482 0.266717761754989624 -0.04668450728058815
-0.13321666419506073 -0.269012719392776489 -0.00468531018123030663
-0.377154022455215454 -0.0758381858468055725 0.0240626074373722076
-0.375768780708312988 -0.0638969540596008301 -0.159896329045295715
-0.49494972825050354 -0.0231044907122850418 0.173952549695968628
-0.527925729751586914 -0.00721636088564991951 0.186790451407432556
0.382670551538467407 -0.366808235645294189 -0.218837693333625793
0.389791339635848999 -0.330440610647201538 0.186965331435203552
-0.578091442584991455 0.29163825511932373 -0.0406958796083927155
0.242263525724411011 0.0882262960076332092 -0.0389710217714309692
0.375143617391586304 -0.351679444313049316 -0.209415599703788757
0.187819898128509521 0.107690460979938507 0.0023088487796485424
-0.341828525066375732 0.272813290357589722 -0.0516247749328613281
0.533027410507202148 -0.353956103324890137 0.0538253933191299438
-0.113620765507221222 0.185071215033531189 0.354880839586257935
-0.215748175978660583 0.313190847635269165 0.112375833094120026
0.470988661050796509 -0.305212199687957764 -0.235348984599113464
0.53699791431427002 -0.321106791496276855 -0.0258090179413557053
-0.266332298517227173 0.309800148010253906 0.0456651113927364349
0.279503345489501953 0.00818280316889286041 -0.026799054816365242
0.385060638189315796 -0.362389355897903442 -0.216552913188934326
0.0283078625798225403 -0.0958816483616828918 0.0191646479070186615
-0.416918635368347168 -0.0580280795693397522 0.133281826972961426
0.385786950588226318 -0.287811309099197388 -0.109189942479133606
0.382756173610687256 -0.363449424505233765 -0.219137772917747498
0.200333923101425171 -0.366709262132644653 -0.0957166999578475952
0.388218671083450317 -0.35433882474899292 -0.216188952326774597
0.512220919132232666 -0.337028264999389648 -0.319514870643615723
0.513529181480407715 -0.336790233850479126 -0.321697831153869629
0.233726426959037781 0.0340109802782535553 0.31927528977394104
0.24250560998916626 0.0888163298368453979 0.310366779565811157
0.363242387771606445 -0.283197194337844849 0.316582679748535156
0.530966341495513916 -0.346622705459594727 -0.329751193523406982
0.201182976365089417 -0.190764695405960083 -0.0713791027665138245
-0.19283352792263031 0.133308649063110352 0.00919274147599935532
0.321710526943206787 -0.374688118696212769 -0.158190101385116577
0.205068647861480713 -0.325978577136993408 0.316143125295639038
0.323416411876678467 -0.277851223945617676 0.317650020122528076
-0.49947020411491394 0.0158828627318143845 0.183859929442405701
0.348048418760299683 -0.273256391286849976 -0.131805732846260071
0.245446175336837769 0.0211788732558488846 0.322179049253463745
0.196016028523445129 -0.167694807052612305 -0.0673392266035079956
0.0380183234810829163 0.13135276734828949 0.105910003185272217
-0.455090731382369995 -0.0511534027755260468 0.155006185173988342
-0.140214681625366211 0.26908913254737854 0.0802623182535171509
0.540550708770751953 -0.226393699645996094 0.173295304179191589
0.236942008137702942 0.104230664670467377 0.30988776683807373
-0.452620953321456909 -0.0278532616794109344 0.124225161969661713
-0.509460687637329102 0.00101181690115481615 0.173473551869392395
0.236867517232894897 0.0834391266107559204 0.311132222414016724
-0.488045096397399902 -0.023321881890296936 0.177855074405670166
-0.520400285720825195 -0.00216511357575654984 0.186939224600791931
-0.0834254622459411621 0.0734888836741447449 0.0423843264579772949
0.368577033281326294 -0.02305569127202034 -0.0816210582852363586
-0.231878727674484253 0.0468155182898044586 -0.0683219283819198608
0.495540469884872437 -0.341331183910369873 -0.449512213468551636
-0.628168106079101562 0.291744589805603027 0.17566382884979248
-0.111312225461006165 0.153240054845809937 0.0496436059474945068
0.523338735103607178 -0.345038801431655884 -0.020505441352725029
-0.583456814289093018 0.374219655990600586 0.185225173830986023
-0.185866594314575195 0.3129597008228302 0.132057934999465942
0.0275652185082435608 -0.125539645552635193 -0.0343311801552772522
0.320820719003677368 0.0748192518949508667 -0.106889054179191589
-0.037251494824886322 0.156504109501838684 0.385739296674728394
0.477035731077194214 -0.308255285024642944 -0.226830586791038513
0.496718943119049072 -0.291258156299591064 -0.167383119463920593
0.450223445892333984 -0.255404353141784668 0.333377271890640259
0.507399082183837891 -0.359390169382095337 0.0423124805092811584
0.425972044467926025 -0.285861492156982422 0.330122202634811401
0.504517018795013428 -0.34774431586265564 0.0202217437326908112
0.400893926620483398 -0.344881713390350342 -0.215448662638664246
-0.490230768918991089 0.0468941777944564819 -0.0939015820622444153
-0.127987891435623169 0.260798752307891846 0.0791064798831939697
0.32699170708656311 -0.372947275638580322 -0.154653102159500122
0.320232272148132324 -0.293481141328811646 -0.131911411881446838
0.434207618236541748 -0.296243935823440552 0.333582282066345215
0.410238504409790039 -0.356385111808776855 -0.225519374012947083
0.224163934588432312 -0.336839258670806885 0.31822630763053894
0.240845292806625366 0.0880287140607833862 0.309644967317581177
0.369372069835662842 -0.322271376848220825 0.320569753646850586
0.521773993968963623 -0.358607888221740723 -0.325517445802688599
-0.260104000568389893 -0.146050304174423218 -0.0596590526401996613
0.527760982513427734 -0.3402099609375 0.0355646573007106781
-0.243651255965232849 0.0740652680397033691 0.00766952801495790482
0.19835171103477478 -0.336501896381378174 0.316364318132400513
0.467682421207427979 -0.274895995855331421 0.339385539293289185
-0.503071963787078857 0.00376841356046497822 0.1877545565366745
0.45325896143913269 -0.279741615056991577 0.333193153142929077
-0.456207931041717529 -0.0535745285451412201 0.162504702806472778
-0.503027200698852539 0.00306387431919574738 0.188744291663169861
-0.640802741050720215 0.297641575336456299 0.419451922178268433
0.541532516479492188 -0.216148227453231812 0.154036581516265869
-0.499268651008605957 0.00195928872562944889 0.188130199909210205
0.160782262682914734 -0.273306608200073242 -0.0720435157418251038
-0.338396996259689331 0.283995985984802246 0.126890569925308228
0.200321093201637268 -0.232142552733421326 -0.00383269833400845528
-0.34905657172203064 -0.0812211111187934875 -0.0460523739457130432
-0.349700659513473511 0.291168421506881714 0.202584922313690186
-0.364534884691238403 -0.0985724106431007385 -0.0308895055204629898
0.371975094079971313 -0.375719159841537476 -0.215338557958602905
-0.576736629009246826 0.308187097311019897 -0.051026027649641037
-0.139259859919548035 -0.0329951681196689606 -0.0185694508254528046
0.386600494384765625 -0.342944741249084473 -0.214002728462219238
-0.585145831108093262 0.372802317142486572 0.185202345252037048
-0.181008964776992798 -0.115891218185424805 -0.0527190528810024261
-0.44578629732131958 -0.046622786670923233 0.0957992896437644958
-0.343275755643844604 -0.118346564471721649 0.102526932954788208
-0.188752666115760803 0.302666962146759033 0.0972860902547836304
0.409449338912963867 -0.356143057346343994 -0.224115923047065735
-0.279648005962371826 0.336802452802658081 0.0431401766836643219
0.475344747304916382 -0.311192721128463745 -0.230232030153274536
0.515297353267669678 -0.354854583740234375 0.0552619397640228271
0.501277148723602295 -0.362353116273880005 0.077123492956161499
-0.197608113288879395 -0.242523863911628723 -0.0305231455713510513
-0.479366779327392578 -0.00226093851961195469 0.166816383600234985
0.535021781921386719 -0.350998729467391968 0.0664482861757278442
0.390312492847442627 -0.350488871335983276 -0.213361606001853943
0.458442658185958862 -0.30197751522064209 -0.222749486565589905
0.351543247699737549 -0.27714112401008606 -0.102376945316791534
-0.0865867510437965393 -0.142123952507972717 -0.0336448177695274353
0.0181897915899753571 -0.136871248483657837 -0.0234499797224998474
0.206302285194396973 -0.345583230257034302 -0.0868892446160316467
0.458519607782363892 0.0435581356287002563 0.178668215870857239
0.449310719966888428 0.066336706280708313 0.193601161241531372
0.350047200918197632 -0.344941645860671997 0.321375042200088501
0.207074627280235291 -0.357611596584320068 -0.0926452279090881348
-0.385807275772094727 -0.0949583649635314941 0.0599336698651313782
0.437647640705108643 -0.281760960817337036 0.334825962781906128
-0.497525781393051147 0.0156453810632228851 0.169656485319137573
0.37501111626625061 -0.303872674703598022 -0.145540878176689148
0.442847758531570435 -0.277970850467681885 0.334193795919418335
-0.447363108396530151 -0.0404520034790039062 0.12493211030960083
-0.5023651123046875 0.0142068853601813316 0.180661872029304504
-0.387785017490386963 -0.0786028355360031128 -0.169986099004745483
-0.485290557146072388 -0.0214791726320981979 0.176497563719749451
-0.232906103134155273 0.0242405198514461517 -0.0588962994515895844
-0.0956993475556373596 0.210526660084724426 0.372505724430084229
0.433933079242706299 -0.257460445165634155 0.331466853618621826
0.381457269191741943 -0.134911969304084778 0.332105875015258789
0.454292804002761841 -0.269556194543838501 0.338644951581954956
-0.355407446622848511 -0.0651813298463821411 -0.0052777482196688652
-0.384197920560836792 0.0151760773733258247 -0.20441184937953949
-0.130371034145355225 -0.0803675279021263123 0.0830375775694847107
-0.58264458179473877 0.327491044998168945 0.0139645170420408249
-0.0123938247561454773 -0.231234312057495117 0.0824448615312576294
-0.454055219888687134 0.125939786434173584 -0.0539257228374481201
0.205754116177558899 -0.219108045101165771 0.0605125650763511658
-0.10022919625043869 -0.135855585336685181 0.119406886398792267
-0.584168672561645508 0.305465757846832275 -0.0474625527858734131
-0.337337851524353027 0.0172309502959251404 0.0195504762232303619
-0.449416935443878174 0.134055599570274353 -0.0533808507025241852
0.174664556980133057 -0.273040652275085449 -0.00312375393696129322
-0.565524697303771973 0.334597855806350708 -0.000774818705394864082
0.526577174663543701 -0.0554644949734210968 -0.309348165988922119
0.398007601499557495 -0.367659568786621094 -0.216852366924285889
-0.656427145004272461 0.171228587627410889 -0.112450562417507172
-0.440505772829055786 -0.0644863247871398926 0.129055067896842957
0.526423215866088867 -0.36117205023765564 0.0422184430062770844
0.541677355766296387 -0.311128824949264526 -0.0439719446003437042
-0.175839513540267944 0.308975398540496826 0.118713676929473877
-0.278179436922073364 0.337703526020050049 0.0472283624112606049
0.47648388147354126 -0.315698176622390747 -0.239202231168746948
-0.665215969085693359 0.227030470967292786 0.0231639649718999863
0.503377079963684082 -0.302295982837677002 -0.178524374961853027
-0.158309131860733032 -0.263923943042755127 0.182469606399536133
-0.476810812950134277 -0.00860014744102954865 0.166437059640884399
0.00999224185943603516 0.197420269250869751 0.0279941484332084656
0.315391659736633301 -0.302479803562164307 -0.126380681991577148
0.1868600994348526 -0.142618343234062195 -0.105295397341251373
0.253823578357696533 -0.00799683760851621628 0.328006535768508911
0.525864064693450928 -0.363521873950958252 -0.322728276252746582
0.393436849117279053 0.0469428673386573792 0.13417680561542511
-0.512037575244903564 0.00421617133542895317 0.188216686248779297
-0.1182437464594841 0.254152387380599976 0.0640032514929771423
-0.612917780876159668 0.302364140748977661 0.39642643928527832
0.246570438146591187 0.107001535594463348 0.324685454368591309
-0.454689592123031616 -0.0542213954031467438 0.163169056177139282
0.238935425877571106 0.105996876955032349 0.316635787487030029
-0.510527372360229492 0.00343464245088398457 0.191874846816062927
-0.494949966669082642 -0.0231069363653659821 0.173951894044876099
0.495543628931045532 -0.341342836618423462 -0.449521094560623169
-0.0372516848146915436 0.156504184007644653 0.385738998651504517
0.467639535665512085 -0.274914294481277466 0.339429020881652832
-0.640788912773132324 0.297637969255447388 0.419474989175796509
-0.197702571749687195 -0.242510616779327393 -0.0302719045430421829
0.350030094385147095 -0.344946414232254028 0.321359634399414062
-0.387492090463638306 -0.0785262435674667358 -0.169989943504333496
-0.0951823517680168152 0.210541456937789917 0.372258692979812622
0.381468832492828369 -0.13492196798324585 0.332303792238235474
