ply
format ascii 1.0
element vertex 738
property float x
property float y
property float z
end_header
0.534292817115783691 -0.192088961601257324 0.028546435758471489
-0.616501271724700928 0.210904151201248169 -0.0559039302170276642
0.452253818511962891 -0.123290814459323883 0.0892061218619346619
0.0331313535571098328 -0.279126346111297607 -0.035799223929643631
0.401588141918182373 -0.318506330251693726 0.130821496248245239
-0.0941189154982566833 0.074496246874332428 0.293242365121841431
0.242818206548690796 -0.136421725153923035 0.0110077792778611183
0.160919815301895142 -0.271147072315216064 0.0438463278114795685
-0.590819299221038818 0.369606375694274902 0.0904901102185249329
0.0266803596168756485 -0.0112814018502831459 0.0279127303510904312
0.195483759045600891 0.0344399139285087585 0.178055986762046814
-0.3064289391040802 -0.0909765511751174927 0.3056010901927948
0.493318676948547363 -0.366580158472061157 0.0197370927780866623
0.521247386932373047 -0.311131268739700317 0.0459434576332569122
0.502327919006347656 -0.153179273009300232 0.118829354643821716
0.0803645849227905273 -0.271666735410690308 -0.0595349632203578949
-0.32580074667930603 -0.102781675755977631 0.0885788425803184509
-0.586459100246429443 0.335258692502975464 0.0188314616680145264
-0.0742163583636283875 -0.235337600111961365 0.30168759822845459
0.19385780394077301 -0.339543730020523071 -0.0623731128871440887
-0.399187028408050537 0.272541224956512451 -0.0544247515499591827
-0.522080302238464355 0.0445527173578739166 -0.0575026944279670715
-0.258103698492050171 0.142729923129081726 0.0914341956377029419
-0.213981151580810547 -0.135339781641960144 -0.0631576403975486755
0.508225142955780029 -0.104344084858894348 0.144143477082252502
0.213679775595664978 -0.279289215803146362 -0.00934556685388088226
0.237784042954444885 -0.0756593570113182068 0.126779109239578247
-0.14066644012928009 0.297047525644302368 0.147926405072212219
-0.656306207180023193 0.171855926513671875 -0.112253516912460327
0.253036051988601685 -0.00902656279504299164 0.249845355749130249
0.249914005398750305 -0.178431108593940735 0.302618920803070068
-0.263492077589035034 -0.136595502495765686 -0.0675358176231384277
-0.201056286692619324 0.314864307641983032 0.0990877225995063782
0.257422924041748047 -0.277673065662384033 0.322954267263412476
0.178440511226654053 -0.0536708235740661621 -0.0510748811066150665
-0.443617671728134155 -0.0662103742361068726 0.129297792911529541
-0.504042446613311768 0.0305303465574979782 0.247393220663070679
-0.497355490922927856 0.0369464419782161713 -0.0114454831928014755
0.23237687349319458 0.0232738535851240158 0.313952714204788208
-0.371708661317825317 -0.04529586061835289 0.143556013703346252
-0.349220782518386841 0.107058823108673096 0.0661633536219596863
0.307228118181228638 -0.198407277464866638 0.24281647801399231
0.308088868856430054 -0.00510232942178845406 0.219445154070854187
-0.443073898553848267 0.267057061195373535 -0.0370468571782112122
0.516710221767425537 -0.326282232999801636 -0.0813803225755691528
-0.539081811904907227 0.138872712850570679 -0.0969507470726966858
0.465412378311157227 -0.124099291861057281 0.00184531102422624826
-0.385618090629577637 0.255839288234710693 0.0329747386276721954
0.493552654981613159 -0.301588118076324463 0.121015094220638275
0.464972436428070068 -0.105828799307346344 0.0594383254647254944
0.203367307782173157 0.0155942933633923531 -0.0423174537718296051
-0.224802091717720032 0.296264141798019409 0.158840984106063843
-0.125506743788719177 -0.0485273636877536774 0.0109740560874342918
-0.231924518942832947 0.228922873735427856 0.348304599523544312
-0.3810996413230896 -0.0538585074245929718 0.145673424005508423
0.34084358811378479 -0.0733886510133743286 0.0475691258907318115
-0.436257690191268921 -0.0117782745510339737 0.0342830605804920197
0.205050855875015259 0.017051374539732933 0.0703205540776252747
0.0558942295610904694 -0.085493430495262146 0.239297777414321899
-0.384197860956192017 -0.0590499378740787506 0.11678566038608551
-0.13720269501209259 -0.264402806758880615 -0.00107122771441936493
-0.243996575474739075 0.0640641972422599792 0.244971394538879395
-0.542307674884796143 0.211325675249099731 0.163025066256523132
-0.590952932834625244 0.287577301263809204 -0.00700460793450474739
0.306630462408065796 0.0180154945701360703 0.0427614487707614899
0.478056967258453369 -0.314528763294219971 -0.305391520261764526
0.503352999687194824 -0.345234841108322144 -0.0637899637222290039
0.471282869577407837 -0.304801672697067261 0.115028895437717438
0.526730775833129883 -0.302610129117965698 -0.109375089406967163
-0.403073966503143311 0.311995953321456909 0.134959951043128967
0.517525076866149902 -0.251033246517181396 -0.307387083768844604
0.507183194160461426 -0.328813254833221436 -0.314739435911178589
0.518467485904693604 -0.331026583909988403 0.0915873199701309204
0.47694280743598938 -0.303999632596969604 -0.303033113479614258
0.527193069458007812 -0.285350203514099121 -0.107994824647903442
-0.560080766677856445 0.267679184675216675 0.365890741348266602
-0.640328109264373779 0.289983063936233521 0.0854776352643966675
0.370931178331375122 -0.40087619423866272 -0.217505693435668945
-0.449993044137954712 -0.000556870189029723406 0.175348296761512756
0.176123395562171936 0.0733832567930221558 0.00658074673265218735
-0.453856140375137329 0.135093316435813904 -0.213426858186721802
0.402734905481338501 -0.335514813661575317 0.128965064883232117
-0.599114596843719482 0.207797020673751831 0.00108707882463932037
0.247155457735061646 -0.11415061354637146 -0.0708487555384635925
-0.483441650867462158 0.183134451508522034 -0.209831640124320984
-0.376380562782287598 -0.0625992938876152039 0.0919167473912239075
0.522566497325897217 -0.320632427930831909 0.0358790680766105652
0.542093753814697266 -0.217049941420555115 0.108238033950328827
0.525392830371856689 -0.273194402456283569 0.0553060844540596008
0.110952213406562805 0.0845532864332199097 0.317287564277648926
-0.351160109043121338 -0.0474099814891815186 0.0452084168791770935
0.104859180748462677 0.0727011561393737793 0.29552730917930603
-0.165511086583137512 0.133536040782928467 0.151478216052055359
0.502410590648651123 -0.256183803081512451 -0.102480888366699219
0.428580641746520996 -0.303502202033996582 0.135932251811027527
-0.355949133634567261 -0.100928246974945068 0.159258350729942322
0.498280584812164307 -0.201320290565490723 -0.107960641384124756
-0.578571856021881104 0.348506510257720947 0.152456223964691162
0.104717090725898743 -0.0110736405476927757 0.0211796388030052185
-0.341468870639801025 -0.122872725129127502 0.104802682995796204
-0.121018543839454651 -0.275166600942611694 0.174194514751434326
-0.161300718784332275 0.167803555727005005 0.325317740440368652
0.514663934707641602 -0.358267784118652344 0.0268163029104471207
0.520716249942779541 -0.287257492542266846 -0.0116748865693807602
0.478584527969360352 -0.139605075120925903 0.107598401606082916
-0.181125208735466003 0.0297820903360843658 0.026040172204375267
-0.342184454202651978 -0.12109375 0.103946104645729065
-0.600265324115753174 0.37720903754234314 0.188719481229782104
-0.119990065693855286 -0.266283750534057617 0.218439534306526184
0.52311098575592041 -0.308518946170806885 -0.0747712254524230957
0.515970289707183838 -0.251847505569458008 -0.309510380029678345
0.454588353633880615 -0.307946175336837769 -0.294447779655456543
0.240294545888900757 -0.0955415889620780945 0.158647671341896057
-0.620313346385955811 0.272657722234725952 0.0374809689819812775
-0.43007582426071167 -0.00329631427302956581 0.177577987313270569
-0.250700652599334717 -0.136370390653610229 -0.070923149585723877
0.316949933767318726 -0.318594038486480713 0.122569367289543152
0.539015293121337891 -0.249370291829109192 0.106628917157649994
0.452405631542205811 -0.139427170157432556 0.0154002849012613297
0.429010510444641113 -0.320655792951583862 0.12372230738401413
0.412890166044235229 -0.330502182245254517 -0.20978081226348877
0.473525464534759521 -0.128180772066116333 0.109480582177639008
-0.54901808500289917 0.379023641347885132 0.172930493950843811
0.190124601125717163 -0.33938068151473999 -0.0132597852498292923
-0.201998040080070496 -0.134899869561195374 -0.068285726010799408
-0.185690641403198242 0.31258469820022583 0.118076317012310028
0.103094145655632019 0.108241856098175049 0.174505487084388733
-0.444473862648010254 -0.0537797324359416962 0.0921131372451782227
-0.489502370357513428 0.0305860582739114761 0.0171393696218729019
0.231146499514579773 0.0114766685292124748 0.315030694007873535
-0.0248850174248218536 0.113708138465881348 0.312576800584793091
0.242970123887062073 -0.0381706468760967255 0.204667732119560242
-0.38496708869934082 0.245857268571853638 0.0345640368759632111
-0.654166102409362793 0.217153564095497131 -0.0389376506209373474
0.482701599597930908 -0.115874461829662323 0.0234156884253025055
0.121935032308101654 0.0800156891345977783 0.138608619570732117
-0.382084906101226807 -0.0720320865511894226 0.095867544412612915
0.319378525018692017 -0.0719409659504890442 0.0624019615352153778
-0.440805524587631226 -0.0111090280115604401 0.00713308760896325111
-0.502301335334777832 0.234164237976074219 -0.0708123147487640381
-0.547356665134429932 0.203908443450927734 -0.0682118013501167297
0.0883301645517349243 0.0922047272324562073 0.0800917521119117737
-0.519987046718597412 0.205029413104057312 -0.0468652211129665375
-0.168380588293075562 0.0729458853602409363 0.232665017247200012
-0.0576444528996944427 -0.186304837465286255 0.0269535630941390991
-0.212633430957794189 0.291291028261184692 0.109334580600261688
0.249333634972572327 -0.00497516850009560585 0.0223593134433031082
-0.555848896503448486 0.204844966530799866 0.118682026863098145
-0.457423776388168335 0.216950774192810059 0.0248302612453699112
-0.462716430425643921 0.266977369785308838 -0.00241679907776415348
-0.575541496276855469 0.2480306476354599 -0.0761293768882751465
-0.389494389295578003 0.275637418031692505 -0.083855949342250824
0.343519270420074463 -0.134247422218322754 0.318826019763946533
-0.49870145320892334 0.207331150770187378 -0.0113089550286531448
-0.346127718687057495 0.293336153030395508 -0.0498875603079795837
0.525670468807220459 -0.360692441463470459 0.0417209230363368988
-0.540000259876251221 0.21562272310256958 0.201393425464630127
-0.569369137287139893 0.294807076454162598 -0.00280689448118209839
0.316310793161392212 0.0241378117352724075 0.0487429797649383545
0.481679171323776245 -0.306674569845199585 -0.303700834512710571
0.479389995336532593 -0.325923413038253784 0.125311896204948425
0.522877633571624756 -0.306660056114196777 -0.098763197660446167
0.490035891532897949 -0.310443222522735596 -0.307458698749542236
0.515919864177703857 -0.324652910232543945 0.119778431951999664
0.444191515445709229 -0.299863964319229126 -0.290688157081604004
0.522895336151123047 -0.304210841655731201 -0.0974265038967132568
0.134047448635101318 0.116854637861251831 0.337127178907394409
-0.642497360706329346 0.24301522970199585 -0.00912075303494930267
-0.29288831353187561 -0.11334962397813797 -0.105484806001186371
0.538949131965637207 -0.255111157894134521 0.0921282097697257996
0.128899514675140381 0.0980717316269874573 0.317402064800262451
-0.235506847500801086 -0.143013447523117065 -0.0711611807346343994
0.252127975225448608 0.0304593965411186218 -0.0859500020742416382
0.530650496482849121 -0.322782903909683228 0.00676982337608933449
-0.59942328929901123 0.307774364948272705 0.104838825762271881
0.531803727149963379 -0.244284316897392273 0.0864783227443695068
-0.374265730381011963 -0.0602959208190441132 0.0925757661461830139
0.526247859001159668 -0.274979293346405029 -0.12330763041973114
-0.501238226890563965 0.149225130677223206 0.353326201438903809
0.384826034307479858 -0.297241270542144775 0.13178369402885437
0.132320776581764221 -0.33153843879699707 -0.100379467010498047
0.522439956665039062 -0.354509890079498291 -0.014990808442234993
-0.436644554138183594 0.151012927293777466 -0.0847340822219848633
0.51545792818069458 -0.299737662076950073 0.0646397992968559265
0.392700880765914917 -0.367541134357452393 -0.213728204369544983
0.500246763229370117 -0.171078085899353027 0.129963278770446777
0.532922089099884033 -0.333648204803466797 0.0283294115215539932
-0.580007731914520264 0.349271565675735474 0.0406334847211837769
0.51965487003326416 -0.240606695413589478 -0.308755218982696533
-0.601091563701629639 0.371041834354400635 0.105008922517299652
-0.500739693641662598 0.147596344351768494 0.355530112981796265
0.233698368072509766 -0.277446508407592773 0.31735655665397644
-0.181645959615707397 -0.136523917317390442 -0.0554522387683391571
-0.228666186332702637 -0.137471437454223633 -0.0533309206366539001
-0.204436153173446655 0.298892736434936523 0.126917541027069092
0.262253671884536743 -0.28926888108253479 0.323639750480651855
-0.362474292516708374 -0.029997069388628006 0.119790270924568176
-0.500277578830718994 0.0199248678982257843 0.0321770794689655304
0.242628186941146851 0.000548826705198734999 0.322267413139343262
0.141074210405349731 -0.289993733167648315 0.311732321977615356
0.307806104421615601 -0.207123830914497375 0.248153701424598694
-0.386275947093963623 0.25537949800491333 0.0346198640763759613
0.53081899881362915 -0.261897951364517212 0.10285455733537674
0.22384469211101532 0.0232016947120428085 0.305432498455047607
0.530283808708190918 -0.147077843546867371 -0.308297604322433472
-0.645019054412841797 0.23179703950881958 -0.0471705682575702667
0.540957927703857422 -0.310591250658035278 -0.0445061028003692627
0.507483005523681641 -0.267425864934921265 -0.311533123254776001
0.513962328433990479 -0.315771281719207764 -0.295120716094970703
0.458491653203964233 -0.290545672178268433 -0.296623468399047852
-0.543282210826873779 0.268587261438369751 -0.189048409461975098
-0.621542274951934814 0.289406865835189819 0.0670056045055389404
0.36305728554725647 -0.383865147829055786 -0.206139206886291504
-0.092645011842250824 0.267776906490325928 0.189498201012611389
-0.448671609163284302 0.131811261177062988 -0.208532899618148804
-0.575619280338287354 0.20424206554889679 -0.126791536808013916
-0.630228877067565918 0.192164003849029541 -0.0396006107330322266
-0.469974547624588013 0.139446616172790527 -0.230833470821380615
0.257339894771575928 -0.0166214779019355774 -0.0721419528126716614
0.230230718851089478 0.0543289519846439362 -0.0452094338834285736
0.112854540348052979 0.1102861687541008 0.301676064729690552
-0.584295749664306641 0.218839496374130249 -0.221162796020507812
-0.598356544971466064 0.23569895327091217 -0.0104683637619018555
-0.367231190204620361 -0.0911645814776420593 0.123040355741977692
-0.33023110032081604 -0.124796852469444275 0.137468814849853516
-0.634757637977600098 0.200079753994941711 -0.0380159318447113037
-0.425887644290924072 -0.054346233606338501 0.0994687527418136597
-0.478276342153549194 0.0206888709217309952 -0.0362839885056018829
0.208425447344779968 0.00908180698752403259 0.300814002752304077
-0.634324550628662109 0.248545348644256592 -0.00569159211590886116
-0.128223404288291931 0.270432174205780029 0.132381170988082886
0.270728111267089844 -0.329824239015579224 0.180067241191864014
0.532732486724853516 -0.209738254547119141 -0.0989456847310066223
-0.126798644661903381 -0.112096987664699554 -0.0546884313225746155
0.453787684440612793 -0.338511407375335693 -0.298134744167327881
-0.212885081768035889 0.0368039906024932861 -0.0595459640026092529
-0.553345382213592529 0.176290765404701233 0.01308427844196558
-0.198758423328399658 0.140213146805763245 0.0212742257863283157
-0.0129001820459961891 -0.101967766880989075 -0.0428809411823749542
0.264419406652450562 -0.274430423974990845 0.202411487698554993
0.348302751779556274 -0.320650368928909302 -9.97007882688194513e-05
-0.156201034784317017 0.0703745856881141663 0.02764865942299366
-0.249446660280227661 0.131379023194313049 -0.0342911034822463989
0.198820695281028748 0.00218445924110710621 0.0190382078289985657
0.0760801658034324646 0.0814259424805641174 0.0239648520946502686
-0.283642768859863281 0.288866162300109863 -0.00575778679922223091
0.476575732231140137 -0.289435476064682007 -0.301784425973892212
-0.557032406330108643 0.266259878873825073 -0.0169541314244270325
-0.237643375992774963 0.0982249602675437927 -0.0323106572031974792
0.137507081031799316 -0.280315548181533813 0.150078848004341125
0.296002060174942017 -0.296904534101486206 0.0568701960146427155
-0.286247342824935913 0.257843047380447388 0.000729120220057666302
-0.0213670209050178528 -0.0397771038115024567 0.0890570506453514099
0.204223066568374634 0.0432819090783596039 0.0656594857573509216
-0.14402104914188385 -0.0845956951379776001 0.0918195843696594238
0.37220233678817749 -0.0729134827852249146 0.0314603857696056366
0.521032810211181641 -0.198675602674484253 -0.0986410155892372131
0.486722171306610107 -0.297435581684112549 -0.305435866117477417
0.480114132165908813 -0.31438329815864563 0.12220628559589386
0.513250946998596191 -0.306771516799926758 -0.10251317173242569
0.495646864175796509 -0.309066742658615112 -0.309798836708068848
0.505819261074066162 -0.327390521764755249 -0.00423351582139730453
0.511419534683227539 -0.324088543653488159 0.118241578340530396
0.465499818325042725 -0.288335233926773071 -0.296641379594802856
0.437601685523986816 -0.263009995222091675 -0.194390624761581421
0.13485504686832428 0.117501683533191681 0.337042659521102905
0.396265208721160889 -0.243873834609985352 0.318664401769638062
-0.601773440837860107 0.354804784059524536 0.0658811852335929871
-0.50535273551940918 0.357746005058288574 0.178635567426681519
0.542322933673858643 -0.282064139842987061 0.0978006869554519653
0.25607791543006897 0.0374211929738521576 -0.0721524208784103394
-0.233444064855575562 0.156577542424201965 -0.0051488485187292099
0.505809247493743896 -0.331557780504226685 -0.00265572941862046719
0.444410353899002075 -0.249602079391479492 -0.228109240531921387
-0.639317750930786133 0.255033403635025024 0.0548856817185878754
0.532295942306518555 -0.262234151363372803 0.0931143313646316528
-0.393438041210174561 -0.0586700886487960815 0.100642137229442596
0.523559808731079102 -0.289235204458236694 -0.0922120064496994019
0.027566421777009964 -0.273609042167663574 -0.0352601632475852966
0.384785622358322144 -0.305578678846359253 0.118708692491054535
-0.582442581653594971 0.367358863353729248 0.132069617509841919
0.23989550769329071 0.00349096022546291351 0.181060001254081726
-0.113274216651916504 0.166108772158622742 0.347636282444000244
0.481813192367553711 -0.367929667234420776 -0.0221757944673299789
0.411816328763961792 -0.320744872093200684 -0.211117476224899292
0.506974101066589355 -0.155043080449104309 0.123877145349979401
0.528470039367675781 -0.334283679723739624 0.0127021688967943192
-0.58441084623336792 0.336953133344650269 0.0344544351100921631
-0.591017782688140869 0.38245275616645813 0.131628692150115967
0.525949537754058838 -0.243965774774551392 -0.310728490352630615
0.474043786525726318 -0.290356814861297607 -0.299537509679794312
-0.59747999906539917 0.354238122701644897 0.170026540756225586
-0.587607681751251221 0.371986746788024902 0.101483248174190521
-0.212485283613204956 -0.128985032439231873 -0.0575629062950611115
0.234026163816452026 -0.292543411254882812 0.314925551414489746
0.237755477428436279 0.06769552081823349 0.320021480321884155
0.541511714458465576 -0.313432514667510986 -0.0582258030772209167
-0.445015996694564819 -0.0478070005774497986 0.127311035990715027
0.359096318483352661 -0.387941092252731323 -0.209081247448921204
-0.55689549446105957 0.211712941527366638 -0.113363243639469147
0.520457684993743896 -0.279152035713195801 -0.177219375967979431
0.241607636213302612 0.035334613174200058 0.314495980739593506
0.242393955588340759 0.00101386266760528088 0.0235915444791316986
0.380348473787307739 0.0393971763551235199 0.0117797469720244408
0.526423215866088867 -0.230263844132423401 -0.310237735509872437
0.326653540134429932 0.0967605859041213989 -0.0360205955803394318
-0.374640464782714844 -0.0596831366419792175 -0.132697075605392456
0.512600898742675781 -0.16704326868057251 0.135771840810775757
-0.574782431125640869 0.322562336921691895 0.0498219728469848633
-0.559260964393615723 0.283991158008575439 0.364434629678726196
0.224053949117660522 0.0325371511280536652 -0.05825849249958992
-0.57468336820602417 0.215159684419631958 -0.220799937844276428
-0.0446366667747497559 0.157233446836471558 0.0812809988856315613
0.113728515803813934 0.110695593059062958 0.02544386126101017
0.342316746711730957 -0.246514081954956055 -0.0969707444310188293
-0.285427302122116089 0.30106043815612793 -0.00264009018428623676
0.152907192707061768 -0.00376899447292089462 -0.0035941216628998518
0.0687099844217300415 0.139492526650428772 0.0756808668375015259
-0.27042052149772644 0.280815362930297852 0.00187414209358394146
0.502988517284393311 -0.29219740629196167 -0.159460306167602539
0.136570200324058533 -0.0251922346651554108 0.0131019055843353271
-0.339417427778244019 -0.0313794128596782684 0.0229889415204524994
0.37301403284072876 -0.0913079828023910522 0.0441739186644554138
0.199563905596733093 0.101878464221954346 -0.0018803989514708519
-0.29766082763671875 -0.0244086161255836487 0.0361051857471466064
0.131367877125740051 -0.0171899162232875824 -0.0261020753532648087
0.101012900471687317 0.0167023483663797379 0.0912234112620353699
0.175324276089668274 0.119994841516017914 0.0379928350448608398
-0.230898007750511169 -0.063048534095287323 0.104792565107345581
0.485705822706222534 -0.296298503875732422 -0.303665280342102051
-0.603452444076538086 0.290058046579360962 0.185473397374153137
0.466832011938095093 -0.308259665966033936 0.119963072240352631
0.377891421318054199 -0.0139232734218239784 0.00626624887809157372
0.514002084732055664 -0.294905364513397217 -0.103606969118118286
0.518487691879272461 -0.239354595541954041 -0.307737529277801514
0.477535009384155273 -0.309363871812820435 -0.30041775107383728
0.483011990785598755 -0.274148881435394287 -0.300052523612976074
0.116903439164161682 0.119409017264842987 0.297620207071304321
-0.584475874900817871 0.356875300407409668 0.0661018416285514832
0.383333593606948853 -0.336870133876800537 0.125404238700866699
-0.574778318405151367 0.318217486143112183 -0.0262845419347286224
-0.604772031307220459 0.217661365866661072 -0.086652018129825592
0.267348349094390869 0.0398126617074012756 -0.0863538831472396851
-0.356813520193099976 -0.0215866100043058395 -0.130994603037834167
-0.564582884311676025 0.314854353666305542 -0.00763867609202861786
0.190179139375686646 -0.34032091498374939 -0.0748061314225196838
0.403734087944030762 -0.3572368323802948 -0.2241649329662323
-0.500488638877868652 0.146180421113967896 0.3548736572265625
0.50927579402923584 -0.151005178689956665 0.114848621189594269
0.496482819318771362 -0.263557165861129761 -0.304531961679458618
0.457581400871276855 -0.280506670475006104 -0.289890468120574951
0.440538913011550903 -0.264582961797714233 -0.283844023942947388
-0.588293731212615967 0.357977837324142456 0.0620145797729492188
0.504884600639343262 -0.126320302486419678 0.124266758561134338
-0.206539645791053772 0.313050717115402222 0.108903221786022186
0.267841845750808716 -0.283581405878067017 0.319096386432647705
0.23222564160823822 0.00409369822591543198 0.317796200513839722
0.512903213500976562 -0.175292223691940308 -0.281914651393890381
-0.115623615682125092 0.0104987872764468193 0.00597809161990880966
0.403465420007705688 -0.359265834093093872 -0.224788099527359009
0.417235672473907471 -0.312805116176605225 0.143651962280273438
-0.555735111236572266 0.37701764702796936 0.187104001641273499
-0.175956606864929199 0.309720814228057861 0.118571974337100983
-0.390090793371200562 0.276609331369400024 -0.0848566219210624695
0.364913821220397949 0.0523398406803607941 0.0244892891496419907
0.128877952694892883 0.116296112537384033 0.318842619657516479
-0.286940664052963257 -0.100011497735977173 -0.0919550508260726929
0.257756710052490234 0.101448625326156616 -0.06212601438164711
-0.361657947301864624 -0.0592423640191555023 -0.143966048955917358
0.133832678198814392 0.114253170788288116 0.337786197662353516
-0.563455164432525635 0.199820205569267273 -0.228781715035438538
-0.276753216981887817 0.288591772317886353 -0.000757057976443320513
0.454503685235977173 -0.246075257658958435 -0.288435310125350952
0.459847033023834229 -0.275038182735443115 -0.290958166122436523
-0.635112106800079346 0.308672577142715454 0.170680195093154907
0.512127518653869629 -0.317059874534606934 -0.0387020260095596313
0.468558400869369507 -0.265437662601470947 -0.298086255788803101
0.477772384881973267 -0.29465794563293457 -0.300360560417175293
0.457762390375137329 -0.245859399437904358 -0.29000699520111084
0.380688786506652832 -0.360596269369125366 -0.213975265622138977
-0.479691386222839355 -0.0119694899767637253 0.186082944273948669
-0.516724228858947754 0.366313010454177856 0.174340337514877319
-0.618855059146881104 0.202550336718559265 -0.0869143232703208923
-0.237683415412902832 0.0194001719355583191 -0.0724358856678009033
-0.38292887806892395 -0.0584477633237838745 0.0238921027630567551
0.474495440721511841 -0.36791682243347168 0.0216921344399452209
-0.649543583393096924 0.237273260951042175 0.0325074680149555206
0.412165552377700806 -0.346335113048553467 -0.221764013171195984
0.525725126266479492 -0.336716264486312866 0.0799492150545120239
0.505677223205566406 -0.238655298948287964 -0.308199584484100342
0.249196261167526245 -0.281758576631546021 0.318159639835357666
0.238909155130386353 0.0671257674694061279 0.314565569162368774
0.539228498935699463 -0.301435083150863647 -0.0937847569584846497
-0.448168843984603882 -0.0408095903694629669 0.126745790243148804
-0.0441364087164402008 0.10508187860250473 0.317866384983062744
0.247661903500556946 0.0215740855783224106 0.322121769189834595
-0.285264849662780762 -0.0991457775235176086 -0.0989716723561286926
-0.138156458735466003 -0.0145156579092144966 -0.0487320683896541595
-0.278183281421661377 0.338439047336578369 0.0471717305481433868
-0.255042672157287598 0.290481209754943848 -0.00308819790370762348
-0.219211682677268982 0.322464138269424438 0.0700012519955635071
-0.573562443256378174 0.152801424264907837 -0.0742386877536773682
-0.290272265672683716 0.293291717767715454 0.0162066016346216202
0.525289773941040039 -0.320234715938568115 0.0270610526204109192
0.345742523670196533 -0.0300078298896551132 -0.0345905907452106476
0.521908283233642578 -0.36247938871383667 0.089286215603351593
-0.0837062522768974304 -0.111241787672042847 0.0785397142171859741
-0.404247313737869263 0.326626777648925781 0.121467970311641693
0.504401743412017822 -0.36665266752243042 -0.00459887366741895676
-0.119005694985389709 0.266683518886566162 0.121063709259033203
0.518381237983703613 -0.342527478933334351 0.0357328802347183228
0.129913166165351868 -0.334166139364242554 0.301207184791564941
0.466270893812179565 -0.310610026121139526 0.0723434388637542725
0.482506006956100464 -0.373572111129760742 0.052216850221157074
0.420769363641738892 -0.0255655255168676376 0.0647301152348518372
0.493790119886398315 -0.363113492727279663 -0.0156487375497817993
-0.233261540532112122 0.287742853164672852 0.0842919573187828064
0.530881583690643311 -0.331338614225387573 -0.00733731593936681747
-0.272240012884140015 0.31598934531211853 0.114145033061504364
0.307891309261322021 0.0031044473871588707 0.0461987964808940887
0.467039912939071655 -0.263045579195022583 -0.296158105134963989
0.473479181528091431 -0.303881525993347168 0.114114120602607727
0.510819852352142334 -0.31323540210723877 -0.10450097918510437
0.508826315402984619 -0.245003297924995422 -0.308516889810562134
0.447554469108581543 -0.292137324810028076 -0.292842358350753784
0.466003119945526123 -0.282905548810958862 -0.297365635633468628
0.138064965605735779 0.113370306789875031 0.336723983287811279
-0.652356624603271484 0.286231815814971924 0.0983317196369171143
-0.638590693473815918 0.245346575975418091 -0.0379243344068527222
0.136035025119781494 0.0698518082499504089 0.337841063737869263
-0.577384471893310547 0.304337382316589355 -0.0552876517176628113
0.262124210596084595 0.0309953168034553528 -0.0735590085387229919
0.541649162769317627 -0.216281503438949585 0.111435405910015106
-0.360446572303771973 -0.0352283678948879242 -0.134172037243843079
-0.575019717216491699 0.328020751476287842 -0.0292923133820295334
-0.362131476402282715 -0.0703866556286811829 -0.0338297933340072632
-0.130972057580947876 -0.267060995101928711 0.119145773351192474
0.49476248025894165 -0.365406632423400879 -0.000487066281493753195
0.373376548290252686 -0.358992010354995728 -0.21014048159122467
-0.3787098228931427 -0.106351733207702637 0.101479746401309967
-0.0674487501382827759 -0.263538926839828491 0.296491444110870361
0.519511818885803223 -0.242957442998886108 -0.30953565239906311
0.509107768535614014 -0.33013916015625 0.0151551133021712303
-0.593590676784515381 0.369525611400604248 0.120888791978359222
-0.655663847923278809 0.176182329654693604 -0.102753855288028717
-0.223426267504692078 -0.143621906638145447 -0.0536389090120792389
-0.191536366939544678 0.317228764295578003 0.100852958858013153
0.256300240755081177 -0.283051848411560059 0.319591045379638672
0.2388724684715271 0.0327653102576732635 0.319033414125442505
-0.120510421693325043 -0.0455334410071372986 0.00737037323415279388
-0.64180290699005127 0.309177637100219727 0.102176092565059662
0.364255279302597046 -0.373535513877868652 -0.207054078578948975
0.537443220615386963 -0.21729595959186554 0.161718443036079407
-0.55297243595123291 0.38302263617515564 0.15827275812625885
-0.122791267931461334 0.259901732206344604 0.115196153521537781
0.119106791913509369 0.103054463863372803 0.0894091278314590454
-0.375764578580856323 0.266454070806503296 -0.0894049778580665588
0.516541957855224609 -0.348627358675003052 0.0986495912075042725
-0.293922483921051025 -0.106627397239208221 -0.109196953475475311
0.274674862623214722 0.103496722877025604 -0.0577731207013130188
-0.575416028499603271 0.220068603754043579 -0.212393209338188171
-0.115813776850700378 0.26918947696685791 0.179883658885955811
0.235651031136512756 -0.287527143955230713 0.314284801483154297
0.309796363115310669 -0.186851531267166138 0.240915596485137939
0.5414162278175354 -0.325426280498504639 -0.0210327263921499252
0.0785853639245033264 -0.337248414754867554 0.28217923641204834
-0.00685254530981183052 -0.171311870217323303 0.00427932711318135262
-0.282568156719207764 0.262347817420959473 0.00716743618249893188
0.512762546539306641 -0.23672764003276825 -0.309533536434173584
-0.64716947078704834 0.278798550367355347 0.079846799373626709
-0.646593451499938965 0.183698639273643494 -0.0906023308634757996
0.513747692108154297 -0.322097361087799072 0.0241651032119989395
-0.40724557638168335 -0.0630703940987586975 0.113690204918384552
0.516461491584777832 -0.355294078588485718 -0.0207376517355442047
-0.566786587238311768 0.374891161918640137 0.152783021330833435
0.235628888010978699 0.0435811430215835571 0.313583135604858398
-0.665068387985229492 0.227666288614273071 0.0233892221003770828
-0.448376208543777466 -0.0379110574722290039 0.127255141735076904
0.502626121044158936 -0.301882177591323853 -0.178985625505447388
-0.589343667030334473 0.361585319042205811 0.0863902270793914795
-0.194376841187477112 0.3155040442943573 0.104971535503864288
0.246646612882614136 0.024478372186422348 0.323716312646865845
0.53055804967880249 -0.323395669460296631 -0.0581955239176750183
-0.183121919631958008 0.307608515024185181 0.12858109176158905
0.246889486908912659 0.00755068333819508553 0.323846727609634399
0.0583746954798698425 0.140268653631210327 0.345719844102859497
-0.505912899971008301 0.149979874491691589 0.357077687978744507
0.270357996225357056 -0.310811668634414673 0.326131075620651245
-0.254109501838684082 0.0241405721753835678 -0.0706422030925750732
0.240702077746391296 -0.294845372438430786 0.322385430335998535
0.248682841658592224 0.0443622209131717682 0.314306199550628662
0.468045592308044434 -0.101496979594230652 0.0344574861228466034
-0.125062301754951477 0.195723503828048706 0.11545562744140625
0.239589273929595947 -0.326173633337020874 0.317838549613952637
0.499882608652114868 -0.366172254085540771 0.0745244398713111877
0.523081421852111816 -0.324302166700363159 0.02608487568795681
0.444305777549743652 -0.252831846475601196 0.332208096981048584
0.321087092161178589 -0.130983695387840271 -0.106793269515037537
0.0630336552858352661 -0.0101729603484272957 0.321650028228759766
0.510937809944152832 -0.360476195812225342 0.0473890788853168488
0.135278031229972839 -0.100140117108821869 0.0404667817056179047
0.0491631515324115753 0.0121296066790819168 0.0296885166317224503
0.0204363614320755005 0.0488260462880134583 0.0425637513399124146
0.0877809002995491028 -0.0654995962977409363 0.28957444429397583
-0.162491843104362488 -0.26515650749206543 0.148040473461151123
0.264594972133636475 -0.0196427777409553528 0.0614202097058296204
-0.029245033860206604 -0.0284529365599155426 0.29554063081741333
0.501826882362365723 -0.23997052013874054 -0.302119672298431396
0.475570946931838989 -0.314596772193908691 -0.30205082893371582
-0.631092667579650879 0.306823998689651489 0.167663812637329102
0.475119620561599731 -0.320399612188339233 0.120881624519824982
0.508731663227081299 -0.300461053848266602 -0.105665653944015503
0.527881085872650146 -0.274553298950195312 -0.317285895347595215
0.493190139532089233 -0.332067817449569702 -0.310796618461608887
0.503170132637023926 -0.319724380970001221 0.0978786051273345947
0.473818063735961914 -0.305429667234420776 -0.298207372426986694
-0.559498727321624756 0.268644273281097412 0.364755064249038696
0.124741174280643463 0.11742960661649704 0.314145952463150024
-0.633767187595367432 0.282772243022918701 0.0545718632638454437
-0.587526917457580566 0.363340586423873901 0.102731563150882721
0.371097087860107422 -0.373690247535705566 -0.212831303477287292
0.438104450702667236 -0.347574323415756226 0.15421178936958313
0.0578530095517635345 0.121896713972091675 0.321093380451202393
-0.574724256992340088 0.36936613917350769 0.215839609503746033
0.264383256435394287 0.0251045413315296173 -0.0587621331214904785
0.368427813053131104 -0.336380451917648315 0.16050390899181366
0.510174691677093506 -0.30118173360824585 -0.112113058567047119
0.133213445544242859 -0.320158779621124268 -0.0978017672896385193
0.516240537166595459 -0.348418653011322021 -0.0203952528536319733
0.3889026939868927 -0.346418112516403198 -0.214192196726799011
-0.577208757400512695 0.319623082876205444 0.0410772562026977539
0.535701215267181396 -0.277525216341018677 -0.320687443017959595
0.467525631189346313 -0.31056550145149231 -0.299341827630996704
0.506860673427581787 -0.346751481294631958 0.0178201030939817429
-0.556083083152770996 0.31027868390083313 0.102547541260719299
0.193491175770759583 -0.338937491178512573 -0.0592178180813789368
0.069711729884147644 -0.28177487850189209 -0.0779004916548728943
0.252174139022827148 -0.249894678592681885 0.320056885480880737
0.239666163921356201 0.0314074084162712097 0.316810876131057739
-0.121371619403362274 -0.04733232781291008 0.0082249147817492485
0.178406611084938049 -0.0997152328491210938 -0.0148679465055465698
0.532143235206604004 -0.331946134567260742 -0.0132753811776638031
0.369968235492706299 -0.349139392375946045 -0.208969533443450928
0.534698009490966797 -0.245462372899055481 0.177133709192276001
0.560837090015411377 -0.315483033657073975 -0.331006765365600586
0.55427253246307373 -0.211345627903938293 0.133787602186203003
-0.543435275554656982 0.381327778100967407 0.164808660745620728
0.122619733214378357 0.117713108658790588 0.133084148168563843
-0.582410871982574463 0.352464824914932251 0.0981185063719749451
-0.481816619634628296 0.186525523662567139 -0.0913033336400985718
0.515321791172027588 -0.33882373571395874 0.0387247465550899506
0.253181785345077515 -0.278825610876083374 0.321876496076583862
0.278127372264862061 -0.355599671602249146 -0.126128241419792175
0.507595419883728027 -0.286333352327346802 -0.313760191202163696
-0.432373344898223877 -0.0567515380680561066 0.116926267743110657
0.201725974678993225 0.0909835398197174072 0.223291903734207153
0.244014158844947815 0.105006508529186249 -0.0573285557329654694
-0.195879489183425903 0.202085122466087341 0.349395424127578735
0.250228971242904663 0.0253646168857812881 0.323239356279373169
0.239584669470787048 0.0194597188383340836 0.320934653282165527
-0.031633276492357254 0.163242459297180176 0.382698357105255127
-0.482692122459411621 -0.015187983401119709 0.180435001850128174
0.483504801988601685 -0.368740737438201904 0.0459710545837879181
-0.643688559532165527 0.28761214017868042 0.0865652188658714294
0.275614500045776367 -0.165441542863845825 -0.0705766081809997559
-0.412053614854812622 -0.0564189553260803223 0.079134427011013031
-0.643249928951263428 0.176168531179428101 -0.0816879719495773315
-0.22626398503780365 -0.13351401686668396 -0.0520968660712242126
0.254685252904891968 -0.265233337879180908 0.321037977933883667
-0.345621615648269653 0.0177765674889087677 -0.11673080176115036
-0.287444353103637695 -0.0911332890391349792 -0.106370367109775543
-0.585315108299255371 0.210276812314987183 -0.217698007822036743
0.267339408397674561 -0.2967032790184021 0.315111428499221802
-0.0259569864720106125 -0.186871111392974854 -0.0434124767780303955
-0.618254601955413818 0.27741551399230957 0.0317428484559059143
-0.609013020992279053 0.298739761114120483 0.0928285643458366394
-0.397789210081100464 -0.0624217875301837921 0.119105622172355652
-0.451913803815841675 -0.0377405621111392975 0.119741611182689667
0.430879086256027222 -0.271465182304382324 0.329084843397140503
-0.0526821501553058624 0.141303658485412598 0.0917786136269569397
-0.503178954124450684 0.151605278253555298 0.355692386627197266
0.240552604198455811 -0.31899753212928772 0.322735726833343506
0.496890515089035034 -0.370562344789505005 0.0572893507778644562
0.399065971374511719 -0.256577461957931519 0.322366088628768921
-0.158630624413490295 -0.263149410486221313 0.181667059659957886
-0.49936068058013916 0.0144607899710536003 0.158369451761245728
0.417354047298431396 -0.297099798917770386 0.328635543584823608
0.535067379474639893 -0.339937746524810791 -0.0185031592845916748
0.343968302011489868 -0.267126262187957764 -0.127920180559158325
-0.496644496917724609 0.072432301938533783 0.204267069697380066
0.443425893783569336 -0.271911591291427612 0.333310455083847046
0.521803438663482666 -0.335138946771621704 0.0327280834317207336
0.453080922365188599 -0.319697827100753784 -0.293082237243652344
0.473999857902526855 -0.311410784721374512 0.1166190505027771
0.51698005199432373 -0.278222441673278809 -0.312871992588043213
0.502405762672424316 -0.325753509998321533 -0.314361900091171265
0.517898201942443848 -0.326852321624755859 0.101843692362308502
0.479050308465957642 -0.311232715845108032 -0.302221775054931641
0.11433294415473938 0.119041815400123596 0.289010703563690186
-0.122131668031215668 0.269129931926727295 0.158901140093803406
-0.615000426769256592 0.265893638134002686 0.0524455048143863678
-0.479567795991897583 0.00349195580929517746 0.181616514921188354
0.426436573266983032 -0.354766428470611572 0.158494621515274048
-0.292619496583938599 -0.11021123081445694 -0.1056223064661026
0.130279198288917542 0.0659328997135162354 0.321208447217941284
0.253450274467468262 0.0390296764671802521 -0.0778723210096359253
0.235234230756759644 0.0942356958985328674 -0.0531477257609367371
0.417396962642669678 -0.261331558227539062 -0.202416718006134033
0.521453678607940674 -0.35441821813583374 -0.0195196215063333511
-0.609033763408660889 0.381526410579681396 0.181609973311424255
0.517331421375274658 -0.279123425483703613 -0.314793914556503296
0.498880773782730103 -0.349760621786117554 0.0240114741027355194
-0.588009297847747803 0.369714051485061646 0.11341559886932373
0.505784332752227783 -0.104438722133636475 0.147167235612869263
-0.198234900832176208 0.312040477991104126 0.113090917468070984
0.263790041208267212 -0.286287128925323486 0.319701254367828369
0.236704602837562561 0.0625231638550758362 0.310476630926132202
-0.144808113574981689 -0.0430723726749420166 0.00429779151454567909
-0.657991111278533936 0.215071171522140503 -0.045840781182050705
-0.288896232843399048 -0.0755782872438430786 -0.0684602707624435425
0.226972341537475586 0.0425201058387756348 -0.0482143685221672058
0.551356673240661621 -0.144216239452362061 0.131925344467163086
0.519544720649719238 -0.295118153095245361 0.0748130008578300476
0.517344653606414795 -0.283858120441436768 -0.181249827146530151
-0.358336746692657471 -0.0166871342808008194 -0.0277421511709690094
0.0912085175514221191 0.088647790253162384 0.0857758522033691406
0.466383635997772217 -0.361662000417709351 -0.0107384668663144112
-0.433168947696685791 0.158182337880134583 -0.0662348195910453796
0.52357172966003418 -0.335404962301254272 0.0688257738947868347
0.2626495361328125 -0.285655379295349121 0.318424880504608154
0.0090116085484623909 -0.0905945375561714172 -0.0260634906589984894
0.0321991816163063049 -0.129997491836547852 0.0219056811183691025
-0.630917966365814209 0.265398591756820679 0.029405638575553894
0.241913527250289917 0.0746919736266136169 0.31874316930770874
0.239973962306976318 0.029931703582406044 0.318823844194412231
-0.175028830766677856 0.301318734884262085 0.116456612944602966
0.304377853870391846 -0.150991708040237427 0.307711303234100342
0.261684030294418335 -0.290458112955093384 0.32091069221496582
-0.476405739784240723 -0.00778497802093625069 0.1664876788854599
0.242549329996109009 0.0821309313178062439 0.312101840972900391
0.519992470741271973 -0.351058423519134521 0.0818612426519393921
-0.0352614372968673706 -0.237225279211997986 0.124148093163967133
-0.638501822948455811 0.290396273136138916 0.0991909727454185486
-0.234577938914299011 -0.132487878203392029 -0.0578792281448841095
-0.379555314779281616 -0.108436249196529388 0.105744779109954834
-0.236788719892501831 -0.147514119744300842 -0.0577254518866539001
-0.658200442790985107 0.21476629376411438 -0.0335443280637264252
0.528634309768676758 -0.352392464876174927 0.0778054520487785339
-0.621357440948486328 0.270666897296905518 0.0528437308967113495
-0.404409915208816528 -0.0639664754271507263 0.112283401191234589
-0.446574985980987549 -0.0411278679966926575 0.122242763638496399
0.267753958702087402 -0.285349935293197632 0.323383718729019165
0.127336069941520691 -0.326324522495269775 0.312538385391235352
0.151997491717338562 -0.342825323343276978 0.317803442478179932
0.447405219078063965 -0.335457593202590942 -0.293052613735198975
0.515480518341064453 -0.302760064601898193 -0.10803290456533432
0.514951229095458984 -0.28009408712387085 -0.312890291213989258
0.484563112258911133 -0.327517867088317871 -0.309846460819244385
0.464026898145675659 -0.345725119113922119 -0.302721351385116577
0.549335479736328125 -0.210061296820640564 -0.31605076789855957
0.52381974458694458 -0.299884319305419922 -0.322534322738647461
0.51768183708190918 -0.300694018602371216 -0.318432003259658813
0.246629625558853149 0.0574072971940040588 0.316333979368209839
0.241119399666786194 0.0878856852650642395 0.312670201063156128
-0.292070537805557251 -0.100212089717388153 -0.101758800446987152
-0.453834861516952515 -0.0516131073236465454 0.117340132594108582
0.404536217451095581 -0.272003531455993652 0.322409182786941528
-0.502614080905914307 0.00415526283904910088 0.189409807324409485
0.400826424360275269 -0.286986678838729858 0.324725359678268433
0.39897531270980835 -0.273299068212509155 0.323205322027206421
0.341915011405944824 -0.258679568767547607 0.0900263413786888123
-0.0191649831831455231 -0.244019433856010437 0.12871493399143219
-0.46471598744392395 0.0363837368786334991 0.189813971519470215
-0.194632247090339661 0.222067281603813171 0.172195449471473694
0.366498827934265137 -0.329019367694854736 -0.0235865022987127304
0.323027580976486206 -0.389870226383209229 -0.15892694890499115
0.535153448581695557 -0.323403984308242798 -0.0582962483167648315
-0.441998481750488281 -0.00433891266584396362 0.15295131504535675
-0.0194650404155254364 -0.0590991862118244171 0.141779616475105286
-0.000616291828919202089 -0.235750168561935425 0.106431938707828522
0.525945425033569336 -0.201565340161323547 -0.0801294669508934021
0.449467778205871582 -0.308140695095062256 -0.292942166328430176
0.526552319526672363 -0.275255411863327026 -0.315741062164306641
0.499599754810333252 -0.324702799320220947 -0.312732487916946411
0.474898219108581543 -0.3048592209815979 -0.297460287809371948
-0.127704650163650513 0.247095644474029541 0.13908328115940094
-0.649203240871429443 0.28241342306137085 0.0945851951837539673
-0.199172869324684143 0.287129133939743042 0.336036264896392822
0.497765719890594482 -0.0864498019218444824 0.136534437537193298
0.200338706374168396 -0.35886731743812561 -0.0908386632800102234
0.505118131637573242 -0.367441385984420776 -0.0227784737944602966
0.527013182640075684 -0.242406353354454041 0.1728372722864151
-0.586150288581848145 0.379751294851303101 0.171001017093658447
0.44468158483505249 -0.314732491970062256 -0.287816286087036133
0.498335063457489014 -0.110817350447177887 0.112047657370567322
-0.656042695045471191 0.175866320729255676 -0.10345093160867691
-0.202214106917381287 0.309235721826553345 0.0893062055110931396
0.201040908694267273 -0.013214481994509697 0.295199602842330933
0.159679621458053589 -0.0617876723408699036 -0.0440829433500766754
-0.579730808734893799 0.302680820226669312 0.368974238634109497
0.274775594472885132 0.0987356230616569519 -0.0291987955570220947
-0.435543209314346313 0.155881762504577637 -0.0857586637139320374
0.534172713756561279 -0.33279910683631897 0.0126653062179684639
-0.569034099578857422 0.197733700275421143 -0.22879008948802948
-0.497912585735321045 0.0454314760863780975 -0.0865605846047401428
0.0310670454055070877 -0.103594973683357239 0.0330580323934555054
0.533809542655944824 -0.264295011758804321 -0.316387534141540527
0.00951780285686254501 0.198121845722198486 0.0276376903057098389
0.301856368780136108 0.0392204597592353821 -0.0845628827810287476
-0.332466930150985718 -0.0155452368780970573 -0.107500642538070679
0.236244559288024902 0.0148171586915850639 0.321740567684173584
0.124801583588123322 0.0134117342531681061 0.298935234546661377
0.52725064754486084 -0.354911357164382935 0.0662540122866630554
0.466775119304656982 -0.309620708227157593 -0.233192920684814453
-0.652180790901184082 0.285753071308135986 0.104693293571472168
0.546359121799468994 -0.219683244824409485 0.163396090269088745
0.527767777442932129 -0.323126763105392456 -0.016122233122587204
-0.383239239454269409 -0.0559519901871681213 0.0764549523591995239
0.456591814756393433 -0.310623258352279663 -0.292639553546905518
0.504677534103393555 -0.339627206325531006 -0.317964941263198853
0.478518128395080566 -0.314108043909072876 -0.29958072304725647
0.520090341567993164 -0.30109897255897522 -0.317396193742752075
-0.00262139830738306046 -0.139582768082618713 -0.0247344095259904861
0.397309064865112305 -0.27285689115524292 0.323380649089813232
0.400980770587921143 -0.271283775568008423 0.323685199022293091
0.50583726167678833 -0.331708461046218872 0.105770252645015717
-0.467714428901672363 0.0429220125079154968 0.170932188630104065
0.409763306379318237 -0.345582306385040283 0.15651741623878479
-0.361060231924057007 -0.0348394401371479034 -0.147874221205711365
-0.128509178757667542 -0.267299056053161621 0.112509079277515411
0.512340307235717773 -0.368779122829437256 -0.0147222829982638359
-0.213834583759307861 0.313038796186447144 0.0978441759943962097
0.250352531671524048 -0.286796063184738159 0.322852402925491333
0.208669945597648621 0.00981432292610406876 -0.0461370646953582764
0.0696531310677528381 -0.151114523410797119 -0.0171837136149406433
-0.169869229197502136 0.30527043342590332 0.119019418954849243
0.470839202404022217 -0.364077866077423096 0.00698128622025251389
-0.291190862655639648 -0.099002450704574585 -0.103016629815101624
