ply
format ascii 1.0
element vertex 738
property float x
property float y
property float z
end_header
0.453792095184326172 -0.320094376802444458 -0.292594611644744873
0.474606513977050781 -0.311933249235153198 0.117229782044887543
0.51759868860244751 -0.278603523969650269 -0.312377899885177612
0.503060817718505859 -0.326133906841278076 -0.313883185386657715
0.518460214138031006 -0.327360183000564575 0.10245070606470108
0.479728966951370239 -0.311622411012649536 -0.301732748746871948
0.114764980971813202 0.118385650217533112 0.28959241509437561
-0.121900252997875214 0.268577426671981812 0.159368500113487244
-0.614788711071014404 0.26551857590675354 0.052580568939447403
-0.479285776615142822 0.0029736801516264677 0.181889444589614868
0.427118062973022461 -0.355291634798049927 0.15908658504486084
-0.292033880949020386 -0.110678762197494507 -0.10527501255273819
0.130773156881332397 0.0652816146612167358 0.321788102388381958
0.254003196954727173 0.0384542308747768402 -0.0772850364446640015
0.2357187420129776 0.0936476364731788635 -0.0525478944182395935
0.418108284473419189 -0.26177176833152771 -0.201883703470230103
0.522040486335754395 -0.35489162802696228 -0.0189522355794906616
-0.608897387981414795 0.381159007549285889 0.181774571537971497
0.517950177192687988 -0.279503673315048218 -0.31430092453956604
0.499486714601516724 -0.350251883268356323 0.0245913062244653702
-0.587867140769958496 0.369347959756851196 0.113558433949947357
0.50622326135635376 -0.105008222162723541 0.147838041186332703
-0.198034241795539856 0.31153067946434021 0.11351388692855835
0.264536142349243164 -0.286815226078033447 0.320266813039779663
0.237175717949867249 0.0618875883519649506 0.311098396778106689
-0.144245147705078125 -0.0436243526637554169 0.00471021700650453568
-0.65771186351776123 0.214723110198974609 -0.0457330532371997833
-0.288351893424987793 -0.0760688036680221558 -0.0681071579456329346
0.227511793375015259 0.0419319160282611847 -0.0476312041282653809
0.551776349544525146 -0.144763126969337463 0.132590830326080322
0.520090758800506592 -0.295625030994415283 0.0754243209958076477
0.517942726612091064 -0.284286230802536011 -0.180706754326820374
-0.357903420925140381 -0.0171969346702098846 -0.0274261031299829483
0.091661795973777771 0.0879930779337882996 0.0863348245620727539
0.467044711112976074 -0.362149208784103394 -0.0101714367046952248
-0.432852983474731445 0.157707065343856812 -0.0659698694944381714
0.524132966995239258 -0.335903555154800415 0.0694221481680870056
0.263395756483078003 -0.28618389368057251 0.318990200757980347
0.00968565698713064194 -0.0911552608013153076 -0.0256215799599885941
0.0328952595591545105 -0.130566641688346863 0.0223662108182907104
-0.630693137645721436 0.265036642551422119 0.0295288432389497757
0.242369756102561951 0.0740583762526512146 0.319368600845336914
0.240481510758399963 0.0292986035346984863 0.319439589977264404
-0.174820765852928162 0.300798952579498291 0.11689169704914093
0.305028140544891357 -0.151572570204734802 0.308311402797698975
0.262432664632797241 -0.290984541177749634 0.321474760770797729
-0.476088225841522217 -0.00828858278691768646 0.166757658123970032
0.242996349930763245 0.0814970210194587708 0.312729567289352417
0.520563304424285889 -0.351558685302734375 0.0824560150504112244
-0.0345118194818496704 -0.237772658467292786 0.124583132565021515
-0.638314723968505859 0.29003557562828064 0.0993154346942901611
-0.233961284160614014 -0.132977336645126343 -0.0575142800807952881
-0.379104256629943848 -0.108935974538326263 0.106062240898609161
-0.236162081360816956 -0.147999316453933716 -0.0573640577495098114
-0.657926321029663086 0.214415788650512695 -0.0334350317716598511
0.529194653034210205 -0.352889806032180786 0.0783988535404205322
-0.621146321296691895 0.27029651403427124 0.0529753193259239197
-0.404003053903579712 -0.064473569393157959 0.112589113414287567
-0.446205556392669678 -0.041628815233707428 0.122521355748176575
0.268498033285140991 -0.285877913236618042 0.323950678110122681
0.128136724233627319 -0.326838374137878418 0.313051402568817139
0.152799442410469055 -0.343332976102828979 0.318321555852890015
0.448129355907440186 -0.335854023694992065 -0.29257085919380188
0.516073644161224365 -0.303210675716400146 -0.107472650706768036
0.515573263168334961 -0.280475467443466187 -0.31239667534828186
0.485241085290908813 -0.327903032302856445 -0.309366315603256226
0.46473732590675354 -0.346115231513977051 -0.302244901657104492
0.549888849258422852 -0.210441187024116516 -0.315539002418518066
0.524438679218292236 -0.300258785486221313 -0.322051376104354858
0.518308460712432861 -0.301071256399154663 -0.317947328090667725
0.247103765606880188 0.0567744486033916473 0.316957592964172363
0.241560250520706177 0.0872518494725227356 0.313298434019088745
-0.291488170623779297 -0.100680872797966003 -0.101395197212696075
-0.453457176685333252 -0.0521090999245643616 0.117611877620220184
0.405198574066162109 -0.272545963525772095 0.323021978139877319
-0.502309560775756836 0.00366207445040345192 0.189666435122489929
0.401500344276428223 -0.287524014711380005 0.325334221124649048
0.399643301963806152 -0.273841172456741333 0.323815912008285522
0.342622309923171997 -0.259218811988830566 0.0906055346131324768
-0.018406309187412262 -0.244568362832069397 0.129154801368713379
-0.464426517486572266 0.0358705520629882812 0.190100520849227905
-0.194375097751617432 0.221503317356109619 0.172641798853874207
0.367251425981521606 -0.329515755176544189 -0.0230374112725257874
0.323870956897735596 -0.39032098650932312 -0.15844397246837616
0.535718917846679688 -0.323865294456481934 -0.057729136198759079
-0.441665679216384888 -0.00485223811119794846 0.153243333101272583
-0.0188640765845775604 -0.0597092919051647186 0.142258509993553162
0.000143729106639511883 -0.23630368709564209 0.1068759486079216
0.526467561721801758 -0.2020435631275177 -0.0795277059078216553
0.450178742408752441 -0.308538645505905151 -0.292450696229934692
0.527157962322235107 -0.275633543729782104 -0.315247803926467896
0.500257909297943115 -0.325084328651428223 -0.312252700328826904
0.47558024525642395 -0.305251657962799072 -0.296966463327407837
-0.127450495958328247 0.2465362548828125 0.139547735452651978
-0.649016618728637695 0.28206363320350647 0.0946918055415153503
-0.198932185769081116 0.286585867404937744 0.336496591567993164
0.498198121786117554 -0.0870238840579986572 0.137205958366394043
0.201215028762817383 -0.359362810850143433 -0.0903680920600891113
0.505733013153076172 -0.367915928363800049 -0.0222160816192626953
0.527524709701538086 -0.242940440773963928 0.173483073711395264
-0.586026012897491455 0.379376620054244995 0.171164602041244507
0.44539979100227356 -0.315132468938827515 -0.287325918674468994
0.498787462711334229 -0.111382931470870972 0.112713143229484558
-0.655729472637176514 0.175528302788734436 -0.103360302746295929
-0.202005684375762939 0.308730036020278931 0.0897242650389671326
0.201609596610069275 -0.0138625726103782654 0.295800656080245972
0.160334065556526184 -0.0623635090887546539 -0.0435533821582794189
-0.579546928405761719 0.302265256643295288 0.369222790002822876
0.275233715772628784 0.0981449410319328308 -0.0285800453275442123
-0.435216933488845825 0.155412971973419189 -0.0854981690645217896
0.53472745418548584 -0.333281666040420532 0.0132486429065465927
-0.568680942058563232 0.197396442294120789 -0.228673681616783142
-0.497544229030609131 0.0449836999177932739 -0.0863628685474395752
0.0317364372313022614 -0.104174651205539703 0.0335245206952095032
0.534402191638946533 -0.264672398567199707 -0.315891623497009277
0.0098620755597949028 0.197530046105384827 0.0281419772654771805
0.302397578954696655 0.0386532731354236603 -0.08396177738904953
-0.331984549760818481 -0.0160345658659934998 -0.107176952064037323
0.236770331859588623 0.0141847329214215279 0.322352111339569092
0.125353351235389709 0.0127588575705885887 0.299504846334457397
0.527815163135528564 -0.355406135320663452 0.0668434575200080872
0.467457801103591919 -0.310036987066268921 -0.232679560780525208
-0.651997804641723633 0.285404115915298462 0.104800313711166382
0.546835005283355713 -0.220216795802116394 0.164048954844474792
0.528332293033599854 -0.323603391647338867 -0.0155431395396590233
-0.382821321487426758 -0.0564636886119842529 0.0767679736018180847
0.457295805215835571 -0.311020046472549438 -0.292147994041442871
0.505335032939910889 -0.340005248785018921 -0.317492127418518066
0.479198217391967773 -0.314498603343963623 -0.299091726541519165
0.520713865756988525 -0.301476001739501953 -0.316911399364471436
-0.00190906960051506758 -0.140128716826438904 -0.0243012867867946625
0.39797818660736084 -0.273399144411087036 0.323990702629089355
0.401645749807357788 -0.271826386451721191 0.324296772480010986
0.506416440010070801 -0.332219123840332031 0.106375925242900848
-0.467427462339401245 0.0424118936061859131 0.171211361885070801
0.410457849502563477 -0.346110075712203979 0.157105833292007446
-0.360562562942504883 -0.0353053435683250427 -0.147580757737159729
-0.127777323126792908 -0.26781463623046875 0.112904548645019531
0.51294410228729248 -0.369254589080810547 -0.0141580784693360329
-0.213630750775337219 0.312535256147384644 0.0982574373483657837
0.2511025071144104 -0.287323802709579468 0.323413729667663574
0.209246277809143066 0.00922633428126573563 -0.0455688610672950745
0.0703823789954185486 -0.151671722531318665 -0.0167142134159803391
-0.169662460684776306 0.304751485586166382 0.119455955922603607
0.471493929624557495 -0.364570826292037964 0.00755472015589475632
-0.290608376264572144 -0.0994712412357330322 -0.102652296423912048
0.0368694737553596497 -0.149823218584060669 -0.0211823973804712296
0.232477650046348572 0.0560046806931495667 0.309781461954116821
0.253908485174179077 -0.288885742425918579 0.321195334196090698
-0.471512258052825928 0.0011039351811632514 0.169225156307220459
0.241290584206581116 0.062460191547870636 0.313681602478027344
0.509309470653533936 -0.352249681949615479 0.06449088454246521
0.227948948740959167 -0.31502455472946167 0.315094172954559326
-0.375116884708404541 -0.0931898429989814758 0.0867487117648124695
-0.0621904656291007996 -0.241771236062049866 0.303072035312652588
-0.222312495112419128 -0.127720937132835388 -0.0525734201073646545
-0.409619301557540894 -0.0654851421713829041 0.0990797430276870728
-0.444746583700180054 -0.044752754271030426 0.133296191692352295
0.239498570561408997 -0.294264853000640869 0.314970105886459351
0.154464989900588989 -0.324540555477142334 0.320637166500091553
0.425761431455612183 -0.256312698125839233 0.329150378704071045
0.438691049814224243 -0.343080669641494751 -0.292226105928421021
0.506751537322998047 -0.334707021713256836 -0.317636191844940186
0.445538520812988281 -0.352428913116455078 -0.286283493041992188
0.238554403185844421 0.065524466335773468 0.312961846590042114
0.40372660756111145 -0.287752807140350342 0.326458871364593506
-0.494536489248275757 0.00669282674789428711 0.188954368233680725
0.486039668321609497 -0.0634594112634658813 0.132335856556892395
0.0129966754466295242 -0.170858815312385559 0.0103828646242618561
0.531916379928588867 -0.307799011468887329 -0.061692751944065094
0.315321892499923706 -0.302426964044570923 -0.126323878765106201
0.44636043906211853 -0.291472703218460083 -0.285182684659957886
-0.336714684963226318 0.224699810147285461 0.126337349414825439
-0.400549560785293579 -0.0281843431293964386 -0.00134301453363150358
0.403630375862121582 -0.27196928858757019 0.324680507183074951
-0.13305249810218811 0.195722579956054688 0.168380826711654663
0.399682492017745972 -0.27190592885017395 0.324493050575256348
-0.446216672658920288 -0.0249525699764490128 0.0219715405255556107
-0.137759149074554443 0.244799345731735229 0.19234079122543335
-0.612564623355865479 0.294114679098129272 0.184295758605003357
0.12489049881696701 0.115911327302455902 0.317319154739379883
-0.120705582201480865 0.250536471605300903 0.162473812699317932
-0.583078861236572266 0.348262280225753784 0.0586705021560192108
0.427355736494064331 -0.348283201456069946 0.153592213988304138
-0.566468536853790283 0.295195043087005615 -0.0684827789664268494
0.252272307872772217 0.0265832711011171341 -0.0790135115385055542
0.248008117079734802 0.100265473127365112 -0.0477651432156562805
-0.35702669620513916 -0.0556571409106254578 -0.141318961977958679
0.199026837944984436 0.120093502104282379 0.0363705381751060486
0.545897364616394043 -0.13170468807220459 0.112589165568351746
-0.581371128559112549 0.321886271238327026 -0.0223321635276079178
0.206545904278755188 0.0245145168155431747 0.177457869052886963
-0.595109879970550537 0.375252217054367065 0.172576427459716797
0.445302456617355347 -0.31936877965927124 0.127931609749794006
0.255705684423446655 -0.278852224349975586 0.31704181432723999
0.235977903008460999 0.023623097687959671 0.317200362682342529
-0.36249840259552002 -0.0497014857828617096 -0.0232053250074386597
-0.182302385568618774 0.118142165243625641 0.0429232679307460785
0.255424588918685913 -0.288290411233901978 0.319856137037277222
0.24240577220916748 0.0329988114535808563 0.322466582059860229
0.400191128253936768 0.023200521245598793 0.115781590342521667
-0.340051829814910889 -0.0660112276673316956 -0.146765142679214478
0.0764581561088562012 -0.333011209964752197 0.299504935741424561
-0.386345237493515015 -0.0607157647609710693 0.0944017022848129272
-0.447782427072525024 -0.0412261262536048889 0.128305062651634216
0.439910382032394409 -0.279436647891998291 0.334221780300140381
0.0350045748054981232 -0.122877791523933411 -0.0250873807817697525
0.414891690015792847 -0.28088870644569397 0.327560693025588989
0.433595746755599976 -0.296184271574020386 0.333720892667770386
0.368489861488342285 -0.278731077909469604 -0.129783198237419128
-0.477050423622131348 0.0015361452242359519 0.188928410410881042
-0.291023701429367065 -0.0961806327104568481 -0.103984206914901733
0.242056593298912048 -0.313051939010620117 0.310213655233383179
0.47371441125869751 -0.354291945695877075 0.00756617169827222824
-0.295858055353164673 -0.0964296683669090271 -0.106440469622612
0.245404154062271118 -0.288637399673461914 0.320609062910079956
0.0629915595054626465 -0.329710632562637329 0.297590047121047974
0.15865732729434967 -0.267736643552780151 -0.105031393468379974
0.250584959983825684 0.0632690265774726868 0.316106945276260376
-0.482113242149353027 -0.00780765293166041374 0.178526058793067932
0.236725851893424988 0.0664408877491950989 0.315463513135910034
0.239405423402786255 -0.331856429576873779 0.321938157081604004
-0.381783217191696167 -0.0918682292103767395 0.037296053022146225
-0.215567484498023987 -0.139956891536712646 -0.0538108386099338531
-0.382246196269989014 -0.0635225996375083923 0.0841164290904998779
0.150681197643280029 -0.331649869680404663 0.332424581050872803
0.446427077054977417 -0.279968410730361938 0.334146618843078613
0.408007770776748657 -0.280599862337112427 0.325672149658203125
-0.501621842384338379 0.00667653745040297508 0.189265713095664978
-0.321508944034576416 0.0973416492342948914 -0.0696795433759689331
0.532963693141937256 -0.20758095383644104 -0.0521002486348152161
0.451551377773284912 -0.293910205364227295 -0.290072500705718994
0.487998813390731812 -0.325254917144775391 -0.310496062040328979
0.447002828121185303 -0.309753388166427612 -0.290439814329147339
-0.577390789985656738 0.269265115261077881 0.366412192583084106
-0.461002081632614136 0.105954810976982117 -0.230492457747459412
0.37544548511505127 -0.318772882223129272 0.199617713689804077
-0.589476346969604492 0.367010712623596191 0.131787851452827454
0.39319002628326416 -0.353468358516693115 -0.217068001627922058
0.441702663898468018 -0.310296088457107544 -0.288649260997772217
-0.200389504432678223 0.305455029010772705 0.0955862924456596375
-0.155217111110687256 0.267920702695846558 0.152287930250167847
0.530289888381958008 -0.338534116744995117 0.0723391398787498474
0.464375853538513184 -0.26617547869682312 -0.217235356569290161
-0.633175313472747803 0.275799423456192017 0.107569746673107147
0.439025253057479858 -0.308588773012161255 -0.286819696426391602
0.516014635562896729 -0.277218431234359741 -0.316448301076889038
0.517149031162261963 -0.340358972549438477 -0.320372521877288818
0.454959511756896973 -0.307068377733230591 -0.292874723672866821
0.491408169269561768 -0.322023242712020874 0.0949027165770530701
0.021262751892209053 -0.275791287422180176 -0.0180724393576383591
-0.653659343719482422 0.172064974904060364 -0.107637695968151093
-0.224428176879882812 0.318559557199478149 0.12198503315448761
0.4658946692943573 -0.364176064729690552 0.00639219069853425026
0.481594443321228027 -0.33690035343170166 0.0507798232138156891
0.512055039405822754 -0.33941921591758728 -0.319031804800033569
0.440803378820419312 -0.356578618288040161 -0.297240793704986572
-0.269728481769561768 0.322052806615829468 0.0424952171742916107
0.424757063388824463 -0.313310772180557251 -0.281514644622802734
0.416097462177276611 -0.295343697071075439 0.329004853963851929
-0.325625836849212646 -0.0753512904047966003 0.124056942760944366
-0.366424441337585449 -0.0666702091693878174 0.155266433954238892
-0.337963372468948364 0.21486334502696991 0.133474335074424744
0.0104428399354219437 0.119319014251232147 0.105753220617771149
0.542509198188781738 -0.309271484613418579 -0.045721001923084259
0.0142751280218362808 -0.261789292097091675 0.0400226414203643799
-0.00292442366480827332 -0.236576393246650696 0.0947855263948440552
0.000825710711069405079 -0.21961580216884613 0.0820476412773132324
0.465471088886260986 -0.36103445291519165 0.0307987872511148453
-0.268855750560760498 -0.137990400195121765 0.178063660860061646
-0.344624310731887817 -0.0658454596996307373 0.141855895519256592
0.124106280505657196 -0.276733100414276123 0.12949778139591217
-0.133468285202980042 0.0787673741579055786 0.0908875390887260437
0.463889926671981812 -0.0545491054654121399 0.0181125067174434662
-0.0135144451633095741 -0.216925323009490967 0.0808888822793960571
-0.554467558860778809 0.391710668802261353 0.148321732878684998
0.497137695550918579 -0.366902709007263184 0.00572535349056124687
-0.61039358377456665 0.29411199688911438 0.187100723385810852
0.530536532402038574 -0.275282293558120728 -0.317283928394317627
0.370929092168807983 -0.264738410711288452 0.182044312357902527
0.420912742614746094 -0.344598680734634399 0.151358231902122498
0.25239899754524231 0.0390798598527908325 -0.0661401227116584778
0.549808740615844727 -0.150094255805015564 0.124776497483253479
-0.570209860801696777 0.284152090549468994 -0.00584267033264040947
0.501403212547302246 -0.362753301858901978 -0.000805518764536827803
0.208569064736366272 0.115552507340908051 -0.00988328456878662109
-0.288693457841873169 -0.0855749845504760742 -0.0658341050148010254
0.159729540348052979 -0.0833265557885169983 -0.0356391817331314087
-0.3394661545753479 -0.105411708354949951 0.141888558864593506
0.51155930757522583 -0.28144681453704834 -0.312801450490951538
-0.338809698820114136 -0.0795863717794418335 0.0392048954963684082
-0.369038790464401245 0.280825912952423096 -0.0619762614369392395
0.510329127311706543 -0.341104269027709961 0.0656175762414932251
0.302845358848571777 -0.206062972545623779 0.248426169157028198
0.543252825736999512 -0.312154829502105713 -0.0602733902633190155
0.141940683126449585 0.069345816969871521 0.336959391832351685
-0.594538033008575439 0.267625212669372559 0.0127371856942772865
0.222427666187286377 -0.00726483762264251709 0.296136051416397095
0.231248974800109863 0.0341573730111122131 0.313337087631225586
0.5339621901512146 -0.319769054651260376 -0.0123092113062739372
-0.388876348733901978 -0.0639280006289482117 0.106367282569408417
-0.447126209735870361 -0.0400782600045204163 0.127156868577003479
0.496309190988540649 -0.0915329232811927795 0.155001834034919739
0.251252621412277222 0.0629459470510482788 0.317224681377410889
-0.29079204797744751 -0.0927406623959541321 0.308308839797973633
-0.366069704294204712 -0.114699877798557281 0.10465618222951889
-0.563029825687408447 0.127395212650299072 -0.0778901726007461548
-0.501093089580535889 0.0235233530402183533 0.18731321394443512
0.518615841865539551 -0.297466665506362915 -0.313639819622039795
0.473113447427749634 -0.328368842601776123 -0.299499183893203735
-0.573925018310546875 0.268930733203887939 0.363339245319366455
-0.57088923454284668 0.354993194341659546 0.167657166719436646
-0.19147336483001709 0.304702669382095337 0.10194820910692215
-0.661718130111694336 0.239886805415153503 0.0422231629490852356
-0.504509389400482178 0.144453689455986023 0.353990435600280762
0.507643520832061768 -0.347287297248840332 -0.317930221557617188
-0.200299873948097229 0.305037766695022583 0.10260801762342453
0.475613534450531006 -0.357819318771362305 0.00515148183330893517
0.510212421417236328 -0.330922394990921021 0.0668952316045761108
-0.610414385795593262 0.367699503898620605 0.0883748605847358704
-0.562169373035430908 0.288411825895309448 -0.055376686155796051
0.220350354909896851 0.0100963152945041656 0.309666812419891357
0.24091649055480957 0.00492670806124806404 0.322125136852264404
-0.359078377485275269 -0.0568021833896636963 -0.137314662337303162
0.399804800748825073 -0.252977699041366577 0.322425276041030884
0.400112718343734741 -0.263349264860153198 0.325175434350967407
0.224675983190536499 -0.324311256408691406 0.321169018745422363
0.411591976881027222 -0.268090337514877319 0.32559657096862793
-0.508739709854125977 0.0494926385581493378 0.195906952023506165
-0.630834639072418213 0.156616449356079102 -0.0520883910357952118
-0.501484513282775879 0.14702017605304718 0.345963954925537109
0.521438181400299072 -0.350846379995346069 -0.322673708200454712
0.495775222778320312 -0.348542988300323486 0.000674229988362640142
-0.197448953986167908 0.0161442086100578308 -0.0493737086653709412
-0.557440996170043945 0.341899871826171875 -0.00514124799519777298
0.488992244005203247 -0.360678762197494507 0.0415016226470470428
0.449518054723739624 -0.0744664892554283142 0.00242532556876540184
-0.555995583534240723 0.385317087173461914 0.158444270491600037
0.375034093856811523 -0.0813962966203689575 -0.119482778012752533
-0.389429479837417603 0.319658398628234863 0.169466152787208557
-0.384390085935592651 0.328219205141067505 0.198166653513908386
-0.363812714815139771 0.238086014986038208 -0.0828832536935806274
-0.406971365213394165 0.199571117758750916 0.0415297336876392365
-0.644125461578369141 0.286934614181518555 0.0942030027508735657
0.409083843231201172 -0.347469449043273926 0.136876046657562256
0.222677603363990784 0.0827044248580932617 -0.0330299288034439087
0.498926699161529541 -0.161534905433654785 0.12430061399936676
0.500640451908111572 -0.0931406468152999878 0.135231748223304749
0.215768054127693176 0.00165083655156195164 0.299998283386230469
-0.352681875228881836 -0.068117775022983551 -0.00850202515721321106
-0.385069280862808228 0.266084969043731689 -0.0710675269365310669
0.506900429725646973 -0.347323894500732422 0.0553669854998588562
-0.356497287750244141 -0.0562645867466926575 -0.144907042384147644
0.13256429135799408 0.0724089369177818298 0.32268822193145752
-0.0989849492907524109 -0.265627115964889526 0.00660482421517372131
0.242812499403953552 0.023067401722073555 0.322435587644577026
-0.4799765944480896 -0.0117339063435792923 0.185910075902938843
0.242825046181678772 0.0480567030608654022 0.317623406648635864
-0.277897566556930542 0.332729458808898926 0.0412782095372676849
0.37019115686416626 -0.0311188176274299622 -0.0395023822784423828
0.520591259002685547 -0.348224937915802002 -0.0358986780047416687
0.293658822774887085 -0.0122166229411959648 0.0374871380627155304
-0.643811881542205811 0.284852892160415649 0.093050345778465271
0.0360232628881931305 0.136541083455085754 0.0856612324714660645
-0.397004395723342896 -0.0576383434236049652 0.126467376947402954
-0.440983802080154419 -0.0382330305874347687 0.131901100277900696
0.524255633354187012 -0.317811489105224609 -0.065043620765209198
0.422947317361831665 -0.280279397964477539 0.331661820411682129
0.510061979293823242 -0.34521937370300293 0.0575359463691711426
0.404363155364990234 -0.259154587984085083 0.324071764945983887
-0.47989499568939209 0.0180240068584680557 0.177298277616500854
0.235851556062698364 0.0682437196373939514 0.315026015043258667
-0.47903791069984436 -0.00838483963161706924 0.167938873171806335
0.239476114511489868 0.0672520920634269714 0.315427482128143311
0.388439953327178955 0.0256669763475656509 0.106464661657810211
0.220195099711418152 -0.316310733556747437 0.310828328132629395
0.383256435394287109 0.0425828546285629272 0.0695033222436904907
0.462939977645874023 0.0103889675810933113 0.17553412914276123
0.39999091625213623 -0.25894618034362793 0.327644914388656616
-0.499204397201538086 0.02110285684466362 0.18151499330997467
-0.573118329048156738 0.266205459833145142 0.360562354326248169
-0.664177238941192627 0.229951515793800354 0.0223635323345661163
-0.148989647626876831 0.275270938873291016 0.0796372294425964355
0.522474408149719238 -0.335269510746002197 -0.322286784648895264
-0.220114871859550476 0.315608292818069458 0.0973313972353935242
0.500293493270874023 -0.34681403636932373 0.0674265846610069275
-0.189466506242752075 0.302679210901260376 0.115349456667900085
0.314099937677383423 -0.130479097366333008 0.301167935132980347
0.225521370768547058 -0.0355498790740966797 0.305630236864089966
0.0580398812890052795 -0.33098188042640686 0.291836410760879517
0.435733705759048462 -0.280315220355987549 0.333176583051681519
0.409477055072784424 -0.286110848188400269 0.331337511539459229
0.386187851428985596 -0.266143232583999634 0.319216728210449219
0.397942513227462769 -0.384909898042678833 -0.22536863386631012
-0.161972135305404663 0.278292536735534668 0.129194572567939758
0.380896240472793579 0.0436045415699481964 0.0774469822645187378
0.391305536031723022 -0.256102710962295532 0.319227069616317749
-0.499924272298812866 0.0243844222277402878 0.186352714896202087
0.500040650367736816 -0.326153188943862915 -0.312914729118347168
0.381128072738647461 -0.376202225685119629 -0.215978473424911499
0.521544575691223145 -0.349492311477661133 -0.324690192937850952
0.521103858947753906 -0.348632007837295532 -0.321628570556640625
0.513722777366638184 -0.319880306720733643 -0.318252623081207275
0.255459487438201904 -0.222640529274940491 0.057877466082572937
0.186463192105293274 -0.142532795667648315 -0.105238132178783417
0.508177459239959717 -0.320508450269699097 0.0295816417783498764
-0.469069749116897583 -0.0119885746389627457 0.181604847311973572
0.496638715267181396 -0.349191874265670776 -0.309586077928543091
0.521879374980926514 -0.327753692865371704 -0.32175910472869873
0.476450681686401367 -0.32047620415687561 -0.30286407470703125
-0.340846210718154907 0.229847222566604614 -0.0437758229672908783
0.201929047703742981 0.132532164454460144 0.112676769495010376
-0.172189071774482727 0.0220827218145132065 0.0260990504175424576
0.26604771614074707 -0.166093215346336365 0.00640968047082424164
0.545063257217407227 -0.328581154346466064 -0.0475263595581054688
-0.455883681774139404 -0.0531805194914340973 0.162708297371864319
0.470160007476806641 -0.356289178133010864 -0.306925475597381592
0.478875815868377686 -0.270035475492477417 -0.301341652870178223
0.467776298522949219 -0.362097263336181641 -0.308016270399093628
-0.319878488779067993 0.266629725694656372 0.0120496321469545364
0.0334341339766979218 0.0983471870422363281 0.128994762897491455
-0.284083664417266846 -0.1001238152384758 -0.0868586599826812744
-0.616386115550994873 0.217039510607719421 -0.104314975440502167
0.24464753270149231 0.10422312468290329 -0.0293375086039304733
0.46667364239692688 -0.235358268022537231 -0.228282690048217773
-0.293344885110855103 -0.0885801240801811218 -0.0954137220978736877
0.249662816524505615 -0.276197820901870728 0.322947114706039429
0.222309887409210205 0.0665970370173454285 -0.0274985022842884064
-0.250343412160873413 -0.130281269550323486 -0.0550151430070400238
-0.211340531706809998 0.301928550004959106 0.149262666702270508
0.340240478515625 -0.140925854444503784 0.318715333938598633
0.530050456523895264 -0.356857627630233765 0.0700114890933036804
-0.599537789821624756 0.356668651103973389 0.0609495565295219421
-0.345810264348983765 -0.0557937249541282654 -0.143144160509109497
-0.43238222599029541 0.157572925090789795 -0.0841034948825836182
0.526942312717437744 -0.33197861909866333 0.0207107812166213989
0.528514325618743896 -0.288219362497329712 -0.0698384568095207214
-0.498411893844604492 0.142721503973007202 -0.253400743007659912
0.14671345055103302 0.156511425971984863 0.0592592135071754456
0.253604024648666382 -0.00799221452325582504 0.328096151351928711
0.350384652614593506 -0.147511348128318787 0.320950418710708618
0.442732959985733032 -0.322718769311904907 -0.229107171297073364
-0.223561093211174011 -0.140100061893463135 -0.0533345378935337067
0.522878408432006836 -0.350498795509338379 0.0972842946648597717
-0.645692527294158936 0.253512442111968994 0.0244012493640184402
0.393683165311813354 -0.28041192889213562 0.322666376829147339
-0.474244266748428345 -0.00992955267429351807 0.165384337306022644
0.224964052438735962 -0.32531324028968811 0.319425702095031738
-0.363153696060180664 -0.121265575289726257 0.130889981985092163
-0.238010019063949585 -0.140721797943115234 -0.0534626096487045288
-0.113549865782260895 -0.00930053181946277618 -0.0161876697093248367
0.389910042285919189 -0.278682947158813477 0.32099682092666626
-0.506558120250701904 0.0112047372385859489 0.20247359573841095
0.46306726336479187 -0.297080904245376587 -0.294063478708267212
0.3517284095287323 -0.148469418287277222 0.321806490421295166
0.458312571048736572 -0.30389171838760376 -0.228569954633712769
0.0249718744307756424 -0.143921718001365662 -0.019736114889383316
0.369493454694747925 -0.328059643507003784 0.319133281707763672
0.392135977745056152 -0.281835436820983887 0.317258358001708984
0.129138261079788208 -0.319329351186752319 -0.0967276841402053833
-0.134261414408683777 0.278352320194244385 0.118052355945110321
-0.332899004220962524 0.0944969430565834045 -0.101855985820293427
0.374567300081253052 -0.376065224409103394 -0.21453171968460083
0.520321547985076904 -0.345881640911102295 -0.322306334972381592
0.523888707160949707 -0.358144372701644897 -0.326166540384292603
-0.0677688643336296082 -0.254938274621963501 0.099352620542049408
0.326178163290023804 -0.131168574094772339 0.315138578414916992
0.42477753758430481 -0.260078400373458862 0.32867807149887085
-0.479513227939605713 0.0318468734622001648 0.197233498096466064
0.527051389217376709 -0.299746572971343994 -0.321764916181564331
0.538477301597595215 -0.292596042156219482 -0.324177056550979614
0.378360509872436523 -0.374303966760635376 -0.213241919875144958
0.371862918138504028 -0.357241928577423096 -0.213244050741195679
0.524508833885192871 -0.351743787527084351 -0.324547618627548218
0.525816738605499268 -0.363520264625549316 -0.322636246681213379
0.51598048210144043 -0.327295869588851929 -0.319625496864318848
0.479957908391952515 -0.352446198463439941 -0.311766982078552246
0.478928685188293457 -0.365715235471725464 -0.312484592199325562
-0.361553311347961426 0.310427546501159668 0.240361019968986511
-0.320475161075592041 0.104075334966182709 0.022781694307923317
-0.447282344102859497 0.20431537926197052 -0.0397970564663410187
-0.377464145421981812 0.279406994581222534 -0.00670237606391310692
-0.0220087021589279175 -0.260873526334762573 0.144314572215080261
-0.591647863388061523 0.361538976430892944 0.0647495090961456299
0.368069887161254883 -0.373630940914154053 -0.212034061551094055
-0.123693324625492096 -0.0107499975711107254 0.00850850529968738556
0.397119075059890747 -0.353518277406692505 -0.21785128116607666
0.507679343223571777 -0.159792378544807434 0.125689089298248291
0.195683225989341736 0.124569207429885864 0.00692580174654722214
-0.0266110096126794815 0.166705504059791565 0.383572310209274292
-0.333635151386260986 -0.121108382940292358 0.100884914398193359
-0.324965208768844604 0.302966415882110596 -0.0361397042870521545
0.534480810165405273 -0.347013145685195923 0.0382962413132190704
0.52573162317276001 -0.332046389579772949 0.0349685288965702057
-0.595483005046844482 0.382180750370025635 0.113939680159091949
-0.0106232883408665657 -0.144330516457557678 -0.0263574980199337006
-0.234968662261962891 0.1720304936170578 -0.00107502215541899204
-0.485133558511734009 -0.0106172980740666389 0.177805855870246887
-0.277819812297821045 0.336141884326934814 0.0428284034132957458
0.513838350772857666 -0.34928739070892334 0.0975459441542625427
-0.448233604431152344 -0.0357612147927284241 0.117997631430625916
0.434849709272384644 -0.253527343273162842 0.332280665636062622
0.415358245372772217 -0.27863427996635437 0.327744930982589722
-0.468556135892868042 0.0344599820673465729 0.194172084331512451
0.502678632736206055 -0.339766353368759155 0.00841728132218122482
-0.481105506420135498 -0.00277999322861433029 0.178139001131057739
-0.377058893442153931 -0.106673911213874817 0.0934921354055404663
-0.500671982765197754 0.0222366824746131897 0.18491363525390625
0.361143380403518677 -0.287073433399200439 -0.141353175044059753
0.00208198488689959049 -0.23148113489151001 0.0905695855617523193
-0.140035763382911682 0.265061676502227783 0.0890230908989906311
-0.129343464970588684 0.254377752542495728 0.072012193500995636
0.313119679689407349 -0.293431729078292847 -0.13071027398109436
0.428687721490859985 -0.255766481161117554 0.330778688192367554
-0.615068733692169189 0.306674748659133911 0.392839342355728149
0.411269962787628174 -0.358102411031723022 -0.225923076272010803
0.505585312843322754 -0.346609175205230713 -0.319403946399688721
0.508280813694000244 -0.352644354104995728 -0.322112590074539185
0.524035811424255371 -0.298608452081680298 -0.318185716867446899
0.510237991809844971 -0.346955388784408569 -0.3197287917137146
0.270496249198913574 -0.16956581175327301 -0.0790633112192153931
0.134074956178665161 0.120160609483718872 0.329704254865646362
0.252396523952484131 -0.285222440958023071 0.328686237335205078
0.324924170970916748 -0.120463117957115173 0.311175644397735596
0.302929908037185669 -0.204634949564933777 0.251693457365036011
0.250483542680740356 -0.0040041925385594368 0.325652748346328735
0.507692813873291016 -0.343323200941085815 0.0880822837352752686
0.242063388228416443 0.089678056538105011 0.310589104890823364
0.463353455066680908 -0.284201204776763916 -0.230686336755752563
-0.261969476938247681 0.314013034105300903 0.046459343284368515
0.34457966685295105 -0.140222728252410889 0.329976797103881836
0.374409765005111694 -0.363992512226104736 -0.208237946033477783
0.338119566440582275 -0.129491090774536133 0.321222215890884399
0.526966512203216553 -0.347294360399246216 -0.32354891300201416
0.524735748767852783 -0.352149933576583862 -0.326104015111923218
0.480568975210189819 -0.372425973415374756 -0.312575191259384155
-0.359627753496170044 -0.0650037601590156555 0.0834867805242538452
-0.407134503126144409 0.0886751338839530945 -0.112586803734302521
0.0144318016245961189 0.0980007946491241455 0.217764973640441895
-0.378116488456726074 -0.0931732729077339172 -0.027756446972489357
0.265823125839233398 0.0682627260684967041 -0.0912845432758331299
-0.107867702841758728 -0.0152337038889527321 0.0465948842465877533
-0.357694536447525024 -0.0920156165957450867 0.0135095873847603798
-0.290145754814147949 0.304824978113174438 0.167237401008605957
-0.355148494243621826 -0.0735656023025512695 0.0412212572991847992
-0.598303318023681641 0.294632524251937866 0.187152624130249023
0.249721139669418335 0.0966206938028335571 -0.0337401628494262695
0.37968754768371582 -0.355045795440673828 -0.208908528089523315
0.470197886228561401 -0.324929028749465942 0.138512119650840759
0.464924931526184082 -0.271995842456817627 -0.0924881026148796082
-0.439274370670318604 -0.0430780388414859772 0.0848200395703315735
-0.335900962352752686 -0.124783962965011597 0.128188684582710266
0.528710126876831055 -0.342091917991638184 0.0515330769121646881
0.393015474081039429 0.0469091720879077911 0.134170651435852051
-0.185702413320541382 0.314087241888046265 0.108463644981384277
-0.44122999906539917 -0.0429773479700088501 0.118394948542118073
0.537747383117675781 -0.326344996690750122 -0.0551511310040950775
-0.352813512086868286 0.30643075704574585 0.114827558398246765
0.494551092386245728 -0.34628450870513916 0.0446108989417552948
-0.575247406959533691 0.305206626653671265 0.379983425140380859
0.431443601846694946 -0.281222701072692871 0.334233343601226807
-0.477285981178283691 0.00399034237489104271 0.164725542068481445
0.525363147258758545 -0.350040853023529053 -0.00206692283973097801
-0.0667433515191078186 -0.262986093759536743 0.298988878726959229
-0.511574745178222656 0.00454904092475771904 0.188652336597442627
0.390430420637130737 -0.360468447208404541 -0.215205684304237366
-0.118251927196979523 0.254349082708358765 0.0642372071743011475
-0.500091612339019775 0.00496244896203279495 0.193844810128211975
0.426925241947174072 -0.27472570538520813 0.33116576075553894
-0.333242833614349365 0.104146569967269897 -0.117939755320549011
-0.105619952082633972 0.254203855991363525 0.094255790114402771
0.511156260967254639 -0.341848850250244141 -0.319205671548843384
-0.612529397010803223 0.302637636661529541 0.396862208843231201
-0.508667886257171631 0.0365502797067165375 0.189177766442298889
-0.290676206350326538 -0.0891771093010902405 -0.078074917197227478
0.510012984275817871 -0.345127880573272705 -0.320631712675094604
0.0721027478575706482 0.139185503125190735 0.073111608624458313
0.245905980467796326 0.107000403106212616 0.322040021419525146
0.473625987768173218 -0.286963075399398804 -0.230215609073638916
0.30578497052192688 -0.314932435750961304 0.332250088453292847
0.512227177619934082 -0.350194960832595825 -0.321657389402389526
-0.314977943897247314 -0.0870159193873405457 -0.0337227918207645416
0.514838933944702148 -0.355898827314376831 -0.32262381911277771
-0.624901056289672852 0.180430352687835693 -0.0856672674417495728
-0.353162437677383423 -0.0558912083506584167 -0.143444225192070007
-0.330984771251678467 0.269588381052017212 -0.0544948205351829529
-0.176984935998916626 0.13887515664100647 0.00559640256687998772
0.545732617378234863 -0.21768718957901001 0.15972532331943512
0.0308848023414611816 0.102403119206428528 0.06595611572265625
0.510281383991241455 -0.331064224243164062 -0.319004565477371216
0.586263000965118408 -0.325343221426010132 -0.3195839524269104
0.250263780355453491 -0.288535624742507935 0.318906605243682861
0.255953609943389893 -0.00331146595999598503 0.328590899705886841
0.302074790000915527 -0.282812565565109253 0.331773519515991211
-0.343808621168136597 -0.0908253863453865051 0.0185360852628946304
-0.373995691537857056 -0.0900081172585487366 -0.0177121609449386597
-0.0648262575268745422 -0.273583829402923584 0.159914940595626831
-0.630211353302001953 0.275747179985046387 0.0764843076467514038
0.367154628038406372 -0.365814119577407837 -0.211810365319252014
-0.124010875821113586 -0.0292731598019599915 -0.00606381148099899292
-0.598333597183227539 0.342430621385574341 0.0910962671041488647
0.444422781467437744 -0.249634891748428345 -0.28586190938949585
0.383191347122192383 -0.348293721675872803 -0.211674720048904419
0.312952965497970581 -0.372916877269744873 -0.155671581625938416
-0.179335117340087891 0.312725096940994263 0.100650407373905182
0.535506367683410645 -0.31953391432762146 -0.0319553166627883911
-0.65488201379776001 0.238469719886779785 0.0145716378465294838
-0.452677398920059204 -0.053907737135887146 0.163856580853462219
0.500354886054992676 -0.348838508129119873 0.0718401595950126648
0.440968155860900879 -0.26117253303527832 0.334847539663314819
0.507636427879333496 -0.34405440092086792 0.0303770415484905243
0.264776289463043213 0.121394775807857513 0.0276702605187892914
0.400127708911895752 0.0323079898953437805 0.14033585786819458
-0.106226742267608643 0.252605855464935303 0.0732793360948562622
0.317206621170043945 -0.380943089723587036 -0.156549766659736633
-0.566378355026245117 0.295655101537704468 -0.050906006246805191
0.390889257192611694 -0.362982720136642456 -0.220587491989135742
0.359320610761642456 0.0332276448607444763 0.0491046495735645294
0.195154622197151184 -0.36565437912940979 -0.0953570827841758728
0.391762912273406982 -0.355910122394561768 -0.21671159565448761
0.52014768123626709 -0.335361838340759277 -0.322150617837905884
0.523349225521087646 -0.333545863628387451 -0.323591232299804688
0.244653999805450439 0.0239064861088991165 0.324522942304611206
0.213029965758323669 -0.338797003030776978 0.319095015525817871
0.23739972710609436 0.105856314301490784 0.315615534782409668
0.522107243537902832 -0.337269842624664307 -0.325240820646286011
0.31870347261428833 -0.380054950714111328 -0.150702700018882751
0.584593296051025391 -0.318221569061279297 -0.333803921937942505
-0.380605161190032959 -0.0934449285268783569 -0.017218124121427536
0.45869976282119751 -0.325760722160339355 0.125522464513778687
0.389185935258865356 0.0533334165811538696 0.132162511348724365
-0.173567965626716614 0.307324349880218506 0.106531821191310883
-0.461838126182556152 -0.0300927292555570602 0.135085836052894592
0.44010692834854126 -0.26175650954246521 0.335625529289245605
0.400548487901687622 0.024501824751496315 0.128463640809059143
0.427791029214859009 -0.263900995254516602 0.332554459571838379
-0.509432196617126465 0.00427241111174225807 0.19144381582736969
-0.130873292684555054 0.253589034080505371 0.0821902081370353699
-0.283751696348190308 0.335860550403594971 0.0348977595567703247
0.455784052610397339 -0.259781450033187866 0.33715367317199707
-0.330466806888580322 0.0978126749396324158 -0.117139704525470734
-0.508169353008270264 0.0360639020800590515 0.189135044813156128
0.258450627326965332 0.00726952496916055679 0.328084051609039307
0.44635888934135437 -0.256298482418060303 0.334337174892425537
0.236536696553230286 0.108864456415176392 0.309388071298599243
0.303005754947662354 -0.329419106245040894 0.334890574216842651
-0.320264816284179688 0.266995280981063843 -0.0463809408247470856
-0.132881313562393188 -0.268691897392272949 -0.00437285285443067551
-0.376721709966659546 -0.0755069926381111145 0.0244507342576980591
-0.375308424234390259 -0.0635853186249732971 -0.15950968861579895
-0.494483202695846558 -0.0227663759142160416 0.17438855767250061
-0.527454912662506104 -0.00688501633703708649 0.187228798866271973
0.382623106241226196 -0.36677706241607666 -0.218775078654289246
0.389646947383880615 -0.330392241477966309 0.187045887112617493
-0.577687919139862061 0.291930049657821655 -0.0403894037008285522
0.241946876049041748 0.0882053077220916748 -0.0389585345983505249
0.375090241432189941 -0.351647287607192993 -0.209355905652046204
0.187499970197677612 0.107693366706371307 0.00234453822486102581
-0.341527044773101807 0.273097366094589233 -0.0513150990009307861
0.532839059829711914 -0.353966832160949707 0.053912624716758728
-0.113489501178264618 0.185286343097686768 0.355172425508499146
-0.215612843632698059 0.313436567783355713 0.112684659659862518
0.47089684009552002 -0.305221587419509888 -0.235294535756111145
0.536815762519836426 -0.321131587028503418 -0.0257349107414484024
-0.26613318920135498 0.310062497854232788 0.0459722280502319336
0.279204756021499634 0.00815412681549787521 -0.0267960391938686371
0.385009825229644775 -0.362359970808029175 -0.216491684317588806
0.0283615868538618088 -0.0957131832838058472 0.019330095499753952
-0.416476845741271973 -0.0576865188777446747 0.133701413869857788
0.385664969682693481 -0.287801802158355713 -0.10916108638048172
0.382707715034484863 -0.363418489694595337 -0.219075590372085571
0.200364470481872559 -0.36656072735786438 -0.0955881550908088684
0.388163894414901733 -0.354311496019363403 -0.216129109263420105
0.5121651291847229 -0.337031155824661255 -0.319431841373443604
0.513473987579345703 -0.336793065071105957 -0.321614116430282593
0.233494773507118225 0.0340223275125026703 0.31937602162361145
0.242217496037483215 0.0888158231973648071 0.310457348823547363
0.363132506608963013 -0.283145010471343994 0.316678106784820557
0.530913591384887695 -0.346625566482543945 -0.32965773344039917
0.201132237911224365 -0.190657809376716614 -0.0713003873825073242
-0.192642167210578918 0.13353392481803894 0.00945869646966457367
0.321676760911941528 -0.37462317943572998 -0.15811552107334137
0.205092713236808777 -0.325796186923980713 0.316321283578872681
0.323325604200363159 -0.277773678302764893 0.317757159471511841
-0.499016344547271729 0.0162149090319871902 0.184294655919075012
0.34794849157333374 -0.273225665092468262 -0.131764188408851624
0.245214447379112244 0.0211849883198738098 0.322274506092071533
0.195952951908111572 -0.167595118284225464 -0.0672624856233596802
0.0378808677196502686 0.13145892322063446 0.106070242822170258
-0.454630643129348755 -0.0508090555667877197 0.155435919761657715
-0.140164211392402649 0.269294083118438721 0.0805147364735603333
0.54031217098236084 -0.226430550217628479 0.173379644751548767
0.236647650599479675 0.104232802987098694 0.309980541467666626
-0.452176302671432495 -0.0275193247944116592 0.124643288552761078
-0.509000062942504883 0.00134360825177282095 0.173906996846199036
0.23658965528011322 0.08344268798828125 0.311226397752761841
-0.487579584121704102 -0.0229827165603637695 0.178292527794837952
-0.519933342933654785 -0.00183319894131273031 0.18737657368183136
-0.0833498165011405945 0.0736608356237411499 0.0426025539636611938
0.368282675743103027 -0.0231229979544878006 -0.0816463679075241089
-0.231588289141654968 0.0470603480935096741 -0.0680294036865234375
0.495552957057952881 -0.341307997703552246 -0.449410438537597656
-0.627777159214019775 0.292033582925796509 0.176069870591163635
-0.111245095729827881 0.153425171971321106 0.0498717948794364929
0.523169040679931641 -0.345054805278778076 -0.0204310845583677292
-0.583063662052154541 0.374504387378692627 0.185660183429718018
-0.185766682028770447 0.313194304704666138 0.132359102368354797
0.0276548303663730621 -0.125356972217559814 -0.0341605097055435181
0.320492088794708252 0.0747547522187232971 -0.106916457414627075
-0.0371986590325832367 0.156670734286308289 0.385995775461196899
0.476940274238586426 -0.308266431093215942 -0.226774722337722778
0.496588826179504395 -0.291282415390014648 -0.16733105480670929
0.450075030326843262 -0.255400329828262329 0.333467572927474976
0.507222592830657959 -0.359395086765289307 0.0423898473381996155
0.425844252109527588 -0.285838514566421509 0.330217570066452026
0.504340887069702148 -0.347753465175628662 0.0202926471829414368
0.400831222534179688 -0.344860672950744629 -0.215391010046005249
-0.489773988723754883 0.0472034886479377747 -0.0935417339205741882
-0.127952352166175842 0.260997086763381958 0.0793512612581253052
0.326953679323196411 -0.37288549542427063 -0.154580563306808472
0.320156574249267578 -0.293429404497146606 -0.131856992840766907
0.434083282947540283 -0.296220541000366211 0.333681404590606689
0.410180956125259399 -0.356364935636520386 -0.225457906723022461
0.224174872040748596 -0.336669027805328369 0.318395674228668213
0.240559130907058716 0.0880293548107147217 0.309736400842666626
0.369278848171234131 -0.322209328413009644 0.320675641298294067
0.521725952625274658 -0.358607679605484009 -0.325424343347549438
-0.259702205657958984 -0.145728856325149536 -0.0593036748468875885
0.527571916580200195 -0.340224564075469971 0.0356446355581283569
-0.243381097912788391 0.0743191242218017578 0.00797246396541595459
0.198386475443840027 -0.336311668157577515 0.316548645496368408
0.467540830373764038 -0.274890720844268799 0.339483916759490967
-0.502611160278320312 0.00410209596157073975 0.188192248344421387
0.453121393918991089 -0.279729962348937988 0.333290040493011475
-0.455745071172714233 -0.053228430449962616 0.162936881184577942
-0.502565920352935791 0.00339777278713881969 0.189182326197624207
-0.640389382839202881 0.297908931970596313 0.419877976179122925
0.541283011436462402 -0.216191858053207397 0.154114276170730591
