ply
format ascii 1.0
element vertex 738
property float x
property float y
property float z
end_header
0.472945690155029297 -0.128512918949127197 0.10942927747964859
-0.549550890922546387 0.378761380910873413 0.172403842210769653
0.189545154571533203 -0.339590966701507568 -0.0133331418037414551
-0.202562585473060608 -0.135109066963195801 -0.0685021281242370605
-0.186257436871528625 0.312282919883728027 0.117726132273674011
0.102511227130889893 0.107927091419696808 0.174304872751235962
-0.445053160190582275 -0.0539811253547668457 0.0917685702443122864
-0.490072011947631836 0.0303425975143909454 0.0167234782129526138
0.230545535683631897 0.0112287458032369614 0.314884096384048462
-0.0254629794508218765 0.113479375839233398 0.312346547842025757
0.242375418543815613 -0.0384465456008911133 0.204531773924827576
-0.385513573884963989 0.245541483163833618 0.0341604463756084442
-0.654704928398132324 0.216879576444625854 -0.0395012944936752319
0.482131063938140869 -0.116231784224510193 0.0233638379722833633
0.121352963149547577 0.0796966701745986938 0.138416692614555359
-0.382665127515792847 -0.0722286254167556763 0.0955672115087509155
0.3187999427318573 -0.0722757577896118164 0.0622963458299636841
-0.441379010677337646 -0.0113466270267963409 0.00676388386636972427
-0.50283437967300415 0.233845293521881104 -0.071302264928817749
-0.547891378402709961 0.203606128692626953 -0.0687245354056358337
0.0877555310726165771 0.0918662622570991516 0.0798862949013710022
-0.520524501800537109 0.204724490642547607 -0.04735531285405159
-0.168954774737358093 0.0727238580584526062 0.232406213879585266
-0.0582181364297866821 -0.186496421694755554 0.0267793834209442139
-0.213197946548461914 0.290987730026245117 0.108987346291542053
0.248757794499397278 -0.00532914325594902039 0.0222198348492383957
-0.556392967700958252 0.204583212733268738 0.118193410336971283
-0.457967430353164673 0.216645196080207825 0.0243893656879663467
-0.463253319263458252 0.26665690541267395 -0.00288870604708790779
-0.576071441173553467 0.247725605964660645 -0.0766771882772445679
-0.390023410320281982 0.275280505418777466 -0.0842782780528068542
0.342917054891586304 -0.134464487433433533 0.318731427192687988
-0.499241232872009277 0.207025602459907532 -0.0117800384759902954
-0.34666481614112854 0.292993396520614624 -0.0502972863614559174
0.525085747241973877 -0.360953032970428467 0.0416913554072380066
-0.540545225143432617 0.215381547808647156 0.200932934880256653
-0.569898009300231934 0.294499754905700684 -0.00338455312885344028
0.315732598304748535 0.0237579420208930969 0.0486060790717601776
0.481147199869155884 -0.306978791952133179 -0.303729653358459473
0.478804081678390503 -0.326181411743164062 0.125281214714050293
0.522311627864837646 -0.306944012641906738 -0.0987866669893264771
0.489503443241119385 -0.310745537281036377 -0.307489961385726929
0.515332877635955811 -0.324912458658218384 0.119749538600444794
0.443660140037536621 -0.300169795751571655 -0.29071652889251709
0.522329270839691162 -0.304495483636856079 -0.0974497497081756592
0.133459612727165222 0.116598613560199738 0.336941987276077271
-0.643035531044006348 0.242738008499145508 -0.0096864309161901474
-0.29344940185546875 -0.113565541803836823 -0.105728298425674438
0.538365781307220459 -0.25539591908454895 0.0921005308628082275
0.128311261534690857 0.0978151187300682068 0.317218929529190063
-0.236070781946182251 -0.143218547105789185 -0.0713829174637794495
0.251575738191604614 0.0300642605870962143 -0.0860874727368354797
0.530070364475250244 -0.323056459426879883 0.00674382783472537994
-0.599960267543792725 0.307503789663314819 0.104289591312408447
0.531221687793731689 -0.244574129581451416 0.086449749767780304
-0.374844580888748169 -0.0604991018772125244 0.0922743156552314758
0.525686740875244141 -0.275274515151977539 -0.123331405222415924
-0.501790285110473633 0.149037927389144897 0.35294795036315918
0.384241580963134766 -0.297492921352386475 0.131733939051628113
0.13175491988658905 -0.331747204065322876 -0.100461162626743317
0.521860659122467041 -0.354776740074157715 -0.0150182275101542473
-0.437188416719436646 0.150697261095046997 -0.0851493403315544128
0.514875829219818115 -0.300013870000839233 0.0646132156252861023
0.392151921987533569 -0.367816239595413208 -0.213758811354637146
0.499664157629013062 -0.171386659145355225 0.129923373460769653
0.532339334487915039 -0.333916813135147095 0.0283017344772815704
-0.58054119348526001 0.348984718322753906 0.0400662943720817566
0.519125938415527344 -0.240926563739776611 -0.30879095196723938
-0.601624965667724609 0.370770007371902466 0.104441046714782715
-0.501291990280151367 0.147410124540328979 0.355153083801269531
0.233100473880767822 -0.277579158544540405 0.317259103059768677
-0.182211980223655701 -0.136732712388038635 -0.0556642450392246246
-0.229231983423233032 -0.137677565217018127 -0.0535533688962459564
-0.205001294612884521 0.29859471321105957 0.12657107412815094
0.261653214693069458 -0.289405375719070435 0.3235493004322052
-0.36305275559425354 -0.0302067436277866364 0.119487032294273376
-0.500848472118377686 0.0196902863681316376 0.0317599885165691376
0.242026105523109436 0.000305289373500272632 0.322124630212783813
0.140485271811485291 -0.29009634256362915 0.311616688966751099
0.30721205472946167 -0.207332432270050049 0.248066231608390808
-0.386821895837783813 0.255062907934188843 0.034211769700050354
0.530235171318054199 -0.262179166078567505 0.102826759219169617
0.223244458436965942 0.0229469165205955505 0.305282175540924072
0.529761314392089844 -0.147435426712036133 -0.308342933654785156
-0.645555675029754639 0.231516972184181213 -0.0477368086576461792
0.540383338928222656 -0.310870438814163208 -0.0445317775011062622
0.50695347785949707 -0.267738848924636841 -0.311566561460494995
0.513424515724182129 -0.316068202257156372 -0.295154690742492676
0.457961589097976685 -0.290856033563613892 -0.296647965908050537
-0.5438041090965271 0.268254876136779785 -0.189597725868225098
-0.622080206871032715 0.289133757352828979 0.0664462149143218994
0.362505942583084106 -0.384130865335464478 -0.206172451376914978
-0.0932243764400482178 0.267488688230514526 0.189196348190307617
-0.449208289384841919 0.131487727165222168 -0.208960294723510742
-0.576150715351104736 0.20393882691860199 -0.127328678965568542
-0.630769133567810059 0.191889718174934387 -0.0401493944227695465
-0.470508873462677002 0.13912317156791687 -0.2312813401222229
0.256781905889511108 -0.0169919990003108978 -0.0722656175494194031
0.229671180248260498 0.0539373941719532013 -0.0453622080385684967
0.112267665565013885 0.110021345317363739 0.301485925912857056
-0.584823250770568848 0.218526273965835571 -0.221719831228256226
-0.598893225193023682 0.235412612557411194 -0.0110138179734349251
-0.367811769247055054 -0.0913468673825263977 0.12275329977273941
-0.330809831619262695 -0.124965101480484009 0.137205839157104492
-0.635297298431396484 0.199804946780204773 -0.0385687239468097687
-0.426467061042785645 -0.0545466914772987366 0.0991364642977714539
-0.478843331336975098 0.0204378813505172729 -0.0366946123540401459
0.207825556397438049 0.00883557833731174469 0.300665855407714844
-0.634862184524536133 0.248265951871871948 -0.00625613797456026077
-0.128794923424720764 0.2701302170753479 0.132060721516609192
0.270135998725891113 -0.330010473728179932 0.179984092712402344
0.532172083854675293 -0.210056200623512268 -0.0989704430103302002
-0.127365738153457642 -0.112319156527519226 -0.054898872971534729
0.453253835439682007 -0.338807046413421631 -0.298166126012802124
-0.21344466507434845 0.0365227013826370239 -0.0598248355090618134
-0.553887367248535156 0.176008149981498718 0.0125836702063679695
-0.199318930506706238 0.139907240867614746 0.0209736023098230362
-0.0134698944166302681 -0.102210149168968201 -0.0430688336491584778
0.263828694820404053 -0.274622827768325806 0.20232255756855011
0.347726702690124512 -0.320910245180130005 -0.000143710087286308408
-0.156768709421157837 0.0700914338231086731 0.0273752380162477493
-0.249999016523361206 0.131065592169761658 -0.0346033535897731781
0.198242023587226868 0.00184324989095330238 0.0188862346112728119
0.0755109637975692749 0.0810860618948936462 0.0237517431378364563
-0.28418499231338501 0.288511931896209717 -0.00611495552584528923
0.476045459508895874 -0.289746552705764771 -0.301807522773742676
-0.557565510272979736 0.265957832336425781 -0.0174944326281547546
-0.238199546933174133 0.0979240462183952332 -0.0326114930212497711
0.136922538280487061 -0.280485570430755615 0.14996357262134552
0.295421093702316284 -0.297147899866104126 0.0568071641027927399
-0.286794126033782959 0.257509082555770874 0.000367285625543445349
-0.0219450164586305618 -0.0400245115160942078 0.0888481736183166504
0.203643277287483215 0.042932707816362381 0.0654968023300170898
-0.144596144556999207 -0.0848066955804824829 0.0915995612740516663
0.371629774570465088 -0.0732713267207145691 0.0313673652708530426
0.520474433898925781 -0.198999747633934021 -0.0986662879586219788
0.486190885305404663 -0.297742396593093872 -0.305464178323745728
0.479529231786727905 -0.314645975828170776 0.122176617383956909
0.512686192989349365 -0.307056456804275513 -0.102535896003246307
0.495114445686340332 -0.309368908405303955 -0.309831142425537109
0.505241692066192627 -0.327665448188781738 -0.00425844872370362282
0.510832905769348145 -0.324348717927932739 0.1182127445936203
0.464969545602798462 -0.288647353649139404 -0.296662092208862305
0.437057226896286011 -0.263317346572875977 -0.194416746497154236
0.134267136454582214 0.117245227098464966 0.336857467889785767
0.395664066076278687 -0.244071453809738159 0.318604409694671631
-0.602307736873626709 0.354525953531265259 0.0653100758790969849
-0.505891144275665283 0.357482284307479858 0.178147599101066589
0.541737973690032959 -0.282338976860046387 0.097775682806968689
0.255523353815078735 0.0370238088071346283 -0.0722925961017608643
-0.233998462557792664 0.156261563301086426 -0.00546259619295597076
0.505231201648712158 -0.331831395626068115 -0.00268099131062626839
0.443872034549713135 -0.249917745590209961 -0.228137478232383728
-0.639857828617095947 0.254765480756759644 0.0543300360441207886
0.531712710857391357 -0.26251685619354248 0.0930869504809379578
-0.394017606973648071 -0.0588705949485301971 0.100330427289009094
0.522994041442871094 -0.289524167776107788 -0.0922343656420707703
0.0269951764494180679 -0.273797005414962769 -0.0353886596858501434
0.384202003479003906 -0.305832743644714355 0.118660897016525269
-0.582976162433624268 0.367091059684753418 0.131519734859466553
0.23930080235004425 0.00318763637915253639 0.180914223194122314
-0.113845512270927429 0.165891155600547791 0.347381234169006348
0.48123595118522644 -0.368196755647659302 -0.0222002305090427399
0.411270558834075928 -0.321033775806427002 -0.211146220564842224
0.506391465663909912 -0.155359476804733276 0.123834922909736633
0.527888894081115723 -0.334553718566894531 0.0126752378419041634
-0.584944546222686768 0.336665600538253784 0.0338881351053714752
-0.591550886631011963 0.38218611478805542 0.131072327494621277
0.525419831275939941 -0.244283512234687805 -0.310765087604522705
0.473513245582580566 -0.290668129920959473 -0.299558699131011963
-0.598012447357177734 0.353980720043182373 0.169486328959465027
-0.58813941478729248 0.371710807085037231 0.100911378860473633
-0.213050872087478638 -0.129195407032966614 -0.0577842630445957184
0.233427658677101135 -0.292672425508499146 0.314828634262084961
0.237154394388198853 0.0674250200390815735 0.319863289594650269
0.54093855619430542 -0.313711285591125488 -0.0582515597343444824
-0.445596218109130859 -0.0480004847049713135 0.126967966556549072
0.358545631170272827 -0.388205200433731079 -0.209116578102111816
-0.557426095008850098 0.211404412984848022 -0.113890379667282104
0.519904077053070068 -0.279449433088302612 -0.177244231104850769
0.241005837917327881 0.0350735597312450409 0.314345002174377441
0.241818085312843323 0.000659917190205305815 0.0234491936862468719
0.379778385162353516 0.0389832258224487305 0.0116512831300497055
0.525894641876220703 -0.230586335062980652 -0.310274720191955566
0.326095074415206909 0.0963209569454193115 -0.0361689813435077667
-0.375200569629669189 -0.059925030916929245 -0.133006349205970764
0.512017011642456055 -0.167351514101028442 0.135731801390647888
-0.575317442417144775 0.322276443243026733 0.0492682047188282013
-0.559782207012176514 0.283776551485061646 0.363984495401382446
0.223495334386825562 0.0321561805903911591 -0.0584054142236709595
-0.575210750102996826 0.21484433114528656 -0.221350297331809998
-0.0452070124447345734 0.156914860010147095 0.0810128450393676758
0.1131611168384552 0.110332638025283813 0.0252367462962865829
0.34175834059715271 -0.246806666254997253 -0.0970129221677780151
-0.285972684621810913 0.300720810890197754 -0.00301729561761021614
0.152334511280059814 -0.00409747706726193428 -0.00375615409575402737
0.0681392550468444824 0.139146849513053894 0.0754527375102043152
-0.270967304706573486 0.280474543571472168 0.00151312944944947958
0.502433240413665771 -0.29249107837677002 -0.159483522176742554
0.135995388031005859 -0.0255019683390855789 0.0129402521997690201
-0.339989572763442993 -0.0316137224435806274 0.0226904097944498062
0.372440040111541748 -0.0916550830006599426 0.0440871194005012512
0.198997184634208679 0.10147559642791748 -0.00204796181060373783
-0.298232138156890869 -0.0246445275843143463 0.0358219332993030548
0.130798891186714172 -0.0175093933939933777 -0.0262662339955568314
0.100430987775325775 0.0163984298706054688 0.0910393446683883667
0.174754127860069275 0.119612880051136017 0.0378039814531803131
-0.231472760438919067 -0.0632573515176773071 0.104546673595905304
0.485174417495727539 -0.296605885028839111 -0.30369257926940918
-0.603988468647003174 0.289808332920074463 0.184949949383735657
0.466248035430908203 -0.308524399995803833 0.11993253231048584
0.377319455146789551 -0.0143198464065790176 0.00614629779011011124
0.513438284397125244 -0.295193970203399658 -0.103628933429718018
0.517958760261535645 -0.239675059914588928 -0.307773023843765259
0.477002471685409546 -0.309667408466339111 -0.300446003675460815
0.482482254505157471 -0.274463415145874023 -0.300077766180038452
0.116316542029380798 0.119139164686203003 0.29742780327796936
-0.58500969409942627 0.356593936681747437 0.0655354484915733337
0.382747173309326172 -0.337110787630081177 0.1253548264503479
-0.575308859348297119 0.317916214466094971 -0.0268524549901485443
-0.605305254459381104 0.217368200421333313 -0.0872041285037994385
0.266797304153442383 0.0394072458148002625 -0.0864908918738365173
-0.357371121644973755 -0.0218482613563537598 -0.131308317184448242
-0.565114319324493408 0.314553737640380859 -0.00819972623139619827
0.18960849940776825 -0.340539932250976562 -0.0748732313513755798
0.403187692165374756 -0.357516735792160034 -0.224195912480354309
-0.501041173934936523 0.145994484424591064 0.35449683666229248
0.508693873882293701 -0.15132574737071991 0.114806428551673889
0.495953619480133057 -0.263872683048248291 -0.304562896490097046
0.45705103874206543 -0.280820012092590332 -0.289913415908813477
0.440009653568267822 -0.264899104833602905 -0.283873379230499268
-0.588827550411224365 0.357696324586868286 0.0614459440112113953
0.504301607608795166 -0.126648813486099243 0.124218448996543884
-0.207104131579399109 0.312747538089752197 0.108547218143939972
0.267241597175598145 -0.283722817897796631 0.319006592035293579
0.231624618172645569 0.00384978018701076508 0.317651510238647461
0.512375831604003906 -0.175638735294342041 -0.281950414180755615
-0.116196192800998688 0.0102310972288250923 0.0057267630472779274
0.402919024229049683 -0.359545290470123291 -0.224819168448448181
0.416649520397186279 -0.31305384635925293 0.14360867440700531
-0.556263983249664307 0.376756668090820312 0.186565712094306946
-0.176524326205253601 0.30941849946975708 0.118224859237670898
-0.390619397163391113 0.276251524686813354 -0.0852793902158737183
0.364341497421264648 0.0519275479018688202 0.0243539977818727493
0.128290265798568726 0.116033904254436493 0.318654924631118774
-0.287503719329833984 -0.100219517946243286 -0.0921670198440551758
0.257204800844192505 0.101020351052284241 -0.0622833967208862305
-0.362216204404830933 -0.0594865679740905762 -0.144268587231636047
0.133244812488555908 0.113998346030712128 0.337601751089096069
-0.563983738422393799 0.19950452446937561 -0.229320794343948364
-0.277297049760818481 0.288240760564804077 -0.00111375679261982441
0.453976452350616455 -0.246398210525512695 -0.288465321063995361
0.459317237138748169 -0.275353163480758667 -0.29098162055015564
-0.635648071765899658 0.308421999216079712 0.170138686895370483
0.51155400276184082 -0.317339122295379639 -0.03872651606798172
0.468030303716659546 -0.265755206346511841 -0.298112928867340088
0.477241277694702148 -0.294967114925384521 -0.300384104251861572
0.45723530650138855 -0.246182531118392944 -0.290036916732788086
0.380140334367752075 -0.360871434211730957 -0.214006751775741577
-0.480276435613632202 -0.0121589824557304382 0.185718148946762085
-0.517261326313018799 0.366049319505691528 0.173841699957847595
-0.619390368461608887 0.202264085412025452 -0.0874684602022171021
-0.238242581486701965 0.0191251356154680252 -0.072716154158115387
-0.383503496646881104 -0.0586682446300983429 0.0235818102955818176
0.473913908004760742 -0.368180990219116211 0.0216666944324970245
-0.650084316730499268 0.237006068229675293 0.031950388103723526
0.411619484424591064 -0.34661826491355896 -0.221794083714485168
0.525139272212982178 -0.336978882551193237 0.0799206569790840149
0.505150198936462402 -0.238978058099746704 -0.308233708143234253
0.248597204685211182 -0.281894862651824951 0.318065732717514038
0.238307952880859375 0.0668528974056243896 0.314407378435134888
0.538660585880279541 -0.301718354225158691 -0.0938080102205276489
-0.44874882698059082 -0.041005600243806839 0.126398384571075439
-0.0447129271924495697 0.10486195981502533 0.317634373903274536
0.24705931544303894 0.0213201362639665604 0.321974664926528931
-0.285827070474624634 -0.0993559509515762329 -0.099186234176158905
-0.138721972703933716 -0.0147784249857068062 -0.0489785447716712952
-0.278736293315887451 0.338123351335525513 0.0467760339379310608
-0.255591988563537598 0.290145784616470337 -0.00345731689594686031
-0.21977272629737854 0.322151511907577515 0.0696310624480247498
-0.574103951454162598 0.152519285678863525 -0.0747533664107322693
-0.290819555521011353 0.292958319187164307 0.0158318337053060532
0.52470850944519043 -0.320507824420928955 0.0270345956087112427
0.34517979621887207 -0.0303911156952381134 -0.03469863161444664
0.521320641040802002 -0.362734198570251465 0.0892566442489624023
-0.0842818915843963623 -0.111450619995594025 0.0783389359712600708
-0.404795706272125244 0.326338589191436768 0.121035143733024597
0.503821611404418945 -0.36691775918006897 -0.00462499586865305901
-0.119577661156654358 0.266376793384552002 0.120744459331035614
0.517798423767089844 -0.342793941497802734 0.0357049554586410522
0.129322916269302368 -0.334257006645202637 0.301089048385620117
0.465690076351165771 -0.310883194208145142 0.0723148956894874573
0.481922417879104614 -0.373830258846282959 0.0521871484816074371
0.420191645622253418 -0.0259429886937141418 0.0646309927105903625
0.493211865425109863 -0.363380789756774902 -0.0156736969947814941
-0.233821794390678406 0.287433862686157227 0.0839367210865020752
0.530302286148071289 -0.331610679626464844 -0.00736374175176024437
-0.272796928882598877 0.315690577030181885 0.113772355020046234
0.307312965393066406 0.0027352313045412302 0.0460663214325904846
0.466511785984039307 -0.263363689184188843 -0.296185165643692017
0.472896069288253784 -0.304150968790054321 0.114086441695690155
0.510255157947540283 -0.313518643379211426 -0.104524120688438416
0.508298337459564209 -0.245323345065116882 -0.308551132678985596
0.447024166584014893 -0.292445987462997437 -0.292869776487350464
0.465473443269729614 -0.283219277858734131 -0.297386735677719116
0.137476548552513123 0.113114461302757263 0.336540490388870239
-0.652898430824279785 0.285964727401733398 0.0977461710572242737
-0.639126718044281006 0.245063900947570801 -0.0384922288358211517
0.135445952415466309 0.0696126893162727356 0.337667584419250488
-0.57791292667388916 0.304031461477279663 -0.0558556541800498962
0.261569470167160034 0.0305988416075706482 -0.0736962258815765381
0.541065633296966553 -0.21657600998878479 0.11140519380569458
-0.36100471019744873 -0.0354833938181400299 -0.134482935070991516
-0.575549840927124023 0.327719449996948242 -0.0298636630177497864
-0.362700998783111572 -0.070612788200378418 -0.0341257676482200623
-0.131544008851051331 -0.267199218273162842 0.118967659771442413
0.494182229042053223 -0.365673214197158813 -0.000511128338985145092
0.372827529907226562 -0.359265983104705811 -0.210172459483146667
-0.379293173551559448 -0.10653260350227356 0.101195141673088074
-0.0680055469274520874 -0.263623148202896118 0.296327054500579834
0.518982827663421631 -0.24327656626701355 -0.309571355581283569
0.508527994155883789 -0.330411553382873535 0.0151291638612747192
-0.594124078750610352 0.369256466627120972 0.120329633355140686
-0.656201183795928955 0.17590796947479248 -0.103325210511684418
-0.223992034792900085 -0.143825903534889221 -0.0538580045104026794
-0.192102313041687012 0.316922366619110107 0.100496679544448853
0.255700647830963135 -0.283189594745635986 0.319498777389526367
0.238270893692970276 0.0325079523026943207 0.318882912397384644
-0.121082991361618042 -0.0457770191133022308 0.00713747460395097733
-0.642341017723083496 0.308912724256515503 0.101610742509365082
0.363704591989517212 -0.373804062604904175 -0.207086637616157532
0.53685605525970459 -0.217578575015068054 0.161686152219772339
-0.553506135940551758 0.382758080959320068 0.157741650938987732
-0.123362511396408081 0.2595939040184021 0.114878222346305847
0.118530824780464172 0.102708965539932251 0.0892094746232032776
-0.376294314861297607 0.266096711158752441 -0.0898161977529525757
0.515954852104187012 -0.348884493112564087 0.0986205488443374634
-0.29448312520980835 -0.10684610903263092 -0.109442189335823059
0.274121910333633423 0.103062525391578674 -0.0579283386468887329
-0.5759429931640625 0.219752922654151917 -0.212944954633712769
-0.116388760507106781 0.268901407718658447 0.179574429988861084
0.235052704811096191 -0.287658423185348511 0.314188003540039062
0.309202849864959717 -0.187071129679679871 0.240825429558753967
0.540837943553924561 -0.325699985027313232 -0.0210593100637197495
0.0780012831091880798 -0.337333232164382935 0.282048791646957397
-0.00742790801450610161 -0.171519637107849121 0.00411378638818860054
-0.283115684986114502 0.262014299631118774 0.0068062562495470047
0.512235105037689209 -0.237050041556358337 -0.309568673372268677
-0.647709786891937256 0.278531819581985474 0.0792782381176948547
-0.647130310535430908 0.183421745896339417 -0.0911708250641822815
0.513167321681976318 -0.322371006011962891 0.024139057844877243
-0.407825767993927002 -0.0632645264267921448 0.113372974097728729
0.515883266925811768 -0.355561524629592896 -0.0207647737115621567
-0.567319869995117188 0.374626517295837402 0.152244806289672852
0.235027804970741272 0.0433180518448352814 0.313429713249206543
-0.665609955787658691 0.227402403950691223 0.0228293947875499725
-0.448956131935119629 -0.0381079874932765961 0.126906707882881165
0.502073049545288086 -0.302174270153045654 -0.179008826613426208
-0.589876830577850342 0.361307770013809204 0.0858219638466835022
-0.194942653179168701 0.315198928117752075 0.104616299271583557
0.246044144034385681 0.0242241695523262024 0.323568582534790039
0.529985189437866211 -0.323672443628311157 -0.0582213252782821655
-0.183688953518867493 0.307309746742248535 0.128235235810279846
0.246286913752555847 0.00730356946587562561 0.323702782392501831
0.0577946379780769348 0.140024855732917786 0.345510810613632202
-0.506464242935180664 0.14979378879070282 0.356697350740432739
0.269755959510803223 -0.310943961143493652 0.326043307781219482
-0.254668235778808594 0.0238639954477548599 -0.0709285661578178406
0.240102648735046387 -0.294973522424697876 0.322290420532226562
0.248080447316169739 0.044095456600189209 0.314153999090194702
0.467474073171615601 -0.101857781410217285 0.0343982316553592682
-0.125632956624031067 0.195421159267425537 0.115162648260593414
0.238988637924194336 -0.326293975114822388 0.317743867635726929
0.499297082424163818 -0.366430044174194336 0.0744959786534309387
0.522500157356262207 -0.324574381113052368 0.0260582771152257919
0.443703502416610718 -0.253034919500350952 0.332160711288452148
0.320534616708755493 -0.131321996450424194 -0.10686107724905014
0.0624546967446804047 -0.0103690577670931816 0.321477293968200684
0.510353684425354004 -0.360737144947052002 0.0473599545657634735
0.134700953960418701 -0.100409321486949921 0.0403276719152927399
0.0485888049006462097 0.0118303094059228897 0.0294848605990409851
0.0198634285479784012 0.0485206358134746552 0.0423407256603240967
0.0872002169489860535 -0.0656863376498222351 0.289418131113052368
-0.163063392043113708 -0.265286356210708618 0.147853896021842957
0.26401403546333313 -0.0199845917522907257 0.0612868554890155792
-0.0298148952424526215 -0.0286329612135887146 0.295346349477767944
0.501298964023590088 -0.240293055772781372 -0.3021526038646698
0.475038379430770874 -0.314898759126663208 -0.302080422639846802
-0.631628811359405518 0.306572526693344116 0.167123407125473022
0.474534571170806885 -0.32066035270690918 0.120851144194602966
0.508168220520019531 -0.300748437643051147 -0.105687402188777924
0.527349293231964111 -0.274860978126525879 -0.317322760820388794
0.492656171321868896 -0.332364052534103394 -0.310830831527709961
0.502585530281066895 -0.319990485906600952 0.0978509187698364258
0.473285794258117676 -0.305734872817993164 -0.298233747482299805
-0.560024082660675049 0.268433123826980591 0.364311546087265015
0.124153837561607361 0.117165900766849518 0.313956797122955322
-0.63430553674697876 0.282499492168426514 0.05400809645652771
-0.588059723377227783 0.363065719604492188 0.102166227996349335
0.370547384023666382 -0.373960644006729126 -0.212863504886627197
0.437515944242477417 -0.34781375527381897 0.154172375798225403
0.0572716891765594482 0.121649608016014099 0.320886164903640747
-0.575252413749694824 0.369115620851516724 0.215315848588943481
0.26382485032081604 0.0247133150696754456 -0.0588991641998291016
0.367838442325592041 -0.336605697870254517 0.160447925329208374
0.509611964225769043 -0.301469147205352783 -0.112135440111160278
0.132648050785064697 -0.320371121168136597 -0.0978836268186569214
0.515662670135498047 -0.348687887191772461 -0.0204219501465559006
0.388355523347854614 -0.346697896718978882 -0.214223325252532959
-0.577743470668792725 0.319335699081420898 0.0405211672186851501
0.535168647766113281 -0.277830779552459717 -0.320725768804550171
0.466993600130081177 -0.310868978500366211 -0.299370050430297852
0.506279706954956055 -0.3470192551612854 0.0177932661026716232
-0.556620419025421143 0.31000065803527832 0.102015182375907898
0.192918479442596436 -0.339155793190002441 -0.0592861473560333252
0.0691460072994232178 -0.281978458166122437 -0.0780058279633522034
0.251576095819473267 -0.250041395425796509 0.319962143898010254
0.239064514636993408 0.0311494637280702591 0.316660702228546143
-0.121944233775138855 -0.0475749224424362183 0.00799247249960899353
0.177834644913673401 -0.100010856986045837 -0.014982529915869236
0.531564414501190186 -0.332218319177627563 -0.0133019033819437027
0.369419991970062256 -0.349415004253387451 -0.209002315998077393
0.534109413623809814 -0.245731502771377563 0.177102833986282349
0.56029975414276123 -0.31577494740486145 -0.331052213907241821
0.553686618804931641 -0.211636751890182495 0.133756041526794434
-0.543969511985778809 0.381063938140869141 0.164285436272621155
0.122039832174777985 0.117378488183021545 0.132881879806518555
-0.582944631576538086 0.35218888521194458 0.0975594297051429749
-0.48234856128692627 0.186186805367469788 -0.0917516648769378662
0.514739155769348145 -0.339091062545776367 0.0386970080435276031
0.252582371234893799 -0.278962880373001099 0.321783542633056641
0.27756422758102417 -0.355843633413314819 -0.126174867153167725
0.507064521312713623 -0.286640673875808716 -0.313793718814849854
-0.432953536510467529 -0.0569456741213798523 0.116592608392238617
0.201131626963615417 0.0906731486320495605 0.223118573427200317
0.243461385369300842 0.104582980275154114 -0.0574903786182403564
-0.196443215012550354 0.201864883303642273 0.34912225604057312
0.249626144766807556 0.0251088403165340424 0.323091715574264526
0.238982915878295898 0.0192084573209285736 0.320787250995635986
-0.0322070792317390442 0.163022458553314209 0.382464796304702759
-0.483274310827255249 -0.015375971794128418 0.180067464709281921
0.482921689748764038 -0.369000673294067383 0.0459418334066867828
-0.644228458404541016 0.287344902753829956 0.085995204746723175
0.275053530931472778 -0.165747538208961487 -0.0706457570195198059
-0.4126320481300354 -0.0566249340772628784 0.0788092762231826782
-0.643789052963256836 0.17589491605758667 -0.0822464302182197571
-0.226829946041107178 -0.133721679449081421 -0.0523200929164886475
0.254086405038833618 -0.265375643968582153 0.320944666862487793
-0.346177458763122559 0.0174977667629718781 -0.117051579058170319
-0.288005083799362183 -0.0913558527827262878 -0.106611281633377075
-0.585843443870544434 0.209965795278549194 -0.218252792954444885
0.266738921403884888 -0.296841949224472046 0.31502184271812439
-0.0265257582068443298 -0.187077596783638 -0.0435755737125873566
-0.618791699409484863 0.277135848999023438 0.0311812162399291992
-0.609550595283508301 0.298468708992004395 0.0922753959894180298
-0.398369401693344116 -0.0626151636242866516 0.118793852627277374
-0.452493637800216675 -0.0379394926130771637 0.119389839470386505
0.430276691913604736 -0.271660745143890381 0.32903638482093811
-0.0532541163265705109 0.140994623303413391 0.0915136486291885376
-0.503730356693267822 0.15141807496547699 0.355313152074813843
0.239951983094215393 -0.319118589162826538 0.322641342878341675
0.496306091547012329 -0.370820522308349609 0.0572599135339260101
0.39846426248550415 -0.256770819425582886 0.322308361530303955
-0.159200519323348999 -0.263269633054733276 0.181480094790458679
-0.49993586540222168 0.0142595237120985985 0.157978251576423645
0.416750937700271606 -0.297284901142120361 0.328585565090179443
0.534488439559936523 -0.340207755565643311 -0.0185304302722215652
0.343413412570953369 -0.26741454005241394 -0.127958968281745911
-0.497212588787078857 0.0722256004810333252 0.203872367739677429
0.442823261022567749 -0.272108793258666992 0.333265095949172974
0.5212211012840271 -0.335407525300979614 0.0327005833387374878
0.452547758817672729 -0.319997966289520264 -0.293111890554428101
0.473415851593017578 -0.311676025390625 0.116589747369289398
0.516448497772216797 -0.278530627489089966 -0.312906801700592041
0.501872062683105469 -0.326050519943237305 -0.314397215843200684
0.517312049865722656 -0.327114641666412354 0.10181533545255661
0.478517860174179077 -0.311535567045211792 -0.302250951528549194
0.113746128976345062 0.118768878281116486 0.288817346096038818
-0.122704625129699707 0.26883581280708313 0.158586934208869934
-0.615539014339447021 0.265619069337844849 0.0518939271569252014
-0.48015323281288147 0.00329445069655776024 0.181247547268867493
0.425847381353378296 -0.355000734329223633 0.158452287316322327
-0.293180555105209351 -0.110427990555763245 -0.105865433812141418
0.129690349102020264 0.0656897202134132385 0.321033239364624023
0.252897053956985474 0.0386312156915664673 -0.0780127197504043579
0.234679684042930603 0.0938210710883140564 -0.0533087402582168579
0.416854351758956909 -0.261639177799224854 -0.202445358037948608
0.520874917507171631 -0.354685425758361816 -0.0195470117032527924
-0.609563887119293213 0.381272286176681519 0.181062981486320496
0.516800165176391602 -0.279431372880935669 -0.314829051494598389
0.498299539089202881 -0.35002744197845459 0.0239844918251037598
-0.58854210376739502 0.369441837072372437 0.112852863967418671
0.505198299884796143 -0.104768812656402588 0.147112607955932617
-0.198800459504127502 0.311737895011901855 0.112737871706485748
0.263189882040023804 -0.286426246166229248 0.319610744714736938
0.236103609204292297 0.0622509978711605072 0.310319036245346069
-0.145379692316055298 -0.043315201997756958 0.00405955268070101738
-0.65852963924407959 0.214797496795654297 -0.0464054234325885773
-0.289460301399230957 -0.0758077949285507202 -0.068718932569026947
0.226412445306777954 0.0421350523829460144 -0.048364490270614624
0.550770461559295654 -0.144534379243850708 0.131884798407554626
0.518961966037750244 -0.295394361019134521 0.0747864842414855957
0.516791641712188721 -0.284154623746871948 -0.181274443864822388
-0.358905375003814697 -0.0169371161609888077 -0.0280567426234483719
0.090633004903793335 0.0883080214262008667 0.0855744034051895142
0.465805709362030029 -0.361930340528488159 -0.0107623022049665451
-0.433713346719741821 0.157867163419723511 -0.0666482150554656982
0.522986829280853271 -0.335669517517089844 0.0687973946332931519
0.262049496173858643 -0.285794734954833984 0.318334013223648071
0.00843898952007293701 -0.0908441171050071716 -0.0262505114078521729
0.03162384033203125 -0.130229637026786804 0.0217401627451181412
-0.631456136703491211 0.265122354030609131 0.0288429055362939835
0.241312071681022644 0.0744171068072319031 0.318583905696868896
0.239372238516807556 0.0296751130372285843 0.318674087524414062
-0.175596952438354492 0.301015287637710571 0.116113431751728058
0.303777903318405151 -0.151194140315055847 0.307612895965576172
0.261083722114562988 -0.290594935417175293 0.320819973945617676
-0.476986169815063477 -0.00797975622117519379 0.16611945629119873
0.241947829723358154 0.0818503201007843018 0.311940699815750122
0.519406020641326904 -0.351317256689071655 0.0818322151899337769
-0.03583526611328125 -0.237381488084793091 0.123986057937145233
-0.639041244983673096 0.290131062269210815 0.098627239465713501
-0.235143274068832397 -0.132696062326431274 -0.0581046305596828461
-0.380137592554092407 -0.108615688979625702 0.105458401143550873
-0.237353995442390442 -0.147716432809829712 -0.057946525514125824
-0.658739924430847168 0.214494436979293823 -0.0341081023216247559
0.528047442436218262 -0.352651000022888184 0.0777761265635490417
-0.621895968914031982 0.270393013954162598 0.0522881634533405304
-0.404990077018737793 -0.0641608163714408875 0.111968003213405609
-0.447154879570007324 -0.0413252413272857666 0.121895849704742432
0.267153412103652954 -0.285489439964294434 0.323294281959533691
0.126746639609336853 -0.326412975788116455 0.31242060661315918
0.151403844356536865 -0.342913687229156494 0.317690908908843994
0.446871042251586914 -0.335753440856933594 -0.293083667755126953
0.514916598796844482 -0.303046345710754395 -0.108055755496025085
0.514419794082641602 -0.280402064323425293 -0.312924802303314209
0.484030157327651978 -0.327815979719161987 -0.3098793625831604
0.463492602109909058 -0.346019476652145386 -0.302753180265426636
0.548806309700012207 -0.210386857390403748 -0.316091567277908325
0.52328723669052124 -0.300185590982437134 -0.322571903467178345
0.517149209976196289 -0.300995856523513794 -0.318468213081359863
0.246027544140815735 0.0571367740631103516 0.316178858280181885
0.240518137812614441 0.0876036062836647034 0.31250762939453125
-0.292632073163986206 -0.100429274141788483 -0.10199582576751709
-0.454414993524551392 -0.0518075376749038696 0.116991803050041199
0.403934121131896973 -0.272193998098373413 0.322354435920715332
-0.503191590309143066 0.00396645860746502876 0.189025044441223145
0.400223672389984131 -0.287171065807342529 0.324670881032943726
0.398373067378997803 -0.273487240076065063 0.323149383068084717
0.341334521770477295 -0.258942484855651855 0.0899669677019119263
-0.0197394844144582748 -0.244174256920814514 0.128557056188583374
-0.465291231870651245 0.0361802317202091217 0.189445436000823975
-0.195199981331825256 0.221788704395294189 0.17188669741153717
0.365925252437591553 -0.329283416271209717 -0.0236251316964626312
0.322468966245651245 -0.390119194984436035 -0.158968716859817505
0.53458017110824585 -0.323680400848388672 -0.058322366327047348
-0.442577362060546875 -0.00454147066920995712 0.152600854635238647
-0.0200428422540426254 -0.0593242943286895752 0.141580820083618164
-0.00119188113603740931 -0.235917344689369202 0.106278754770755768
0.525383651256561279 -0.201886847615242004 -0.080155104398727417
0.448935866355895996 -0.308444291353225708 -0.292970806360244751
0.526020348072052002 -0.27556300163269043 -0.315777570009231567
0.49906611442565918 -0.32500031590461731 -0.312767148017883301
0.474365800619125366 -0.305164545774459839 -0.297486245632171631
-0.128276154398918152 0.246796920895576477 0.138773486018180847
-0.649744510650634766 0.282147139310836792 0.0940078571438789368
-0.199727311730384827 0.286891072988510132 0.335735619068145752
0.497180640697479248 -0.0867908746004104614 0.136474609375
0.199768170714378357 -0.359085023403167725 -0.090898856520652771
0.504540145397186279 -0.367706775665283203 -0.0228053983300924301
0.526425361633300781 -0.242677599191665649 0.172805815935134888
-0.586680829524993896 0.37949177622795105 0.170454889535903931
0.44414830207824707 -0.315033465623855591 -0.287845700979232788
0.497753947973251343 -0.111158140003681183 0.111997365951538086
-0.656580090522766113 0.175592139363288879 -0.104021981358528137
-0.202778860926628113 0.308926224708557129 0.0889499261975288391
0.200441122055053711 -0.0134510817006230354 0.295056074857711792
0.159113407135009766 -0.0620983801782131195 -0.0442189015448093414
-0.580248475074768066 0.302466362714767456 0.36851385235786438
0.274214446544647217 0.0983089357614517212 -0.0293567460030317307
-0.436086118221282959 0.155563980340957642 -0.0861742869019508362
0.533591210842132568 -0.333069175481796265 0.0126382242888212204
-0.569563090801239014 0.197420135140419006 -0.229332253336906433
-0.4984721839427948 0.0451677851378917694 -0.0869969204068183899
0.0304906796663999557 -0.103835858404636383 0.0328833647072315216
0.533277750015258789 -0.264604806900024414 -0.316425204277038574
0.00895527936518192291 0.197762057185173035 0.0273655932396650314
0.30130574107170105 0.0388049222528934479 -0.0846938937902450562
-0.333025723695755005 -0.0158075988292694092 -0.10780373215675354
0.235643118619918823 0.0145691391080617905 0.321593940258026123
0.12421175092458725 0.0131824053823947906 0.298768460750579834
0.526664435863494873 -0.355170726776123047 0.0662245228886604309
0.466231793165206909 -0.309917271137237549 -0.23321928083896637
-0.652722001075744629 0.285488754510879517 0.104116037487983704
0.545771420001983643 -0.219964578747749329 0.163364484906196594
0.527190208435058594 -0.323401957750320435 -0.0161478687077760696
-0.383817136287689209 -0.0561608150601387024 0.0761459916830062866
0.456059187650680542 -0.310926288366317749 -0.292667627334594727
0.504143118858337402 -0.339920848608016968 -0.318001896142959595
0.47798493504524231 -0.314409941434860229 -0.299609929323196411
0.519557178020477295 -0.301400274038314819 -0.317432701587677002
-0.00319285434670746326 -0.139809891581535339 -0.0249067079275846481
0.39670678973197937 -0.273044615983963013 0.323324233293533325
0.400378525257110596 -0.271472930908203125 0.323629498481750488
0.505251228809356689 -0.331969261169433594 0.105741620063781738
-0.468288064002990723 0.0427110716700553894 0.170556679368019104
0.409174442291259766 -0.345816493034362793 0.156471580266952515
-0.361616939306259155 -0.035096336156129837 -0.148186013102531433
-0.129081204533576965 -0.267438918352127075 0.112331956624984741
0.511760890483856201 -0.369043290615081787 -0.0147497998550534248
-0.214397847652435303 0.312732934951782227 0.0974846407771110535
0.249752894043922424 -0.28692963719367981 0.32275921106338501
0.208106577396392822 0.00945244822651147842 -0.0462825261056423187
0.0690813586115837097 -0.151354551315307617 -0.0173256807029247284
-0.170437470078468323 0.304967761039733887 0.118675373494625092
0.4702586829662323 -0.364345937967300415 0.00695962365716695786
-0.291752249002456665 -0.0992202311754226685 -0.103253550827503204
0.035572342574596405 -0.149504512548446655 -0.0217888504266738892
0.231397926807403564 0.0563722476363182068 0.309005469083786011
0.252558648586273193 -0.288493126630783081 0.320540815591812134
-0.472400456666946411 0.00141450157389044762 0.16858343780040741
0.240219846367835999 0.0628221482038497925 0.31290137767791748
0.508137226104736328 -0.352012574672698975 0.0638726279139518738
0.226579800248146057 -0.314625680446624756 0.314447849988937378
-0.376137793064117432 -0.0928756967186927795 0.0861436724662780762
-0.0634905770421028137 -0.241344287991523743 0.3024425208568573
-0.223496213555335999 -0.127436429262161255 -0.0531683824956417084
-0.410607725381851196 -0.0651783645153045654 0.0984619110822677612
-0.445697963237762451 -0.0444444753229618073 0.132669955492019653
0.238142669200897217 -0.293868511915206909 0.314317852258682251
0.153078660368919373 -0.324120312929153442 0.320001810789108276
0.424525231122970581 -0.255965620279312134 0.328476220369338989
0.43741878867149353 -0.342976987361907959 -0.29273638129234314
0.505563676357269287 -0.334623724222183228 -0.318147420883178711
0.444267749786376953 -0.352322310209274292 -0.286793231964111328
0.237486585974693298 0.0658863931894302368 0.312180846929550171
0.402451843023300171 -0.287400305271148682 0.325795382261276245
-0.495413213968276978 0.00700144469738006592 0.188311561942100525
0.485029935836791992 -0.0632302090525627136 0.131594687700271606
0.0116874333471059799 -0.170517817139625549 0.00978256948292255402
0.530781149864196777 -0.307617902755737305 -0.0622890815138816833
0.313961178064346313 -0.302222907543182373 -0.126881390810012817
0.445120960474014282 -0.291378527879714966 -0.2857094407081604
-0.337489783763885498 0.224940747022628784 0.125614926218986511
-0.401533693075180054 -0.0279185641556978226 -0.00196443847380578518
0.402364820241928101 -0.271616429090499878 0.324013024568557739
-0.133922085165977478 0.196026504039764404 0.167620494961738586
0.398413479328155518 -0.271551787853240967 0.323826014995574951
-0.447175979614257812 -0.0246892049908638 0.0213528815656900406
-0.138581171631813049 0.245085179805755615 0.191569089889526367
-0.613264203071594238 0.294254302978515625 0.183602467179298401
0.123867921531200409 0.116299070417881012 0.316546082496643066
-0.121526509523391724 0.250806510448455811 0.161696866154670715
-0.583785057067871094 0.348345488309860229 0.0579654127359390259
0.42608952522277832 -0.347995221614837646 0.152957320213317871
-0.567243874073028564 0.295239627361297607 -0.0691767558455467224
0.251151412725448608 0.026765117421746254 -0.0797341018915176392
0.246980845928192139 0.100431770086288452 -0.048532683402299881
-0.358098357915878296 -0.0554404482245445251 -0.141915753483772278
0.198036164045333862 0.120316959917545319 0.0355836935341358185
0.544898808002471924 -0.131484970450401306 0.111881986260414124
-0.582120835781097412 0.321943014860153198 -0.02303280308842659
0.20544375479221344 0.0248527992516756058 0.176695153117179871
-0.595771968364715576 0.375367134809494019 0.17186698317527771
0.444073259830474854 -0.319098860025405884 0.127293169498443604
0.25436168909072876 -0.278460115194320679 0.316384613513946533
0.234861403703689575 0.0240032169967889786 0.316437870264053345
-0.363527685403823853 -0.0494355373084545135 -0.0238203182816505432
-0.183248907327651978 0.118418224155902863 0.0422009378671646118
0.254075407981872559 -0.287898510694503784 0.319201260805130005
0.241300880908966064 0.0333739593625068665 0.32169950008392334
0.399179220199584961 0.0234189983457326889 0.115002073347568512
-0.34114190936088562 -0.0657928064465522766 -0.147358879446983337
0.0750648677349090576 -0.332580327987670898 0.298883348703384399
-0.387338817119598389 -0.0604063309729099274 0.0937796607613563538
-0.448730021715164185 -0.0409209318459033966 0.127678751945495605
0.43867337703704834 -0.27909359335899353 0.333552062511444092
0.0337293297052383423 -0.122564762830734253 -0.0257053375244140625
0.41363099217414856 -0.280539274215698242 0.326894253492355347
0.432343453168869019 -0.295840293169021606 0.333055943250656128
0.367182046175003052 -0.27855190634727478 -0.130355015397071838
-0.477873533964157104 0.00188426719978451729 0.188288301229476929
-0.292164266109466553 -0.0959308892488479614 -0.104586213827133179
0.240691691637039185 -0.312658697366714478 0.309565812349319458
0.472490161657333374 -0.354068785905838013 0.00696749566122889519
-0.296993106603622437 -0.0961819961667060852 -0.107038348913192749
0.244052529335021973 -0.288241833448410034 0.319955170154571533
0.0616018734872341156 -0.329279690980911255 0.296969622373580933
0.157259285449981689 -0.267467349767684937 -0.105581335723400116
0.249516978859901428 0.0636269301176071167 0.315324485301971436
-0.483000487089157104 -0.00749245472252368927 0.177887380123138428
0.23565848171710968 0.0668041780591011047 0.314682871103286743
0.238030239939689636 -0.331461876630783081 0.321295052766799927
-0.382823288440704346 -0.0915754660964012146 0.0366956815123558044
-0.216764882206916809 -0.139670252799987793 -0.0544000007212162018
-0.383246570825576782 -0.0632159784436225891 0.0834965482354164124
0.149290487170219421 -0.331228435039520264 0.331791549921035767
0.445195943117141724 -0.279627352952957153 0.333476126194000244
0.40674099326133728 -0.280248582363128662 0.325006395578384399
-0.502501368522644043 0.00698037911206483841 0.188623487949371338
-0.32245171070098877 0.0975500345230102539 -0.0703627243638038635
0.531886696815490723 -0.207413002848625183 -0.0527339726686477661
0.45031622052192688 -0.293818831443786621 -0.290596842765808105
0.486792445182800293 -0.325169146060943604 -0.311009705066680908
0.445755869150161743 -0.309657275676727295 -0.290960133075714111
-0.578107059001922607 0.269481450319290161 0.365709155797958374
-0.461948543787002563 0.106052234768867493 -0.231128573417663574
0.374139100313186646 -0.318452924489974976 0.198973551392555237
-0.590152263641357422 0.3671150803565979 0.131079867482185364
0.391858100891113281 -0.353319466114044189 -0.217594161629676819
0.440449714660644531 -0.310198128223419189 -0.289169847965240479
-0.201161757111549377 0.305655837059020996 0.0948125794529914856
-0.156017139554023743 0.268173307180404663 0.151513785123825073
0.529150009155273438 -0.338299691677093506 0.0717140212655067444
0.463169455528259277 -0.266056835651397705 -0.21779322624206543
-0.633905708789825439 0.275908052921295166 0.106883198022842407
0.437770038843154907 -0.308489888906478882 -0.287341177463531494
0.514863550662994385 -0.277147412300109863 -0.316976368427276611
0.515971362590789795 -0.340276420116424561 -0.320882648229598999
0.453722298145294189 -0.306975483894348145 -0.293395042419433594
0.490231454372406006 -0.321776717901229858 0.0942696407437324524
0.0198699124157428741 -0.275450050830841064 -0.0186209902167320251
-0.6545143723487854 0.172132283449172974 -0.108298078179359436
-0.225183650851249695 0.318764984607696533 0.12121313065290451
0.464653879404067993 -0.363950639963150024 0.00579746207222342491
0.480395704507827759 -0.336665540933609009 0.0501630157232284546
0.510871529579162598 -0.339335978031158447 -0.319541990756988525
0.439527064561843872 -0.356475234031677246 -0.297745943069458008
-0.270498842000961304 0.32221183180809021 0.0417315885424613953
0.423483580350875854 -0.313205987215042114 -0.282035619020462036
0.41482970118522644 -0.294995218515396118 0.328341782093048096
-0.326659440994262695 -0.0750201120972633362 0.123427264392375946
-0.36742401123046875 -0.0663344264030456543 0.154633820056915283
-0.338743060827255249 0.21511252224445343 0.13275417685508728
0.00945537351071834564 0.11963488906621933 0.104995720088481903
0.541387379169464111 -0.309085369110107422 -0.0463222377002239227
0.0129076316952705383 -0.261427253484725952 0.0394517593085765839
-0.00426113232970237732 -0.236194595694541931 0.0941920801997184753
