ply
format ascii 1.0
element vertex 737
property float x
property float y
property float z
end_header
-0.101993635296821594 0.143373623490333557 0.0933223739266395569
0.499366521835327148 -0.363134473562240601 0.076090790331363678
0.348545163869857788 -0.283162772655487061 -0.135249614715576172
-0.412690937519073486 0.197778403759002686 0.0361041314899921417
-0.345491170883178711 0.251338601112365723 -0.0137406392022967339
-0.267789453268051147 0.0786623060703277588 -0.0148782264441251755
-0.181073293089866638 0.0183502230793237686 0.0394138693809509277
-0.55371701717376709 0.21230664849281311 -0.0477580428123474121
0.407385855913162231 -0.401101678609848022 -0.215902343392372131
0.517242252826690674 -0.28548082709312439 -0.100510440766811371
0.394850850105285645 -0.264724820852279663 -0.193927332758903503
0.497474402189254761 -0.274542748928070068 -0.300989508628845215
0.434129685163497925 -0.257583200931549072 -0.00207655830308794975
-0.154691651463508606 -0.244252905249595642 0.148696392774581909
-0.630439102649688721 0.19408610463142395 -0.0480853430926799774
-0.35528978705406189 0.00020760454935953021 -0.151419520378112793
-0.501349270343780518 0.146016523241996765 0.346021175384521484
-0.331921130418777466 0.299394220113754272 0.190836474299430847
-0.334912866353988647 -0.031775888055562973 -0.132545381784439087
0.11279064416885376 0.0950010418891906738 0.0290923267602920532
0.46969178318977356 -0.135326355695724487 0.0992499589920043945
0.398605763912200928 -0.305237263441085815 0.144973665475845337
-0.457527965307235718 0.167341962456703186 0.116558007895946503
-0.536600887775421143 0.286960721015930176 0.041799839586019516
-0.276565104722976685 -0.127774536609649658 0.0817466303706169128
-0.48333314061164856 0.248768612742424011 -0.103261746466159821
0.170800074934959412 -0.272247463464736938 0.0364663638174533844
-0.344943076372146606 0.103206142783164978 0.00632632989436388016
-0.366270691156387329 0.282612144947052002 0.0867935121059417725
0.386159539222717285 -0.230283930897712708 -0.121929898858070374
-0.353369176387786865 0.00226391595788300037 0.0350901633501052856
-0.518333137035369873 0.20169125497341156 0.0489008761942386627
-0.385241866111755371 0.182561501860618591 0.0919673442840576172
-0.572081089019775391 0.32778206467628479 -0.0119634326547384262
-0.339368581771850586 -0.0878810957074165344 -0.0541367307305335999
-0.137175425887107849 -0.269136399030685425 0.130226463079452515
0.274670839309692383 -0.166128158569335938 0.0548599958419799805
0.312765747308731079 -0.302831649780273438 -0.128516480326652527
-0.381501942873001099 0.250002175569534302 0.233237430453300476
0.310385435819625854 -0.217409506440162659 0.20106138288974762
0.495973765850067139 -0.255232691764831543 -0.105618782341480255
-0.119260981678962708 0.0722923204302787781 0.17350296676158905
0.51214301586151123 -0.36222115159034729 -0.0308936275541782379
-0.509444236755371094 0.268681854009628296 -0.005196381825953722
-0.595468759536743164 0.243576958775520325 -0.00298776896670460701
-0.586560547351837158 0.250685572624206543 0.194096356630325317
-0.548069775104522705 0.120997436344623566 -0.134436219930648804
-0.245186954736709595 0.182451993227005005 0.356854468584060669
0.462072521448135376 -0.264477789402008057 -0.290536433458328247
0.455788105726242065 -0.256231248378753662 -0.187064632773399353
0.519047141075134277 -0.303115814924240112 0.0443595685064792633
-0.62595522403717041 0.199924439191818237 0.0446769893169403076
-0.25609588623046875 -0.00488377362489700317 -0.0622922107577323914
0.245195209980010986 0.0985321328043937683 -0.0691245347261428833
0.504603028297424316 -0.16031414270401001 0.130715802311897278
0.342820227146148682 -0.0703762844204902649 0.161924988031387329
0.399520516395568848 -0.23741208016872406 0.130210012197494507
-0.359918445348739624 -0.118926592171192169 0.116388425230979919
-0.479322165250778198 0.189304456114768982 0.0637985393404960632
-0.574964463710784912 0.341615557670593262 0.0250340793281793594
-0.359297126531600952 -0.0634982064366340637 0.0907597914338111877
-0.343080133199691772 0.0114165181294083595 -0.114547327160835266
0.302692651748657227 -0.296129077672958374 0.161966606974601746
-0.504921793937683105 0.220642015337944031 0.141752287745475769
-0.485493659973144531 0.0282072778791189194 -0.0470439121127128601
0.0329131036996841431 0.0875635594129562378 0.0877308696508407593
-0.231775388121604919 0.346807241439819336 0.148706614971160889
0.0316164940595626831 0.0101556805893778801 0.0419716835021972656
-0.366030842065811157 -0.0369140990078449249 -0.0328564979135990143
-0.0483474209904670715 -0.234404027462005615 0.301649242639541626
0.185547128319740295 -0.293100416660308838 0.0036168291699141264
0.234394431114196777 -0.0119676683098077774 0.230123639106750488
-0.526759207248687744 0.140379294753074646 0.0678693652153015137
-0.520612180233001709 0.201087221503257751 -0.0675701871514320374
-0.552534282207489014 0.285360217094421387 0.107357881963253021
0.143503203988075256 0.00744120124727487564 0.307674199342727661
0.0676058381795883179 -0.28637230396270752 -0.0815230533480644226
-0.362319886684417725 0.0350377745926380157 -0.161310911178588867
0.307018011808395386 -0.293970048427581787 0.0294370986521244049
-0.339544475078582764 0.213107913732528687 0.159119278192520142
-0.188393831253051758 0.199723944067955017 0.367736876010894775
-0.540385961532592773 0.254508495330810547 -0.0843169912695884705
0.522251605987548828 -0.200058668851852417 -0.0928279384970664978
-0.519334316253662109 0.185030549764633179 0.136367008090019226
-0.543980896472930908 0.269623667001724243 -0.00260839704424142838
0.470736801624298096 -0.32663455605506897 0.0444507226347923279
0.288572609424591064 0.0305184591561555862 0.0536181330680847168
0.432886987924575806 -0.306440740823745728 -0.28521883487701416
-0.518963217735290527 0.0897643417119979858 -0.135257318615913391
-0.60088270902633667 0.284966200590133667 0.183833479881286621
0.467277258634567261 -0.321565389633178711 0.127232208847999573
0.467236459255218506 -0.260989278554916382 -0.293801873922348022
-0.404326438903808594 0.300194412469863892 0.142729669809341431
-0.45460742712020874 0.119181811809539795 -0.224088981747627258
0.481149286031723022 -0.312256038188934326 -0.302622050046920776
0.467814326286315918 -0.331111222505569458 -0.00315087917260825634
0.456881880760192871 -0.30569303035736084 -0.292554318904876709
0.52388077974319458 -0.262384861707687378 -0.102202087640762329
-0.40908348560333252 0.318297654390335083 0.162591233849525452
-0.56108403205871582 0.267225980758666992 0.365175962448120117
-0.576520323753356934 0.210218742489814758 -0.201022759079933167
0.44702574610710144 -0.297001570463180542 -0.223181232810020447
0.310078352689743042 -0.076686367392539978 0.148688197135925293
0.534291982650756836 -0.24872221052646637 0.101004950702190399
-0.562970459461212158 0.119499184191226959 -0.233459904789924622
-0.408554524183273315 0.0764226615428924561 -0.11667332798242569
-0.580033600330352783 0.355994492769241333 0.0824515596032142639
0.0410760343074798584 0.114114776253700256 0.312217146158218384
-0.45698392391204834 0.00868781562894582748 0.181551754474639893
0.40907210111618042 -0.344334065914154053 0.159763291478157043
-0.555088162422180176 0.288126081228256226 -0.0494264177978038788
0.542797386646270752 -0.256377726793289185 0.113439902663230896
0.0236783009022474289 -0.250039875507354736 0.204928472638130188
0.195207327604293823 0.129510611295700073 0.0347107499837875366
0.315111547708511353 -0.37085375189781189 -0.157133564352989197
0.110279247164726257 0.0591498203575611115 0.318906843662261963
-0.315206974744796753 0.306091547012329102 0.284077435731887817
-0.254845201969146729 -0.132874175906181335 -0.0732569247484207153
-0.386873215436935425 -0.060370374470949173 0.106329016387462616
0.452819466590881348 -0.0732443034648895264 -0.116621159017086029
0.315505713224411011 -0.333456665277481079 0.195650264620780945
0.297422409057617188 0.0376549847424030304 0.0499195270240306854
0.475528448820114136 -0.331380903720855713 0.136202782392501831
0.439430087804794312 -0.267895370721817017 -0.282408684492111206
0.461081326007843018 -0.273490756750106812 0.137768000364303589
0.503692090511322021 -0.346790999174118042 0.0172514412552118301
0.518610835075378418 -0.269973933696746826 -0.0873325616121292114
0.498350739479064941 -0.0885713696479797363 0.161600887775421143
0.541949570178985596 -0.215703338384628296 0.110627338290214539
-0.577457129955291748 0.326518654823303223 0.0802662298083305359
0.246337607502937317 0.11077079176902771 -0.0545758605003356934
0.0332623235881328583 0.0679969638586044312 0.272397816181182861
-0.562439262866973877 0.274899184703826904 0.0237747170031070709
-0.614355266094207764 0.271684944629669189 0.0383619032800197601
0.535308182239532471 -0.239671751856803894 0.102660767734050751
-0.576460659503936768 0.212378352880477905 -0.116925641894340515
-0.425466269254684448 0.0304525662213563919 -0.188679873943328857
0.304135680198669434 -0.126853451132774353 -0.108472064137458801
-0.385489404201507568 -0.0558878369629383087 0.10056941956281662
-0.603661715984344482 0.259222477674484253 0.0172588154673576355
-0.461080878973007202 0.305968761444091797 0.0810914114117622375
0.504559814929962158 -0.264342218637466431 -0.109442196786403656
0.534298896789550781 -0.192801252007484436 0.0284755118191242218
-0.616605997085571289 0.210157200694084167 -0.0563322566449642181
0.452246099710464478 -0.124066866934299469 0.0891659632325172424
0.033255256712436676 -0.279709696769714355 -0.0358991436660289764
0.401637881994247437 -0.319181561470031738 0.130736216902732849
-0.0941677987575531006 0.073679313063621521 0.293109148740768433
0.242865517735481262 -0.137160167098045349 0.0109748058021068573
0.161005944013595581 -0.271796107292175293 0.0437671691179275513
-0.590974748134613037 0.368780761957168579 0.0900488793849945068
0.0266962535679340363 -0.0120644066482782364 0.0278413631021976471
0.195431962609291077 0.0335894487798213959 0.177999734878540039
-0.306425631046295166 -0.0915971696376800537 0.305364638566970825
0.493368476629257202 -0.367206841707229614 0.0196326952427625656
0.521276593208312988 -0.311786353588104248 0.0458446070551872253
0.502314329147338867 -0.153941795229911804 0.11876949667930603
0.0804854556918144226 -0.272262662649154663 -0.0596173964440822601
-0.325788676738739014 -0.103392608463764191 0.0883331522345542908
-0.586597144603729248 0.334448039531707764 0.0183930639177560806
-0.0741143301129341125 -0.235955327749252319 0.301516711711883545
0.193980515003204346 -0.340135037899017334 -0.0624496191740036011
-0.3992653489112854 0.271704584360122681 -0.0547468438744544983
-0.522146463394165039 0.0438899770379066467 -0.0578688904643058777
-0.258163630962371826 0.141907677054405212 0.0912253111600875854
-0.213901236653327942 -0.13592231273651123 -0.0633306056261062622
0.50819087028503418 -0.105134792625904083 0.144087508320808411
0.213775232434272766 -0.279933691024780273 -0.00940630026161670685
0.237781286239624023 -0.0764477178454399109 0.126728355884552002
-0.140761405229568481 0.29613146185874939 0.147748887538909912
-0.65639418363571167 0.171150565147399902 -0.112699314951896667
0.25298774242401123 -0.00984748266637325287 0.249781519174575806
0.24992746114730835 -0.179158031940460205 0.302521109580993652
-0.263422906398773193 -0.137159377336502075 -0.0677388682961463928
-0.201145917177200317 0.313952475786209106 0.0988788381218910217
0.257467389106750488 -0.278340250253677368 0.322836190462112427
0.178484216332435608 -0.0544418059289455414 -0.0510990172624588013
-0.443655401468276978 -0.0668284147977828979 0.128994166851043701
-0.504124939441680908 0.0298433676362037659 0.247073456645011902
-0.49742397665977478 0.0362760946154594421 -0.0117928124964237213
0.232310488820075989 0.0224441047757863998 0.31388285756111145
-0.371739298105239868 -0.0459432192146778107 0.143282622098922729
-0.349285781383514404 0.106288589537143707 0.0659006312489509583
0.307248532772064209 -0.199143365025520325 0.242728114128112793
0.308038026094436646 -0.00593200232833623886 0.219392463564872742
-0.443170070648193359 0.266232162714004517 -0.037395872175693512
0.516763925552368164 -0.326891183853149414 -0.0814841166138648987
-0.539164245128631592 0.138154417276382446 -0.0973410606384277344
0.465423941612243652 -0.124856770038604736 0.00181149353738874197
-0.385715574026107788 0.254994392395019531 0.0326681770384311676
0.493576735258102417 -0.30227169394493103 0.12092483788728714
0.464963525533676147 -0.106609232723712921 0.0594021640717983246
0.203385129570960999 0.0147656733170151711 -0.0423303283751010895
-0.224902257323265076 0.295360177755355835 0.158619105815887451
-0.12546403706073761 -0.0492315590381622314 0.010846954770386219
-0.232014834880828857 0.228040233254432678 0.348111718893051147
-0.38112911581993103 -0.0544971823692321777 0.145395904779434204
0.340852200984954834 -0.07418079674243927 0.0475456863641738892
-0.436302661895751953 -0.0124292420223355293 0.0339768566191196442
0.205028578639030457 0.0162075161933898926 0.0702882334589958191
0.0559039227664470673 -0.0862406790256500244 0.239193126559257507
-0.384222865104675293 -0.059682551771402359 0.116507686674594879
-0.137080579996109009 -0.264945626258850098 -0.00123210903257131577
-0.244049325585365295 0.0632955804467201233 0.244767248630523682
-0.542439818382263184 0.210526362061500549 0.162657454609870911
-0.591085195541381836 0.286779314279556274 -0.00743910018354654312
0.30661320686340332 0.0171682685613632202 0.0427477657794952393
0.478144824504852295 -0.315075933933258057 -0.305499106645584106
0.503410637378692627 -0.34584316611289978 -0.0638936460018157959
0.471312791109085083 -0.305484384298324585 0.114944674074649811
0.526782631874084473 -0.303218483924865723 -0.109477274119853973
-0.403205782175064087 0.311132311820983887 0.134629994630813599
0.517596125602722168 -0.25160139799118042 -0.307494103908538818
0.507261931896209717 -0.32935035228729248 -0.314865261316299438
0.518494546413421631 -0.331683844327926636 0.0914828330278396606
0.477030575275421143 -0.304551422595977783 -0.303135573863983154
0.527242422103881836 -0.285966813564300537 -0.108091831207275391
-0.560200035572052002 0.266842126846313477 0.365562319755554199
-0.640468120574951172 0.289192080497741699 0.0850385650992393494
0.371054649353027344 -0.401417285203933716 -0.217598438262939453
-0.450063318014144897 -0.0012255901237949729 0.17503848671913147
0.17610447108745575 0.0725040212273597717 0.00656376872211694717
-0.453900605440139771 0.134397834539413452 -0.213792771100997925
0.402788102626800537 -0.336180239915847778 0.128876090049743652
-0.59923255443572998 0.207034826278686523 0.000673539703711867332
0.247219830751419067 -0.114882811903953552 -0.0708676800131797791
-0.483502030372619629 0.182407662272453308 -0.210220590233802795
-0.376399070024490356 -0.0632285401225090027 0.0916437506675720215
0.522598445415496826 -0.321280032396316528 0.0357770808041095734
0.542091667652130127 -0.21776832640171051 0.108154259622097015
0.525412797927856445 -0.273870587348937988 0.0552161335945129395
0.110877014696598053 0.0836972817778587341 0.317204415798187256
-0.351169347763061523 -0.0480522327125072479 0.0449519418179988861
0.104790680110454559 0.0718482434749603271 0.295444130897521973
-0.16556982696056366 0.132694616913795471 0.151316329836845398
0.502462387084960938 -0.2568206787109375 -0.102558627724647522
0.428620040416717529 -0.304188847541809082 0.135847851634025574
-0.355954110622406006 -0.101536884903907776 0.158991679549217224
0.498327285051345825 -0.201987430453300476 -0.108019031584262848
-0.578723311424255371 0.347675025463104248 0.15204136073589325
0.104726642370223999 -0.0118782436475157738 0.0211338512599468231
-0.341454386711120605 -0.123467013239860535 0.104546196758747101
-0.120911486446857452 -0.27574390172958374 0.174001529812812805
-0.161378547549247742 0.166943579912185669 0.325157850980758667
0.514705181121826172 -0.358896970748901367 0.026706010103225708
0.520750999450683594 -0.28790748119354248 -0.0117656970396637917
0.47857290506362915 -0.140374809503555298 0.107548408210277557
-0.181120529770851135 0.0290302243083715439 0.0258874930441379547
-0.342170894145965576 -0.121689006686210632 0.103689409792423248
-0.600417435169219971 0.376373201608657837 0.188299253582954407
-0.119885534048080444 -0.266868114471435547 0.218244820833206177
0.523159325122833252 -0.309137046337127686 -0.0748717337846755981
0.516041994094848633 -0.252414852380752563 -0.30961725115776062
0.454682886600494385 -0.308500289916992188 -0.294543296098709106
0.24029327929019928 -0.0963185951113700867 0.158586665987968445
-0.620443940162658691 0.271872580051422119 0.0370497889816761017
-0.430139482021331787 -0.00396598177030682564 0.177277207374572754
-0.250627756118774414 -0.136937141418457031 -0.0711185559630393982
0.317016363143920898 -0.31925615668296814 0.122483484447002411
0.539021134376525879 -0.250070810317993164 0.10653793066740036
0.452420741319656372 -0.140177249908447266 0.0153636103495955467
0.42905464768409729 -0.321330070495605469 0.123635806143283844
0.412992805242538452 -0.331073850393295288 -0.209861993789672852
0.473510712385177612 -0.128957539796829224 0.109434083104133606
-0.549176871776580811 0.378175467252731323 0.172520086169242859
0.190237477421760559 -0.339986681938171387 -0.013340693898499012
-0.201914653182029724 -0.135484546422958374 -0.0684512779116630554
-0.185783162713050842 0.311670392751693726 0.117874696850776672
0.103023946285247803 0.107353121042251587 0.174434930086135864
-0.444513291120529175 -0.0544039532542228699 0.091807834804058075
-0.489572614431381226 0.0299145672470331192 0.0167991612106561661
0.231084704399108887 0.0106540517881512642 0.314959019422531128
-0.0249524489045143127 0.112856730818748474 0.312463611364364624
0.242939725518226624 -0.0389783717691898346 0.204605445265769958
-0.385062813758850098 0.245016217231750488 0.0342601984739303589
-0.654273033142089844 0.216413050889968872 -0.0393764525651931763
0.482701122760772705 -0.116641268134117126 0.0233774818480014801
0.121880896389484406 0.0791423991322517395 0.138548105955123901
-0.382101982831954956 -0.0726523920893669128 0.0955916941165924072
0.319384634494781494 -0.0727343782782554626 0.0623747818171977997
-0.440848648548126221 -0.0117549020797014236 0.00682232528924942017
-0.502397298812866211 0.233374953269958496 -0.071193106472492218
-0.54745638370513916 0.20314452052116394 -0.0686106160283088684
0.088283441960811615 0.0913197919726371765 0.0800371319055557251
-0.520087480545043945 0.204255163669586182 -0.0472467876970767975
-0.168428003787994385 0.0721478834748268127 0.232499212026596069
-0.057552877813577652 -0.186934545636177063 0.0268364083021879196
-0.212723404169082642 0.290384858846664429 0.109124816954135895
0.24933449923992157 -0.00580353802070021629 0.0223425552248954773
-0.555981636047363281 0.204054474830627441 0.118302814662456512
-0.45753180980682373 0.216141536831855774 0.0244885571300983429
-0.46283191442489624 0.2661476731300354 -0.00277731940150260925
-0.575647532939910889 0.247256219387054443 -0.0765530914068222046
-0.389560192823410034 0.274792760610580444 -0.0841744989156723022
0.34350547194480896 -0.13501468300819397 0.318741023540496826
-0.498809397220611572 0.206541657447814941 -0.011674853041768074
-0.346194416284561157 0.292478561401367188 -0.0501760058104991913
0.525706708431243896 -0.361322909593582153 0.0416058860719203949
-0.540132522583007812 0.21481730043888092 0.201033115386962891
-0.569515883922576904 0.293989717960357666 -0.00324275670573115349
0.316288471221923828 0.0232863966375589371 0.0487287417054176331
0.481765478849411011 -0.307224869728088379 -0.303806483745574951
0.479422181844711304 -0.326595187187194824 0.12521737813949585
0.522929668426513672 -0.307270735502243042 -0.0988642424345016479
0.490119516849517822 -0.310990363359451294 -0.307570010423660278
0.515943944454193115 -0.325320124626159668 0.119674958288669586
0.444288402795791626 -0.300422787666320801 -0.290777742862701416
0.522946774959564209 -0.304823070764541626 -0.0975266918540000916
0.133955374360084534 0.115982182323932648 0.337048172950744629
-0.642614483833312988 0.242255061864852905 -0.00955880526453256607
-0.292827725410461426 -0.11390695720911026 -0.105703435838222504
0.538957655429840088 -0.255804538726806641 0.0920368358492851257
0.128816738724708557 0.0972066670656204224 0.317322641611099243
-0.235427960753440857 -0.143579825758934021 -0.0713479965925216675
0.252157032489776611 0.0296257957816123962 -0.0859510824084281921
0.530685007572174072 -0.323419928550720215 0.00666424212977290154
-0.599569082260131836 0.306961774826049805 0.104416675865650177
0.531812310218811035 -0.244983583688735962 0.0863923057913780212
-0.374284654855728149 -0.0609276033937931061 0.0923037156462669373
0.526298403739929199 -0.275596082210540771 -0.12340247631072998
-0.501340925693511963 0.148446619510650635 0.353030234575271606
0.384874939918518066 -0.297927647829055786 0.131704181432723999
0.132456734776496887 -0.332104742527008057 -0.100463472306728363
0.522484898567199707 -0.355127811431884766 -0.0151033885776996613
-0.436707824468612671 0.150257840752601624 -0.0850638672709465027
0.515483617782592773 -0.300404399633407593 0.0645459890365600586
0.392815500497817993 -0.368096381425857544 -0.213813617825508118
0.500237464904785156 -0.171834439039230347 0.129899084568023682
0.532954394817352295 -0.334286153316497803 0.0282197427004575729
-0.580150723457336426 0.348453879356384277 0.0401975736021995544
0.519724726676940918 -0.241178900003433228 -0.308860659599304199
-0.60124361515045166 0.370218038558959961 0.104570508003234863
-0.500841915607452393 0.146818891167640686 0.355235040187835693
0.23374524712562561 -0.278108030557632446 0.31723746657371521
-0.181561201810836792 -0.137119203805923462 -0.0556074045598506927
-0.228590726852416992 -0.138051390647888184 -0.0535131953656673431
-0.204529687762260437 0.297984391450881958 0.12670859694480896
0.262300997972488403 -0.289930075407028198 0.323519766330718994
-0.362506657838821411 -0.0306576453149318695 0.119521051645278931
-0.500348150730133057 0.0192608311772346497 0.0318343527615070343
0.2425689697265625 -0.000267162628006190062 0.322195321321487427
0.141139596700668335 -0.29062354564666748 0.31160089373588562
0.307828813791275024 -0.207855150103569031 0.248062834143638611
-0.386373907327651978 0.254534900188446045 0.0343129821121692657
0.530829370021820068 -0.262592077255249023 0.10276348888874054
0.22377990186214447 0.0223711524158716202 0.305362135171890259
0.530342519283294678 -0.147699952125549316 -0.30838814377784729
-0.645126819610595703 0.23104877769947052 -0.0476109609007835388
0.540996313095092773 -0.3112163245677948 -0.044613327831029892
0.507558584213256836 -0.267986804246902466 -0.311640501022338867
0.51403731107711792 -0.316317647695541382 -0.295242518186569214
0.458584368228912354 -0.291105777025222778 -0.296713590621948242
-0.543366909027099609 0.267821341753005981 -0.189482718706130981
-0.621679306030273438 0.288612812757492065 0.0665742605924606323
0.363181829452514648 -0.384414434432983398 -0.206222206354141235
-0.0927496552467346191 0.266859233379364014 0.189345672726631165
-0.448714405298233032 0.131114944815635681 -0.20889398455619812
-0.575710117816925049 0.203499078750610352 -0.127213433384895325
-0.630333662033081055 0.191427826881408691 -0.040028158575296402
-0.47002333402633667 0.138759076595306396 -0.231214597821235657
0.257378041744232178 -0.0174251459538936615 -0.0721465796232223511
0.230237171053886414 0.0534716285765171051 -0.0452157407999038696
0.112770214676856995 0.109411954879760742 0.301595509052276611
-0.584377706050872803 0.218122154474258423 -0.221611276268959045
-0.598475277423858643 0.234927058219909668 -0.0108891967684030533
-0.367239505052566528 -0.091776333749294281 0.122770711779594421
-0.330216735601425171 -0.125395253300666809 0.137215211987495422
-0.634863615036010742 0.199340790510177612 -0.0384462065994739532
-0.425922781229019165 -0.0549737513065338135 0.099171765148639679
-0.478331267833709717 0.0200329627841711044 -0.0366225428879261017
0.208367258310317993 0.00825912505388259888 0.300739645957946777
-0.634443759918212891 0.247779712080955505 -0.00612820219248533249
-0.128311395645141602 0.269520550966262817 0.132217258214950562
0.270796120166778564 -0.330475687980651855 0.179962843656539917
0.532768189907073975 -0.210397660732269287 -0.0990222319960594177
-0.126716881990432739 -0.112730026245117188 -0.054814416915178299
0.453884631395339966 -0.339053303003311157 -0.298240751028060913
-0.212864696979522705 0.0360753946006298065 -0.0597133636474609375
-0.553461551666259766 0.175527840852737427 0.0126973269507288933
-0.198788270354270935 0.139382719993591309 0.0211100000888109207
-0.0128272250294685364 -0.102651312947273254 -0.0429626554250717163
0.264472126960754395 -0.275113433599472046 0.202313482761383057
0.348386645317077637 -0.32129061222076416 -0.000165960242156870663
-0.156208649277687073 0.0695828646421432495 0.0275087002664804459
-0.249466285109519958 0.130577951669692993 -0.0344843789935112
0.198819637298583984 0.00135079643223434687 0.0190191585570573807
0.0760593414306640625 0.0805609077215194702 0.0239155758172273636
-0.283708274364471436 0.287958651781082153 -0.00598735641688108444
0.476663321256637573 -0.289993256330490112 -0.301880061626434326
-0.557156622409820557 0.26546168327331543 -0.0173679348081350327
-0.237653195858001709 0.0974452272057533264 -0.0324943289160728455
0.137579798698425293 -0.280965089797973633 0.149969771504402161
0.296077817678451538 -0.297564327716827393 0.0568006150424480438
-0.286310046911239624 0.256970793008804321 0.000493293278850615025
-0.0213508512824773788 -0.0405351333320140839 0.0889576226472854614
0.204193964600563049 0.0424219556152820587 0.0656298846006393433
-0.143982246518135071 -0.0852832198143005371 0.0916699618101119995
0.372211992740631104 -0.0737060680985450745 0.0314412489533424377
0.521070122718811035 -0.199343979358673096 -0.0987095385789871216
0.48680645227432251 -0.297988414764404297 -0.305540561676025391
0.480143934488296509 -0.315061002969741821 0.122115358710289001
0.51330643892288208 -0.30738222599029541 -0.102610327303409576
0.495728582143783569 -0.309613168239593506 -0.309912562370300293
0.505863368511199951 -0.328025877475738525 -0.00433101458474993706
0.511444628238677979 -0.324756383895874023 0.118139743804931641
0.465590775012969971 -0.288895696401596069 -0.296731084585189819
0.437686949968338013 -0.263616621494293213 -0.19445723295211792
0.134762629866600037 0.116628795862197876 0.336963802576065063
0.396281808614730835 -0.244601264595985413 0.318561375141143799
-0.601918816566467285 0.35398942232131958 0.0654409825801849365
-0.505505919456481934 0.35689234733581543 0.17825038731098175
0.542334675788879395 -0.282743215560913086 0.0977014601230621338
0.256099671125411987 0.0365793108940124512 -0.0721536725759506226
-0.233474865555763245 0.155748933553695679 -0.00533394794911146164
0.505853712558746338 -0.332191705703735352 -0.00275457324460148811
0.444495946168899536 -0.250204145908355713 -0.228178277611732483
-0.639446079730987549 0.254259020090103149 0.0544558577239513397
0.532307088375091553 -0.262925148010253906 0.0930233597755432129
-0.393463581800460815 -0.0592999272048473358 0.10036022961139679
0.523608267307281494 -0.289855867624282837 -0.0923075154423713684
0.0276895314455032349 -0.274193674325942993 -0.0353602468967437744
0.384838372468948364 -0.306257933378219604 0.118630826473236084
-0.582595884799957275 0.366527378559112549 0.131644532084465027
0.239852309226989746 0.00265711639076471329 0.181006893515586853
-0.11335214227437973 0.165243089199066162 0.347496509552001953
0.481873512268066406 -0.368544995784759521 -0.0222766026854515076
0.411918282508850098 -0.321320086717605591 -0.211195662617683411
0.50695955753326416 -0.155805066227912903 0.123814903199672699
0.528506040573120117 -0.334917634725570679 0.0125939147546887398
-0.58455127477645874 0.336139827966690063 0.0340193286538124084
-0.591170549392700195 0.381621360778808594 0.131198808550834656
0.526017546653747559 -0.244534805417060852 -0.31083795428276062
0.474132329225540161 -0.290915012359619141 -0.299631208181381226
-0.597630023956298828 0.353408783674240112 0.169608518481254578
-0.587766647338867188 0.371157914400100708 0.101042255759239197
-0.21240822970867157 -0.129575267434120178 -0.0577345229685306549
0.234077528119087219 -0.293196052312850952 0.314803868532180786
0.237670749425888062 0.066840343177318573 0.319957226514816284
0.54155266284942627 -0.314051568508148193 -0.0583346858620643616
-0.44506111741065979 -0.0484385751187801361 0.12700556218624115
0.359221488237380981 -0.388487815856933594 -0.209166735410690308
-0.556988418102264404 0.210956662893295288 -0.113775536417961121
0.520517945289611816 -0.279748529195785522 -0.177317842841148376
0.241535678505897522 0.0344973020255565643 0.314428955316543579
0.242392450571060181 0.000181890951353125274 0.0235739052295684814
0.380327224731445312 0.0385372117161750793 0.0117737511172890663
0.526490330696105957 -0.230839341878890991 -0.310343801975250244
0.32663959264755249 0.095871366560459137 -0.0360180400311946869
-0.374621659517288208 -0.0602617561817169189 -0.132977977395057678
0.512587666511535645 -0.167801126837730408 0.135704070329666138
-0.574923813343048096 0.321746945381164551 0.049396958202123642
-0.5593833327293396 0.283144950866699219 0.364103138446807861
0.224072188138961792 0.031698327511548996 -0.0582658722996711731
-0.574764132499694824 0.214441299438476562 -0.221243664622306824
-0.0446872711181640625 0.156349092721939087 0.0811781734228134155
0.113695099949836731 0.109804093837738037 0.0254056528210639954
0.342406153678894043 -0.247161641716957092 -0.0970136821269989014
-0.285495370626449585 0.300168693065643311 -0.0028826564084738493
0.152919411659240723 -0.00458389054983854294 -0.0036237791646271944
0.0686562508344650269 0.138592496514320374 0.0756179913878440857
-0.270484060049057007 0.279922842979431152 0.00164734409190714359
0.503053486347198486 -0.292796611785888672 -0.159553438425064087
0.136585846543312073 -0.0259901080280542374 0.0130624566227197647
-0.339425027370452881 -0.0320341512560844421 0.0227404516190290451
0.373025208711624146 -0.0920914337038993835 0.0441501587629318237
0.199534401297569275 0.100962609052658081 -0.00187745376024395227
-0.297662705183029175 -0.0250821579247713089 0.03588099405169487
0.131393790245056152 -0.0179849062114953995 -0.0261363629251718521
0.100989997386932373 0.0158696733415126801 0.0911652296781539917
0.175280392169952393 0.119089849293231964 0.0379673279821872711
-0.230882823467254639 -0.0637221112847328186 0.104598566889762878
0.485790371894836426 -0.296852409839630127 -0.303768575191497803
-0.603595972061157227 0.289242386817932129 0.185069173574447632
0.466863751411437988 -0.30894121527671814 0.119876965880393982
0.377892136573791504 -0.014750639908015728 0.00626524630934000015
0.514055967330932617 -0.295520901679992676 -0.103700704872608185
0.518557727336883545 -0.239927887916564941 -0.307841986417770386
0.477622658014297485 -0.309914439916610718 -0.300522059202194214
0.483096122741699219 -0.274713099002838135 -0.300147175788879395
0.116815902292728424 0.118529714643955231 0.297540664672851562
-0.584623754024505615 0.356054216623306274 0.06566590815782547
0.383391857147216797 -0.337532460689544678 0.12531636655330658
-0.574905514717102051 0.317412376403808594 -0.0267196372151374817
-0.604872345924377441 0.21691228449344635 -0.0870820954442024231
0.267374664545059204 0.0389711298048496246 -0.0863522887229919434
-0.356800347566604614 -0.0222038049250841141 -0.131266131997108459
-0.564715385437011719 0.314043164253234863 -0.00806740857660770416
0.190305218100547791 -0.34090694785118103 -0.0748822689056396484
0.403843969106674194 -0.357793450355529785 -0.22425273060798645
-0.500590503215789795 0.145404040813446045 0.354578524827957153
0.509260833263397217 -0.151767104864120483 0.114787831902503967
0.496561557054519653 -0.264123320579528809 -0.304632097482681274
0.457673370838165283 -0.281073093414306641 -0.289975881576538086
0.440633386373519897 -0.265159398317337036 -0.283922255039215088
-0.588440537452697754 0.357158243656158447 0.0615768469870090485
0.504861176013946533 -0.12709750235080719 0.124210573732852936
-0.206631600856781006 0.312140285968780518 0.108690850436687469
0.267887592315673828 -0.284248471260070801 0.318978041410446167
0.232166379690170288 0.00327576138079166412 0.317723482847213745
0.512967944145202637 -0.175909116864204407 -0.281996846199035645
-0.11560136079788208 0.00974466279149055481 0.00586137548089027405
0.403575748205184937 -0.359821498394012451 -0.224876418709754944
0.417279094457626343 -0.313487261533737183 0.143564760684967041
-0.555905044078826904 0.37616613507270813 0.186682954430580139
-0.176048398017883301 0.308805674314498901 0.118376180529594421
-0.390156537294387817 0.275763958692550659 -0.0851759165525436401
0.364885598421096802 0.0514710471034049988 0.0244823303073644638
0.128788426518440247 0.115421444177627563 0.31876373291015625
-0.286873579025268555 -0.100569836795330048 -0.0921446904540061951
0.257755786180496216 0.100560851395130157 -0.0621242746710777283
-0.361633509397506714 -0.0598196834325790405 -0.144240513443946838
0.133741483092308044 0.113382205367088318 0.337707012891769409
-0.563532829284667969 0.199110656976699829 -0.229220122098922729
-0.276818811893463135 0.287685096263885498 -0.000983599456958472729
0.454592972993850708 -0.246658369898796082 -0.28851357102394104
0.459937900304794312 -0.275606542825698853 -0.291043221950531006
-0.635252594947814941 0.307865738868713379 0.170261934399604797
0.512174129486083984 -0.317688047885894775 -0.0387995950877666473
0.468646138906478882 -0.266007542610168457 -0.298174023628234863
0.477859765291213989 -0.295213997364044189 -0.300458192825317383
0.457850813865661621 -0.24644191563129425 -0.29008638858795166
0.380805730819702148 -0.361153334379196167 -0.214056730270385742
-0.479770928621292114 -0.0126258181408047676 0.185759454965591431
-0.516877889633178711 0.365460962057113647 0.173948809504508972
-0.618952810764312744 0.201813295483589172 -0.0873472467064857483
-0.237659484148025513 0.0186977069824934006 -0.0726193785667419434
-0.38293910026550293 -0.0590703636407852173 0.023619363084435463
0.474550634622573853 -0.368545204401016235 0.021593678742647171
-0.64966505765914917 0.236512169241905212 0.0320759303867816925
0.412271320819854736 -0.346896886825561523 -0.221850812435150146
0.525752663612365723 -0.337367027997970581 0.0798409655690193176
0.505751669406890869 -0.23923066258430481 -0.308298230171203613
0.249243035912513733 -0.282421588897705078 0.318040698766708374
0.238825112581253052 0.066270001232624054 0.314501971006393433
0.539274215698242188 -0.302046686410903931 -0.0938907414674758911
-0.448217481374740601 -0.0414459370076656342 0.126438379287719727
-0.0441985167562961578 0.104240074753761292 0.31774786114692688
0.247593969106674194 0.0207455325871706009 0.322053134441375732
-0.285197466611862183 -0.0997040644288063049 -0.0991628170013427734
-0.13811221718788147 -0.0152268251404166222 -0.0488593503832817078
-0.278271228075027466 0.337545216083526611 0.0469145439565181732
-0.255102455615997314 0.28959280252456665 -0.00331129017286002636
-0.219295337796211243 0.321558564901351929 0.0697823166847229004
-0.573655188083648682 0.152076452970504761 -0.0746432393789291382
-0.290346652269363403 0.292402982711791992 0.0159607585519552231
0.525322258472442627 -0.320879578590393066 0.0269582830369472504
0.345763683319091797 -0.0308142807334661484 -0.0345970988273620605
0.521939396858215332 -0.363120615482330322 0.0891722291707992554
-0.0836520642042160034 -0.111929580569267273 0.0784159377217292786
-0.404379546642303467 0.325761884450912476 0.121132932603359222
0.504452168941497803 -0.367271274328231812 -0.00470741838216781616
-0.119091272354125977 0.265770763158798218 0.120906352996826172
0.518417716026306152 -0.343165457248687744 0.035625845193862915
0.129993677139282227 -0.334768205881118774 0.30106508731842041
0.466309249401092529 -0.311278730630874634 0.0722610726952552795
0.482554495334625244 -0.374204427003860474 0.0521128475666046143
0.420743316411972046 -0.0263913590461015701 0.0647064447402954102
0.493845045566558838 -0.363731533288955688 -0.0157523676753044128
-0.233346432447433472 0.28684583306312561 0.0840726569294929504
0.53091961145401001 -0.331967651844024658 -0.00744585134088993073
-0.2723427414894104 0.315092355012893677 0.113891825079917908
0.307877838611602783 0.00226635392755270004 0.0461832433938980103
0.467127740383148193 -0.26361730694770813 -0.296244680881500244
0.473508268594741821 -0.304564595222473145 0.114030219614505768
0.51087719202041626 -0.313842892646789551 -0.104599364101886749
0.508900046348571777 -0.245575129985809326 -0.308618634939193726
0.44765007495880127 -0.292698502540588379 -0.292930573225021362
0.466093569993972778 -0.283468037843704224 -0.297454297542572021
0.137973606586456299 0.112499319016933441 0.336645603179931641
-0.652505278587341309 0.285441160202026367 0.0978769734501838684
-0.638702690601348877 0.244589030742645264 -0.0383649095892906189
0.135960429906845093 0.069006212055683136 0.337759822607040405
-0.577502548694610596 0.303540587425231934 -0.0557236485183238983
0.262148588895797729 0.0301576294004917145 -0.0735594108700752258
0.541646659374237061 -0.217001289129257202 0.111351631581783295
-0.360430210828781128 -0.0358313173055648804 -0.134445652365684509
-0.575146794319152832 0.327214360237121582 -0.0297302193939685822
-0.362120717763900757 -0.0709905847907066345 -0.0340908616781234741
-0.130864828824996948 -0.267631083726882935 0.118962131440639496
0.49481499195098877 -0.366028517484664917 -0.000590903044212609529
0.373494952917098999 -0.359550297260284424 -0.210219815373420715
-0.378714442253112793 -0.106945082545280457 0.101204723119735718
-0.0673393607139587402 -0.264139562845230103 0.296313613653182983
0.519581913948059082 -0.2435283362865448 -0.309641778469085693
0.509148120880126953 -0.330778449773788452 0.015055428259074688
-0.593743383884429932 0.368698179721832275 0.120456919074058533
-0.655753433704376221 0.175470158457756042 -0.103202067315578461
-0.223347395658493042 -0.144198685884475708 -0.0538186058402061462
-0.191626086831092834 0.316314786672592163 0.100648447871208191
0.256346702575683594 -0.283715873956680298 0.319472163915634155
0.238801300525665283 0.0319303795695304871 0.31896519660949707
-0.120467774569988251 -0.0462407805025577545 0.00724623585119843483
-0.641944229602813721 0.308380424976348877 0.101738490164279938
0.364378362894058228 -0.374088406562805176 -0.207134559750556946
0.537437915802001953 -0.218030482530593872 0.161629989743232727
-0.553128600120544434 0.382177472114562988 0.157860130071640015
-0.122873783111572266 0.258991599082946777 0.115039259195327759
0.119053825736045837 0.102162167429924011 0.0893597379326820374
-0.375823527574539185 0.265612393617630005 -0.0897121280431747437
0.516571521759033203 -0.349277913570404053 0.0985408797860145569
-0.293863564729690552 -0.107188083231449127 -0.109415672719478607
0.274671435356140137 0.10260578989982605 -0.0577693171799182892
-0.575497806072235107 0.219344392418861389 -0.212836086750030518
-0.115912146866321564 0.268276065587997437 0.179721996188163757
0.235700875520706177 -0.288183450698852539 0.314164251089096069
0.309812754392623901 -0.187594205141067505 0.240829870104789734
0.541452646255493164 -0.326052218675613403 -0.021143915131688118
0.0786788463592529297 -0.337837815284729004 0.282026916742324829
-0.00676460936665534973 -0.17196299135684967 0.00419057672843337059
-0.282632976770401001 0.261470884084701538 0.00693333568051457405
0.512834608554840088 -0.237302452325820923 -0.309635043144226074
-0.647307515144348145 0.278013855218887329 0.0794063061475753784
-0.646686315536499023 0.182977676391601562 -0.0910469070076942444
0.513784050941467285 -0.322742283344268799 0.0240660924464464188
-0.407274186611175537 -0.0636954382061958313 0.113401919603347778
0.516509354114532471 -0.355910807847976685 -0.0208482705056667328
-0.566941976547241211 0.374051481485366821 0.152365639805793762
0.23555438220500946 0.0427392348647117615 0.313516348600387573
-0.665185689926147461 0.226915299892425537 0.0229548253118991852
-0.448426097631454468 -0.0385495945811271667 0.126947388052940369
0.502694904804229736 -0.302470386028289795 -0.179082795977592468
-0.589496433734893799 0.3607616126537323 0.0859522968530654907
-0.194467514753341675 0.314590603113174438 0.104765638709068298
0.246577456593513489 0.0236484576016664505 0.323647737503051758
0.530603528022766113 -0.32401198148727417 -0.058303099125623703
-0.18321557343006134 0.306694984436035156 0.128381222486495972
0.246826931834220886 0.00673055509105324745 0.323776006698608398
0.0582853555679321289 0.139393597841262817 0.345625758171081543
-0.506015300750732422 0.149201467633247375 0.356781095266342163
0.270409852266311646 -0.311460882425308228 0.3260079026222229
-0.2540912926197052 0.0234381295740604401 -0.0708364769816398621
0.240752950310707092 -0.29549717903137207 0.322263181209564209
0.248606741428375244 0.0435191504657268524 0.314241349697113037
0.468041598796844482 -0.102275513112545013 0.0344236530363559723
-0.125129684805870056 0.194835007190704346 0.115312069654464722
0.239648804068565369 -0.326806128025054932 0.317711174488067627
0.499921709299087524 -0.366811871528625488 0.0744178146123886108
0.523115277290344238 -0.324945241212844849 0.0259816944599151611
0.444315344095230103 -0.253558337688446045 0.332102924585342407
0.321158170700073242 -0.131699442863464355 -0.106809608638286591
0.0630083009600639343 -0.0109602296724915504 0.321552753448486328
0.510977268218994141 -0.361110121011734009 0.0472794100642204285
0.135312288999557495 -0.100889593362808228 0.0404133722186088562
0.0491679571568965912 0.0113231716677546501 0.0296248961240053177
0.020426969975233078 0.0479988530278205872 0.0424907878041267395
0.0877737998962402344 -0.0662596523761749268 0.289475172758102417
-0.162389948964118958 -0.265719473361968994 0.147839784622192383
0.264587134122848511 -0.0204655416309833527 0.0613951273262500763
-0.0292446911334991455 -0.0292128585278987885 0.295423150062561035
0.501902163028717041 -0.240547746419906616 -0.30221596360206604
0.475659459829330444 -0.315145105123519897 -0.30215686559677124
-0.631233453750610352 0.306016713380813599 0.167246356606483459
0.475152015686035156 -0.32107388973236084 0.120790101587772369
0.508788228034973145 -0.301074028015136719 -0.105758942663669586
0.527950286865234375 -0.275106489658355713 -0.317405402660369873
0.493273884057998657 -0.332606196403503418 -0.310916990041732788
0.503197968006134033 -0.320391178131103516 0.0977821797132492065
0.473906785249710083 -0.305982619524002075 -0.298308014869689941
-0.559618353843688965 0.267806828022003174 0.364426344633102417
0.124652177095413208 0.116553843021392822 0.314066648483276367
-0.633900463581085205 0.281986236572265625 0.0541364103555679321
-0.587682485580444336 0.362513750791549683 0.102295525372028351
0.371218770742416382 -0.374241948127746582 -0.212913617491722107
0.438148856163024902 -0.348239213228225708 0.154114410281181335
0.0577718131244182587 0.121028311550617218 0.320999890565872192
-0.574877321720123291 0.368520915508270264 0.215433970093727112
0.264403671026229858 0.0242679007351398468 -0.0587640963494777679
0.368485242128372192 -0.337046265602111816 0.16040918231010437
0.510231852531433105 -0.301792114973068237 -0.112207822501659393
0.1333465576171875 -0.320731937885284424 -0.0978825613856315613
0.516287446022033691 -0.34903833270072937 -0.020503683015704155
0.389014929533004761 -0.346981167793273926 -0.214272469282150269
-0.577348649501800537 0.318810105323791504 0.0406505763530731201
0.535767912864685059 -0.278074890375137329 -0.320811808109283447
0.467616528272628784 -0.311116546392440796 -0.299442946910858154
0.50690382719039917 -0.34738430380821228 0.0177161414176225662
-0.556232750415802002 0.309451192617416382 0.102139502763748169
0.193613126873970032 -0.339530050754547119 -0.0592945106327533722
0.0698409751057624817 -0.282354772090911865 -0.0779858678579330444
0.252210617065429688 -0.2505778968334198 0.319944202899932861
0.239595681428909302 0.0305728744715452194 0.316742837429046631
-0.121328495442867279 -0.0480381697416305542 0.00810017529875040054
0.178453102707862854 -0.100467078387737274 -0.0148969050496816635
0.532181978225708008 -0.33257293701171875 -0.0133847352117300034
0.370085477828979492 -0.349701732397079468 -0.209046602249145508
0.534699320793151855 -0.246184408664703369 0.177037954330444336
0.560896813869476318 -0.316013813018798828 -0.331154137849807739
0.554264664649963379 -0.212072268128395081 0.133698835968971252
-0.543591320514678955 0.380479872226715088 0.164401277899742126
0.122553601861000061 0.116817548871040344 0.133025839924812317
-0.582563817501068115 0.351639330387115479 0.0976875945925712585
-0.48190656304359436 0.185738101601600647 -0.0916627645492553711
0.515358090400695801 -0.33946460485458374 0.0386198721826076508
0.253227025270462036 -0.279491007328033447 0.321758031845092773
0.278253525495529175 -0.356176376342773438 -0.126198828220367432
0.50767207145690918 -0.28688579797744751 -0.313873112201690674
-0.432410985231399536 -0.0573775619268417358 0.116626657545566559
0.201645985245704651 0.090102851390838623 0.223234876990318298
0.244010075926780701 0.104117140173912048 -0.0573298037052154541
-0.195964664220809937 0.201208740472793579 0.349222958087921143
0.250159204006195068 0.0245338566601276398 0.323171436786651611
0.239518418908119202 0.0186327993869781494 0.320864707231521606
-0.0317182280123233795 0.162370860576629639 0.382583498954772949
-0.482765793800354004 -0.0158417169004678726 0.180112436413764954
0.483553290367126465 -0.369373500347137451 0.0458680465817451477
-0.643829345703125 0.286822408437728882 0.0861237421631813049
0.275690048933029175 -0.16614195704460144 -0.0706012099981307983
-0.412081748247146606 -0.0570453368127346039 0.0788442566990852356
-0.643343627452850342 0.175450757145881653 -0.0821257755160331726
-0.226189568638801575 -0.13409830629825592 -0.052277345210313797
0.254726320505142212 -0.265907734632492065 0.320922285318374634
-0.345618247985839844 0.0171169731765985489 -0.116994127631187439
-0.287386596202850342 -0.0917060002684593201 -0.106579072773456573
-0.585396647453308105 0.209562331438064575 -0.218144536018371582
0.267389208078384399 -0.29736250638961792 0.314991086721420288
-0.0258535426110029221 -0.187488004565238953 -0.043508872389793396
-0.618385434150695801 0.276628732681274414 0.0313100926578044891
-0.609155952930450439 0.297934442758560181 0.0924030616879463196
-0.397816330194473267 -0.0630493536591529846 0.118821442127227783
-0.451964110136032104 -0.0383781492710113525 0.119432024657726288
0.430896371603012085 -0.272179156541824341 0.328977257013320923
-0.0527302511036396027 0.140430077910423279 0.0916724354028701782
-0.503281891345977783 0.150825217366218567 0.3553963303565979
0.240609884262084961 -0.319633990526199341 0.322609215974807739
0.496933788061141968 -0.371195942163467407 0.0571818053722381592
0.399085491895675659 -0.257297277450561523 0.322260588407516479
-0.158530086278915405 -0.263717442750930786 0.181463316082954407
-0.499440819025039673 0.013787534087896347 0.158038601279258728
0.417380481958389282 -0.297795325517654419 0.328523993492126465
0.535107254981994629 -0.340559095144271851 -0.0186162963509559631
0.344067007303237915 -0.267751991748809814 -0.127969071269035339
-0.496744126081466675 0.0717140659689903259 0.203937888145446777
0.443440765142440796 -0.27262645959854126 0.333202481269836426
0.521838366985321045 -0.335779041051864624 0.0326220393180847168
0.453176498413085938 -0.320248007774353027 -0.293181300163269043
0.474030733108520508 -0.31208956241607666 0.116531416773796082
0.517052948474884033 -0.278777122497558594 -0.312986820936203003
