ply
format ascii 1.0
element vertex 739
property float x
property float y
property float z
end_header
0.271223515272140503 -0.311399191617965698 0.326499909162521362
-0.253760427236557007 0.0234367214143276215 -0.0705197751522064209
0.241550818085670471 -0.295455694198608398 0.322737723588943481
0.24950505793094635 0.0438371710479259491 0.314736843109130859
0.468954503536224365 -0.10189075767993927 0.0350159183144569397
-0.124660484492778778 0.195048242807388306 0.11565544456243515
0.240441352128982544 -0.32678753137588501 0.318182617425918579
0.500797152519226074 -0.366645336151123047 0.0749904289841651917
0.523973524570465088 -0.3247394859790802 0.0265557896345853806
0.44517025351524353 -0.253328680992126465 0.332669377326965332
0.322038203477859497 -0.131418138742446899 -0.106289476156234741
0.0637062415480613708 -0.0108534302562475204 0.321912884712219238
0.511840641498565674 -0.36093437671661377 0.0478519164025783539
0.136117279529571533 -0.100764639675617218 0.0408295169472694397
0.049882013350725174 0.0115041723474860191 0.0300064701586961746
0.021104784682393074 0.0481931529939174652 0.0428652465343475342
0.0885048434138298035 -0.0661878585815429688 0.28985479474067688
-0.161981210112571716 -0.265994548797607422 0.148114994168281555
0.26551482081413269 -0.0201349016278982162 0.0619076937437057495
-0.0286728441715240479 -0.0291815195232629776 0.295733869075775146
0.502676248550415039 -0.240273505449295044 -0.301662862300872803
0.476442426443099976 -0.314926385879516602 -0.301620453596115112
-0.631094694137573242 0.306260675191879272 0.167567670345306396
0.476041138172149658 -0.320886909961700439 0.121360324323177338
0.509616374969482422 -0.300845295190811157 -0.105195127427577972
0.528707385063171387 -0.274852603673934937 -0.316859066486358643
0.494046062231063843 -0.332393139600753784 -0.310381084680557251
0.504076957702636719 -0.320193171501159668 0.0983566567301750183
0.474692970514297485 -0.305758267641067505 -0.297769337892532349
-0.559525370597839355 0.268011510372161865 0.36467820405960083
0.125436216592788696 0.116820454597473145 0.314481824636459351
-0.633735001087188721 0.282225877046585083 0.0545188337564468384
-0.587543904781341553 0.362798690795898438 0.102653399109840393
0.372064054012298584 -0.374105334281921387 -0.212403938174247742
0.439040392637252808 -0.348090916872024536 0.154673740267753601
0.0584678016602993011 0.121245205402374268 0.321368664503097534
-0.574768126010894775 0.36879238486289978 0.215734228491783142
0.265295028686523438 0.0246655810624361038 -0.0582444407045841217
0.369387894868850708 -0.336929053068161011 0.160944879055023193
0.511057496070861816 -0.3015633225440979 -0.111644499003887177
0.134097069501876831 -0.320810616016387939 -0.0975197404623031616
0.517134130001068115 -0.348846584558486938 -0.019933575764298439
0.389852970838546753 -0.346820831298828125 -0.213755548000335693
-0.57718968391418457 0.319066375494003296 0.0410374030470848083
0.536520600318908691 -0.277821928262710571 -0.32026594877243042
0.468403756618499756 -0.310897648334503174 -0.29890713095664978
0.507765293121337891 -0.347196966409683228 0.018288077786564827
-0.556082308292388916 0.309689164161682129 0.10247793048620224
0.194423288106918335 -0.339557498693466187 -0.058881804347038269
0.0705326944589614868 -0.28247418999671936 -0.0776626989245414734
0.253027379512786865 -0.250493645668029785 0.320428580045700073
0.240486159920692444 0.0308710169047117233 0.317231535911560059
-0.12084844708442688 -0.0480475202202796936 0.0084017561748623848
0.179297730326652527 -0.100292563438415527 -0.0144493486732244492
0.533025562763214111 -0.332367449998855591 -0.0128123918548226357
0.370928198099136353 -0.349554777145385742 -0.20853772759437561
0.535564005374908447 -0.245923146605491638 0.177624329924583435
0.561635851860046387 -0.31578102707862854 -0.330614715814590454
0.555133700370788574 -0.211775928735733032 0.134290799498558044
-0.543465077877044678 0.380747020244598389 0.164726331830024719
0.123369283974170685 0.117133304476737976 0.133468121290206909
-0.582421660423278809 0.351914584636688232 0.0980453193187713623
-0.481728464365005493 0.185854554176330566 -0.091267317533493042
0.516220688819885254 -0.339272081851959229 0.0391930155456066132
0.254037261009216309 -0.279425263404846191 0.32224196195602417
0.279101580381393433 -0.356116592884063721 -0.125735640525817871
0.508438467979431152 -0.286642998456954956 -0.313330173492431641
-0.432198613882064819 -0.057545829564332962 0.11688242107629776
0.202537491917610168 0.0904348045587539673 0.223714351654052734
0.244884520769119263 0.104578830301761627 -0.056797124445438385
-0.195638328790664673 0.201355412602424622 0.349503189325332642
0.251055032014846802 0.0248361397534608841 0.323665469884872437
0.240406855940818787 0.018920116126537323 0.321352124214172363
-0.0311661921441555023 0.162565156817436218 0.382898181676864624
-0.482599318027496338 -0.015971621498465538 0.180354654788970947
0.484427779912948608 -0.369210124015808105 0.0464374013245105743
-0.643668115139007568 0.287073731422424316 0.0864899083971977234
0.276561617851257324 -0.165938422083854675 -0.0701109543442726135
-0.411853551864624023 -0.0572104081511497498 0.0791072994470596313
-0.643154263496398926 0.175619721412658691 -0.0816919207572937012
-0.225820869207382202 -0.134274929761886597 -0.0520107671618461609
0.255540788173675537 -0.265831202268600464 0.321407794952392578
-0.345351338386535645 0.0170705858618021011 -0.116674020886421204
-0.287074089050292969 -0.0918707326054573059 -0.106295153498649597
-0.585206270217895508 0.209777817130088806 -0.217680215835571289
0.268207520246505737 -0.297294884920120239 0.315484076738357544
-0.0252666845917701721 -0.187595725059509277 -0.0432199127972126007
-0.618217766284942627 0.276864141225814819 0.0317029133439064026
-0.60900115966796875 0.298178553581237793 0.0927575975656509399
-0.397587180137634277 -0.06322488933801651 0.119077965617179871
-0.451762974262237549 -0.0385239981114864349 0.119689047336578369
0.431751459836959839 -0.271970182657241821 0.329539060592651367
-0.0521547906100749969 0.14064672589302063 0.092031329870223999
-0.503159284591674805 0.150878012180328369 0.355638265609741211
0.24140283465385437 -0.319608837366104126 0.323081672191619873
0.497804611921310425 -0.371031433343887329 0.0577530860900878906
0.39994889497756958 -0.257093071937561035 0.322815865278244019
-0.158128589391708374 -0.263985395431518555 0.181744605302810669
-0.499269604682922363 0.0137043604627251625 0.158292979001998901
0.418233871459960938 -0.297612696886062622 0.329079955816268921
0.535947263240814209 -0.340358197689056396 -0.0180444493889808655
0.344930440187454224 -0.26757514476776123 -0.12745964527130127
-0.496588289737701416 0.0716757774353027344 0.204190835356712341
0.444292277097702026 -0.272411823272705078 0.333766937255859375
0.522697389125823975 -0.335581928491592407 0.0331957489252090454
0.453970223665237427 -0.320039570331573486 -0.292649656534194946
0.474922925233840942 -0.311895400285720825 0.117102473974227905
0.517816007137298584 -0.278527319431304932 -0.312441408634185791
0.50325322151184082 -0.326073825359344482 -0.313947796821594238
0.518794834613800049 -0.327318310737609863 0.102315604686737061
0.47991943359375 -0.311560213565826416 -0.301790237426757812
0.115026436746120453 0.118419967591762543 0.289341390132904053
-0.12176968902349472 0.268483608961105347 0.159078806638717651
-0.614966273307800293 0.265328764915466309 0.0523951202630996704
-0.479500800371170044 0.00269999937154352665 0.181529328227043152
0.427377909421920776 -0.355289995670318604 0.158951371908187866
-0.292245805263519287 -0.110956206917762756 -0.105563841760158539
0.130997583270072937 0.0653147473931312561 0.321540743112564087
0.254352033138275146 0.038593050092458725 -0.0773548111319541931
0.236103937029838562 0.0937951207160949707 -0.0526269637048244476
0.418324738740921021 -0.261707097291946411 -0.201940983533859253
0.522343456745147705 -0.354846209287643433 -0.0190613549202680588
-0.609058380126953125 0.38098067045211792 0.181515052914619446
0.518166482448577881 -0.279427915811538696 -0.314364522695541382
0.499791860580444336 -0.350211977958679199 0.024480767548084259
-0.5880279541015625 0.369171440601348877 0.113335564732551575
0.506662309169769287 -0.104855261743068695 0.147713705897331238
-0.197970226407051086 0.311408281326293945 0.113227210938930511
0.264653295278549194 -0.286879599094390869 0.320073068141937256
0.237515583634376526 0.061992596834897995 0.310902535915374756
-0.144316256046295166 -0.04379262775182724 0.00446144770830869675
-0.657910943031311035 0.214531153440475464 -0.0458547919988632202
-0.28854033350944519 -0.0763242617249488831 -0.0683908313512802124
0.227855876088142395 0.0420529916882514954 -0.0477191396057605743
0.552215635776519775 -0.144624814391136169 0.132453843951225281
0.520439803600311279 -0.2955666184425354 0.0752964988350868225
0.518210947513580322 -0.284206867218017578 -0.180787667632102966
-0.358085811138153076 -0.0174426659941673279 -0.0277111046016216278
0.0919687375426292419 0.0880407541990280151 0.0861484557390213013
0.467320561408996582 -0.362113982439041138 -0.0102641955018043518
-0.433026671409606934 0.15750586986541748 -0.0661985352635383606
0.524466037750244141 -0.335860133171081543 0.0692936331033706665
0.263512641191482544 -0.286249011754989624 0.318796277046203613
0.00971760507673025131 -0.0912640839815139771 -0.0258073825389146805
0.0329354368150234222 -0.13069191575050354 0.0221673063933849335
-0.630875051021575928 0.264848798513412476 0.0293657463043928146
0.242721065878868103 0.0741701573133468628 0.31917417049407959
0.240793898701667786 0.0293953195214271545 0.319244027137756348
-0.174734383821487427 0.300686806440353394 0.116609454154968262
0.30525505542755127 -0.151537418365478516 0.308141767978668213
0.26254582405090332 -0.291052162647247314 0.321279704570770264
-0.476304531097412109 -0.00856431294232606888 0.166415035724639893
0.243357419967651367 0.0816114023327827454 0.312536329030990601
0.52089005708694458 -0.351523041725158691 0.0823253616690635681
-0.0345932580530643463 -0.238020405173301697 0.124317146837711334
-0.638485133647918701 0.289851158857345581 0.0991125330328941345
-0.234143152832984924 -0.133248016238212585 -0.0577978156507015228
-0.379314243793487549 -0.109259210526943207 0.105716332793235779
-0.236350640654563904 -0.148281395435333252 -0.0576513670384883881
-0.658123373985290527 0.21422278881072998 -0.0335619896650314331
0.529525816440582275 -0.352853000164031982 0.0782667174935340881
-0.621323645114898682 0.27010798454284668 0.0527925789356231689
-0.404210060834884644 -0.0647680759429931641 0.112253054976463318
-0.446419417858123779 -0.0419143624603748322 0.122192412614822388
0.2686176598072052 -0.285938471555709839 0.323757916688919067
0.128109589219093323 -0.3270244300365448 0.312796354293823242
0.152789413928985596 -0.343506276607513428 0.318076580762863159
0.448299169540405273 -0.335804611444473267 -0.292626261711120605
0.516359984874725342 -0.303141891956329346 -0.107565999031066895
0.515788793563842773 -0.280400097370147705 -0.312459856271743774
0.485425561666488647 -0.327845245599746704 -0.309426695108413696
0.464907974004745483 -0.34606441855430603 -0.302301913499832153
0.550146937370300293 -0.210334375500679016 -0.315598726272583008
0.524647772312164307 -0.3001900315284729 -0.322119146585464478
0.518515825271606445 -0.301002860069274902 -0.318013578653335571
0.247446030378341675 0.0568843670189380646 0.316765427589416504
0.241924434900283813 0.0873667225241661072 0.313104540109634399
-0.291702300310134888 -0.100956462323665619 -0.101687610149383545
-0.453677147626876831 -0.052400100976228714 0.117286138236522675
0.405419766902923584 -0.272519230842590332 0.322857379913330078
-0.502533137798309326 0.00339005165733397007 0.189324274659156799
0.401711881160736084 -0.287505179643630981 0.325168430805206299
0.399860292673110962 -0.273816883563995361 0.323651343584060669
0.342883586883544922 -0.25921022891998291 0.0904879197478294373
-0.0184769351035356522 -0.244811460375785828 0.128892824053764343
-0.464629203081130981 0.0356077589094638824 0.189751178026199341
-0.194352000951766968 0.221363410353660583 0.172321557998657227
0.367475509643554688 -0.329508185386657715 -0.0231281165033578873
0.324000269174575806 -0.390343010425567627 -0.158522322773933411
0.536026835441589355 -0.323804527521133423 -0.0578367635607719421
-0.441868364810943604 -0.00512360082939267159 0.152901679277420044
-0.0188291110098361969 -0.0598205476999282837 0.142003223299980164
9.73506321315653622e-05 -0.23653063178062439 0.106627695262432098
0.526816010475158691 -0.201925560832023621 -0.0796182751655578613
0.450359165668487549 -0.308481305837631226 -0.292504101991653442
0.527380108833312988 -0.275555700063705444 -0.315313547849655151
0.500449895858764648 -0.325024157762527466 -0.312316536903381348
0.475772827863693237 -0.305187374353408813 -0.297021627426147461
-0.127334743738174438 0.2464417964220047 0.139267489314079285
-0.649186611175537109 0.281881839036941528 0.0944995582103729248
-0.198953494429588318 0.28644484281539917 0.336134582757949829
0.498648285865783691 -0.0868596658110618591 0.137088626623153687
0.201286479830741882 -0.359473705291748047 -0.0905044153332710266
0.506020665168762207 -0.367876321077346802 -0.0223187096416950226
0.527884423732757568 -0.242868319153785706 0.173330724239349365
-0.58618772029876709 0.379197150468826294 0.170900657773017883
0.44557759165763855 -0.315078169107437134 -0.287380039691925049
0.499225765466690063 -0.111228205263614655 0.112600825726985931
-0.655939877033233643 0.175333991646766663 -0.103447332978248596
-0.201947018504142761 0.308609068393707275 0.0894503071904182434
0.201860830187797546 -0.0138034308329224586 0.295589268207550049
0.160538867115974426 -0.0623484402894973755 -0.0436784476041793823
-0.579763591289520264 0.302080005407333374 0.368892878293991089
0.275668889284133911 0.0983205065131187439 -0.0286502428352832794
-0.435397118330001831 0.155213505029678345 -0.0857206359505653381
0.535056352615356445 -0.333229750394821167 0.0131294252350926399
-0.568919777870178223 0.197226747870445251 -0.228773266077041626
-0.49776756763458252 0.044750995934009552 -0.0865788236260414124
0.0317954942584037781 -0.104280747473239899 0.0333265401422977448
0.534631729125976562 -0.264589995145797729 -0.315957754850387573
0.0101100029423832893 0.197542160749435425 0.0279645565897226334
0.302776992321014404 0.0388233773410320282 -0.0840132683515548706
-0.332172513008117676 -0.0162629932165145874 -0.107444897294044495
0.237065732479095459 0.0142733454704284668 0.322154432535171509
0.125539645552635193 0.0127715971320867538 0.299256831407546997
0.528142690658569336 -0.355369120836257935 0.0667146071791648865
0.467669486999511719 -0.309975504875183105 -0.232742592692375183
-0.652166962623596191 0.285222768783569336 0.104603201150894165
0.54721909761428833 -0.220128938555717468 0.163895055651664734
0.528652429580688477 -0.323546171188354492 -0.0156549979001283646
-0.383016377687454224 -0.0567465648055076599 0.0764437019824981689
0.45747905969619751 -0.310961633920669556 -0.292202293872833252
0.505522370338439941 -0.339948654174804688 -0.317558169364929199
0.479388505220413208 -0.314437210559844971 -0.299149572849273682
0.520922839641571045 -0.301407426595687866 -0.316978484392166138
-0.00191833742428570986 -0.140281736850738525 -0.0245048124343156815
0.398194313049316406 -0.273375242948532104 0.323826193809509277
0.401864737272262573 -0.271800428628921509 0.324132144451141357
0.506742000579833984 -0.332181483507156372 0.106243036687374115
-0.467624664306640625 0.04215284064412117 0.17087167501449585
0.410712659358978271 -0.34611096978187561 0.156972199678421021
-0.360774427652359009 -0.0355469807982444763 -0.147846043109893799
-0.127942025661468506 -0.268130004405975342 0.112605802714824677
0.513238191604614258 -0.369215220212936401 -0.0142642324790358543
-0.213583379983901978 0.312407761812210083 0.0979755893349647522
0.251206517219543457 -0.28739812970161438 0.323213696479797363
0.209553644061088562 0.00932040344923734665 -0.0456668175756931305
0.0704378709197044373 -0.151786655187606812 -0.0168945174664258957
-0.169569611549377441 0.3046417236328125 0.119173809885978699
0.471779614686965942 -0.364535123109817505 0.00746055692434310913
-0.290822058916091919 -0.0997456684708595276 -0.10294429212808609
0.036892034113407135 -0.149958744645118713 -0.0213743336498737335
0.232808738946914673 0.0561048611998558044 0.309583604335784912
0.254015117883682251 -0.288958907127380371 0.32099682092666626
-0.471724271774291992 0.000831538753118366003 0.168879225850105286
0.241633668541908264 0.0625680387020111084 0.31348729133605957
0.509627163410186768 -0.352213829755783081 0.0643677935004234314
0.228023484349250793 -0.315129697322845459 0.314883947372436523
-0.375313729047775269 -0.09350547194480896 0.0864055156707763672
-0.0623559094965457916 -0.242032945156097412 0.302754908800125122
-0.222485721111297607 -0.127983123064041138 -0.0528531633317470551
-0.409827828407287598 -0.0657796785235404968 0.0987499803304672241
-0.444962501525878906 -0.0450410470366477966 0.132962226867675781
0.239592134952545166 -0.294352293014526367 0.314765959978103638
0.154462620615959167 -0.3247050940990448 0.320392906665802002
0.426000326871871948 -0.256271481513977051 0.328984171152114868
0.438853859901428223 -0.343035191297531128 -0.292280793190002441
0.506941378116607666 -0.334649026393890381 -0.317702293395996094
0.445703804492950439 -0.352383315563201904 -0.286338984966278076
0.238897815346717834 0.0656314045190811157 0.312766402959823608
0.403939098119735718 -0.287733197212219238 0.326292723417282104
-0.494756639003753662 0.0064211944118142128 0.188607394695281982
0.486501127481460571 -0.0632834732532501221 0.13222445547580719
0.0129868621006608009 -0.171031177043914795 0.0101722264662384987
0.532227277755737305 -0.307732224464416504 -0.0617982223629951477
0.315489053726196289 -0.302431643009185791 -0.126407280564308167
0.446548014879226685 -0.291410595178604126 -0.285234123468399048
-0.336791157722473145 0.224508658051490784 0.126015916466712952
-0.400747746229171753 -0.0284477230161428452 -0.00163173163309693336
0.403850376605987549 -0.271942675113677979 0.324515670537948608
-0.13297601044178009 0.195614069700241089 0.168082103133201599
0.399900197982788086 -0.271880686283111572 0.324328452348709106
-0.446428537368774414 -0.0252215340733528137 0.0216886904090642929
-0.137668818235397339 0.244689375162124634 0.192031010985374451
-0.612736642360687256 0.293920576572418213 0.184028699994087219
0.12514941394329071 0.115952014923095703 0.317069917917251587
-0.120583720505237579 0.250441640615463257 0.16218334436416626
-0.583243966102600098 0.348084390163421631 0.0584798417985439301
0.427619993686676025 -0.34827837347984314 0.153458490967750549
-0.566665589809417725 0.295016825199127197 -0.0686071291565895081
0.252611219882965088 0.0267159547656774521 -0.0790843367576599121
0.248410284519195557 0.100423142313957214 -0.0478404313325881958
-0.357243597507476807 -0.0559109486639499664 -0.141589313745498657
0.199438378214836121 0.120218895375728607 0.0362488441169261932
0.546347558498382568 -0.131554588675498962 0.112461075186729431
-0.581554651260375977 0.321710109710693359 -0.0224735196679830551
0.20688880980014801 0.0246000662446022034 0.177278175950050354
-0.595271706581115723 0.375072479248046875 0.172315642237663269
0.445594877004623413 -0.319343864917755127 0.127804145216941833
0.25581967830657959 -0.278919965028762817 0.316845327615737915
0.236282378435134888 0.0237149260938167572 0.317003041505813599
-0.362695187330245972 -0.0499668866395950317 -0.0234950874000787735
-0.182313695549964905 0.118016555905342102 0.0426640845835208893
0.255533307790756226 -0.288362324237823486 0.319658517837524414
0.242721721529960632 0.0330979824066162109 0.322271525859832764
0.400676310062408447 0.0233972761780023575 0.115684650838375092
-0.340267449617385864 -0.0662661939859390259 -0.147037893533706665
0.0763825327157974243 -0.333237767219543457 0.299230366945266724
-0.386542737483978271 -0.0610040947794914246 0.0940698012709617615
-0.447997242212295532 -0.0415121465921401978 0.127974092960357666
0.440144747495651245 -0.279401928186416626 0.334051549434661865
0.0350417159497737885 -0.122993811964988708 -0.0252731740474700928
0.415113449096679688 -0.280862271785736084 0.327394008636474609
0.433819442987442017 -0.296158760786056519 0.333550304174423218
0.36869773268699646 -0.278696119785308838 -0.129853859543800354
-0.477263718843460083 0.00125916104298084974 0.188533365726470947
-0.291235625743865967 -0.0964522808790206909 -0.104274630546569824
0.24214683473110199 -0.313145607709884644 0.310010582208633423
0.474001467227935791 -0.354255050420761108 0.0074675288051366806
-0.2960682213306427 -0.0966999903321266174 -0.106727786362171173
0.245503440499305725 -0.288717061281204224 0.320406883955001831
0.0629051551222801208 -0.329944610595703125 0.297311097383499146
0.158714622259140015 -0.267848312854766846 -0.105179436504840851
0.250936269760131836 0.0633832290768623352 0.315916478633880615
-0.482332825660705566 -0.00808462593704462051 0.178174823522567749
0.23706720769405365 0.0665468126535415649 0.315266937017440796
0.239481732249259949 -0.331958204507827759 0.321731448173522949
-0.381995975971221924 -0.0921697169542312622 0.0369839183986186981
-0.215742126107215881 -0.140224412083625793 -0.0540911145508289337
-0.382443249225616455 -0.0638111010193824768 0.0837878808379173279
0.150668174028396606 -0.331818431615829468 0.332176715135574341
0.446664780378341675 -0.279932320117950439 0.333975493907928467
0.408226191997528076 -0.280575662851333618 0.325506359338760376
-0.501844108104705811 0.00640557333827018738 0.188923686742782593
-0.321649253368377686 0.0971546471118927002 -0.0699349865317344666
0.533323824405670166 -0.207466080784797668 -0.0521982684731483459
0.451738655567169189 -0.293847531080245972 -0.290123939514160156
0.488185137510299683 -0.325196176767349243 -0.31055682897567749
0.447182059288024902 -0.309697210788726807 -0.290493220090866089
-0.577611386775970459 0.269071042537689209 0.366080701351165771
-0.461235612630844116 0.105765998363494873 -0.230685323476791382
0.37567824125289917 -0.318781048059463501 0.199475124478340149
-0.58963477611541748 0.366831392049789429 0.131551563739776611
0.393354147672653198 -0.353441089391708374 -0.217128261923789978
0.441879838705062866 -0.310241430997848511 -0.288702487945556641
-0.200328826904296875 0.305333912372589111 0.0953091755509376526
-0.155126169323921204 0.267809778451919556 0.151991516351699829
0.530625998973846436 -0.338491201400756836 0.0722081288695335388
0.464608073234558105 -0.26609879732131958 -0.217295393347740173
-0.63334733247756958 0.275610417127609253 0.107356488704681396
0.439202368259429932 -0.30853426456451416 -0.286872655153274536
0.516229748725891113 -0.277142345905303955 -0.316510885953903198
0.517341315746307373 -0.340301662683486938 -0.320441931486129761
0.455142706632614136 -0.307009309530258179 -0.292928189039230347
0.491731077432632446 -0.321982860565185547 0.094777233898639679
0.0212084297090768814 -0.27601662278175354 -0.0182897783815860748
-0.653872013092041016 0.171870484948158264 -0.107731737196445465
-0.224390491843223572 0.318424016237258911 0.121686890721321106
0.466175675392150879 -0.364142328500747681 0.006298028863966465
0.48190009593963623 -0.336862683296203613 0.0506665706634521484
0.512245476245880127 -0.339362025260925293 -0.319099694490432739
0.440960526466369629 -0.356535345315933228 -0.297295331954956055
-0.269740879535675049 0.321907192468643188 0.0422337353229522705
0.424927651882171631 -0.313261479139328003 -0.281567305326461792
0.416313141584396362 -0.295323312282562256 0.328836828470230103
-0.325813740491867065 -0.0756355002522468567 0.123712778091430664
-0.366627126932144165 -0.0669635310769081116 0.15491051971912384
-0.338044106960296631 0.214669063687324524 0.133148461580276489
0.0106521723791956902 0.119309701025485992 0.105531692504882812
0.542831599712371826 -0.30920487642288208 -0.0458321534097194672
0.0142302690073847771 -0.26201513409614563 0.0397939160466194153
-0.00297263637185096741 -0.236804604530334473 0.0945394337177276611
0.000789026264101266861 -0.219831898808479309 0.081808045506477356
0.465754657983779907 -0.361005783081054688 0.0306947529315948486
-0.269062697887420654 -0.138300999999046326 0.177708104252815247
-0.344817280769348145 -0.0661309435963630676 0.141505300998687744
0.124165549874305725 -0.276899725198745728 0.129287689924240112
-0.133448749780654907 0.078654848039150238 0.0906192958354949951
0.464334338903427124 -0.0543592683970928192 0.0180407445877790451
-0.0135631170123815536 -0.217148005962371826 0.0806444808840751648
-0.554613947868347168 0.391529381275177002 0.14806152880191803
0.497432589530944824 -0.366864889860153198 0.00562256621196866035
-0.610565721988677979 0.293917387723922729 0.186831280589103699
0.530759692192077637 -0.275204211473464966 -0.317350506782531738
0.371188640594482422 -0.264723002910614014 0.181910216808319092
0.421175390481948853 -0.34459453821182251 0.151225581765174866
0.252752214670181274 0.0392171703279018402 -0.0662136226892471313
0.550245225429534912 -0.149958446621894836 0.124641343951225281
-0.570417881011962891 0.28397899866104126 -0.00595745164901018143
0.50169903039932251 -0.36271369457244873 -0.000909565889742225409
0.208972454071044922 0.11568886786699295 -0.00998364947736263275
-0.288885891437530518 -0.0858373194932937622 -0.0661204233765602112
0.159920826554298401 -0.0833263993263244629 -0.0357684418559074402
-0.339673787355422974 -0.105721123516559601 0.141536235809326172
0.511772215366363525 -0.281372219324111938 -0.312863528728485107
-0.3390025794506073 -0.0798695310950279236 0.0388914234936237335
-0.369158536195755005 0.280651837587356567 -0.0622005760669708252
0.510651767253875732 -0.341064393520355225 0.0654938369989395142
0.303059786558151245 -0.206063121557235718 0.24826475977897644
0.543568611145019531 -0.312088489532470703 -0.0603828392922878265
0.142174988985061646 0.0693880468606948853 0.336715489625930786
-0.594723045825958252 0.267438501119613647 0.0125758489593863487
0.222703337669372559 -0.00719292974099516869 0.295935183763504028
0.231559246778488159 0.0342498496174812317 0.313138186931610107
0.534288525581359863 -0.319709837436676025 -0.0124234268441796303
-0.389076650142669678 -0.0642199963331222534 0.10603071004152298
-0.447340220212936401 -0.0403635203838348389 0.126826301217079163
0.49675104022026062 -0.0913748592138290405 0.154879271984100342
0.251603782176971436 0.063060462474822998 0.317034333944320679
-0.291040420532226562 -0.0930378139019012451 0.307924121618270874
-0.366281062364578247 -0.115021169185638428 0.104312971234321594
-0.563246667385101318 0.127184510231018066 -0.078052230179309845
-0.50130915641784668 0.0232581812888383865 0.186974793672561646
0.518826544284820557 -0.297396689653396606 -0.313705980777740479
0.473295658826828003 -0.328312486410140991 -0.299557358026504517
-0.57414400577545166 0.26873546838760376 0.363006800413131714
-0.57105022668838501 0.354807615280151367 0.167387917637825012
-0.191402405500411987 0.304584920406341553 0.101669773459434509
-0.661902308464050293 0.239694252610206604 0.0420538522303104401
-0.504733502864837646 0.144219115376472473 0.353623658418655396
0.507829427719116211 -0.347232162952423096 -0.317997246980667114
-0.200238972902297974 0.30491560697555542 0.102326855063438416
0.475900799036026001 -0.357782065868377686 0.00505426153540611267
0.51053917407989502 -0.330878913402557373 0.0667712762951850891
-0.610576391220092773 0.367525547742843628 0.0881761685013771057
-0.562361657619476318 0.288231253623962402 -0.0555136650800704956
0.220632225275039673 0.0101736178621649742 0.309463143348693848
0.241208329796791077 0.00501422910019755363 0.321929365396499634
-0.359295785427093506 -0.0570577792823314667 -0.1375855952501297
0.400032103061676025 -0.252943873405456543 0.32226213812828064
0.400334447622299194 -0.263319939374923706 0.325011134147644043
0.224741727113723755 -0.324421852827072144 0.320956170558929443
0.411818265914916992 -0.268059223890304565 0.325431317090988159
-0.508950591087341309 0.049234386533498764 0.195571407675743103
-0.631043434143066406 0.156412124633789062 -0.0522269047796726227
-0.501705348491668701 0.146784767508506775 0.34559786319732666
0.521628260612487793 -0.350791454315185547 -0.322744965553283691
0.496073156595230103 -0.348500251770019531 0.00057021196698769927
-0.197541460394859314 0.0159838609397411346 -0.0496180020272731781
-0.557616829872131348 0.341723501682281494 -0.00529986061155796051
0.489291101694107056 -0.36064639687538147 0.0413897708058357239
0.449935406446456909 -0.0742912590503692627 0.00235746987164020538
-0.556146144866943359 0.385134905576705933 0.15817706286907196
0.375354915857315063 -0.0812502950429916382 -0.119523942470550537
-0.389518618583679199 0.319460660219192505 0.169130399823188782
-0.384481221437454224 0.328020840883255005 0.197816997766494751
-0.363944411277770996 0.237912461161613464 -0.0831078663468360901
-0.407097220420837402 0.199368938803672791 0.0412555262446403503
-0.644295871257781982 0.286751627922058105 0.0940071567893028259
0.409342497587203979 -0.347469180822372437 0.136747732758522034
0.223055124282836914 0.0828387662768363953 -0.0331205427646636963
0.499327093362808228 -0.161415606737136841 0.124178148806095123
0.50108802318572998 -0.0929791629314422607 0.135113850235939026
0.216043174266815186 0.00172343419399112463 0.29979357123374939
-0.352880746126174927 -0.0683937519788742065 -0.00879895966500043869
-0.385203421115875244 0.265906333923339844 -0.0712892115116119385
0.507216989994049072 -0.347285658121109009 0.0552466735243797302
-0.356714844703674316 -0.0565181560814380646 -0.145177200436592102
0.132796019315719604 0.0724452659487724304 0.322441548109054565
-0.0991298109292984009 -0.265922635793685913 0.00633816653862595558
0.243120729923248291 0.0231633801013231277 0.322240710258483887
-0.480198174715042114 -0.0120134772732853889 0.185551449656486511
0.243155837059020996 0.0481611080467700958 0.317429214715957642
-0.277914524078369141 0.332581251859664917 0.0410169586539268494
0.370579391717910767 -0.0309500787407159805 -0.039556700736284256
0.520889401435852051 -0.348176270723342896 -0.036004927009344101
0.294047027826309204 -0.0120819946750998497 0.0373939983546733856
-0.643982648849487305 0.284669488668441772 0.0928547307848930359
0.0362719334661960602 0.136552244424819946 0.0854590833187103271
-0.397208154201507568 -0.0579287968575954437 0.12612558901309967
-0.441195756196975708 -0.0385175310075283051 0.13156716525554657
0.524556815624237061 -0.317749440670013428 -0.0651464909315109253
0.42317277193069458 -0.280249863862991333 0.331493765115737915
0.510381519794464111 -0.345180094242095947 0.0574142411351203918
0.404589802026748657 -0.259121894836425781 0.323907792568206787
-0.480105042457580566 0.0177568551152944565 0.17695339024066925
0.23619377613067627 0.068349592387676239 0.314829051494598389
-0.479255259037017822 -0.00866070948541164398 0.167596340179443359
0.239820763468742371 0.0673600807785987854 0.315232157707214355
0.388923287391662598 0.0258630793541669846 0.10637076199054718
0.220263391733169556 -0.316423207521438599 0.310615181922912598
0.383742570877075195 0.0427845269441604614 0.0694220066070556641
0.463441163301467896 0.0105933817103505135 0.175417527556419373
0.400213897228240967 -0.258914649486541748 0.327480405569076538
-0.499419540166854858 0.0208373125642538071 0.181177780032157898
-0.573335170745849609 0.266008675098419189 0.360229432582855225
-0.664364933967590332 0.229758024215698242 0.0222079996019601822
-0.148884892463684082 0.275176644325256348 0.0793841257691383362
0.522670447826385498 -0.335210740566253662 -0.322357356548309326
-0.220073625445365906 0.315478086471557617 0.0970485210418701172
0.500608861446380615 -0.346778035163879395 0.0673051029443740845
-0.189395114779472351 0.302560150623321533 0.115063890814781189
0.314351558685302734 -0.130425617098808289 0.301002830266952515
0.22577214241027832 -0.0354935377836227417 0.305429518222808838
0.0579505749046802521 -0.331220030784606934 0.291556745767593384
0.435965776443481445 -0.280282109975814819 0.333006888628005981
0.409692198038101196 -0.286088079214096069 0.331170231103897095
0.386401504278182983 -0.266121059656143188 0.319053590297698975
0.398094117641448975 -0.384887665510177612 -0.225427627563476562
-0.161881119012832642 0.278183281421661377 0.128909066319465637
0.381383746862411499 0.0438050404191017151 0.0773625895380973816
0.391527146100997925 -0.256073892116546631 0.319064438343048096
-0.500139534473419189 0.0241195093840360641 0.186014339327812195
0.500231921672821045 -0.326093375682830811 -0.312978565692901611
0.381278842687606812 -0.376183599233627319 -0.216037526726722717
0.521734297275543213 -0.349437236785888672 -0.324761360883712769
0.521294951438903809 -0.348576515913009644 -0.321699619293212891
0.513921082019805908 -0.319817841053009033 -0.318319529294967651
0.255670398473739624 -0.222668901085853577 0.0577472597360610962
0.186611711978912354 -0.14255291223526001 -0.105353236198425293
0.508500218391418457 -0.320457011461257935 0.0294671747833490372
-0.469287902116775513 -0.0122678074985742569 0.181247517466545105
0.496821671724319458 -0.349137455224990845 -0.309650123119354248
0.522077798843383789 -0.327692985534667969 -0.321828931570053101
0.476635962724685669 -0.3204173743724823 -0.302922099828720093
-0.34095466136932373 0.229675650596618652 -0.0440156236290931702
0.202364817261695862 0.132652550935745239 0.112525038421154022
-0.17224353551864624 0.0219343937933444977 0.0258408244699239731
0.266289055347442627 -0.166074737906455994 0.00630398280918598175
0.545378208160400391 -0.328521698713302612 -0.0476384125649929047
-0.45611080527305603 -0.0534769855439662933 0.16236424446105957
0.470328003168106079 -0.356239199638366699 -0.306982845067977905
0.479080706834793091 -0.269959688186645508 -0.301393359899520874
0.467940598726272583 -0.36204865574836731 -0.308072924613952637
-0.31994965672492981 0.266463369131088257 0.011792382225394249
0.033649832010269165 0.0983432009816169739 0.128768756985664368
-0.284299343824386597 -0.100402809679508209 -0.0871574431657791138
-0.616595983505249023 0.216853365302085876 -0.104421846568584442
0.245059803128242493 0.104379050433635712 -0.0294192880392074585
0.466915816068649292 -0.235268697142601013 -0.228337973356246948
-0.293554127216339111 -0.0888489633798599243 -0.0957042574882507324
0.249770462512969971 -0.276268243789672852 0.322747081518173218
0.222677901387214661 0.0667246356606483459 -0.0275922250002622604
-0.250531971454620361 -0.13055768609046936 -0.0553027503192424774
-0.211297035217285156 0.301792800426483154 0.148951709270477295
0.34049651026725769 -0.14086286723613739 0.318553239107131958
0.53037947416305542 -0.356821209192276001 0.0698812305927276611
-0.599703133106231689 0.356493353843688965 0.0607644505798816681
-0.346023648977279663 -0.0560443736612796783 -0.143414825201034546
-0.432560533285140991 0.157374054193496704 -0.0843269899487495422
0.52726900577545166 -0.33192792534828186 0.0205925013870000839
0.52882838249206543 -0.288144558668136597 -0.0699407681822776794
-0.498657554388046265 0.142543554306030273 -0.253558307886123657
0.14710158109664917 0.156605765223503113 0.0591088831424713135
0.253894537687301636 -0.0079023260623216629 0.327905267477035522
0.350641936063766479 -0.147446304559707642 0.320789903402328491
0.442928701639175415 -0.322667509317398071 -0.229168251156806946
-0.22373981773853302 -0.140371352434158325 -0.0536172203719615936
0.523207247257232666 -0.35046425461769104 0.097149185836315155
-0.645876824855804443 0.253323107957839966 0.0242445897310972214
0.393893897533416748 -0.280392885208129883 0.322501868009567261
-0.474460512399673462 -0.0102057885378599167 0.165042281150817871
0.225030317902565002 -0.325424224138259888 0.319213211536407471
-0.363372147083282471 -0.121590271592140198 0.130539968609809875
-0.238196194171905518 -0.141000032424926758 -0.0537493713200092316
-0.113577663898468018 -0.00942659191787242889 -0.0164112336933612823
0.390119701623916626 -0.278664737939834595 0.32083284854888916
-0.506783068180084229 0.0109348241239786148 0.20213039219379425
0.463257551193237305 -0.297015964984893799 -0.294115006923675537
0.35198560357093811 -0.148404121398925781 0.32164609432220459
0.458523273468017578 -0.303830385208129883 -0.228631556034088135
0.0249868016690015793 -0.144060716032981873 -0.0199313238263130188
0.369670778512954712 -0.328073680400848389 0.318964093923568726
0.392346620559692383 -0.281817883253097534 0.31709522008895874
0.129150807857513428 -0.319484084844589233 -0.0968948602676391602
-0.134135231375694275 0.278260022401809692 0.117782264947891235
-0.3330535888671875 0.0943090543150901794 -0.102104708552360535
0.374715209007263184 -0.376049399375915527 -0.214591354131698608
0.520512819290161133 -0.345825612545013428 -0.322376996278762817
0.52407604455947876 -0.358091235160827637 -0.326238840818405151
-0.0678816884756088257 -0.25521436333656311 0.0990798994898796082
0.32643282413482666 -0.131108090281486511 0.314974039793014526
0.425014227628707886 -0.260039299726486206 0.32851177453994751
-0.479723066091537476 0.0315821878612041473 0.196884691715240479
0.52726215124130249 -0.299677401781082153 -0.321833401918411255
0.53869551420211792 -0.292523950338363647 -0.324247956275939941
0.37851184606552124 -0.37428581714630127 -0.213301017880439758
0.372016042470932007 -0.357224375009536743 -0.213305667042732239
0.52469944953918457 -0.351689010858535767 -0.324619829654693604
0.526004910469055176 -0.363467931747436523 -0.322709560394287109
0.516176879405975342 -0.32723534107208252 -0.319693624973297119
0.480130165815353394 -0.352394521236419678 -0.311826646327972412
0.479095458984375 -0.36566588282585144 -0.312543511390686035
-0.361648023128509521 0.310228317975997925 0.239996522665023804
-0.320590704679489136 0.103881314396858215 0.0224958118051290512
-0.447446465492248535 0.204117745161056519 -0.0400200784206390381
-0.377567380666732788 0.279218763113021851 -0.00695307878777384758
-0.022092621773481369 -0.261128753423690796 0.144045844674110413
-0.591811716556549072 0.361363738775253296 0.0645597577095031738
0.368216037750244141 -0.373617887496948242 -0.212094902992248535
-0.123726256191730499 -0.0108848279342055321 0.00827241223305463791
0.397284805774688721 -0.35348963737487793 -0.217911511659622192
0.508085370063781738 -0.159670382738113403 0.125564083456993103
0.196087822318077087 0.124698013067245483 0.00681501859799027443
-0.0265253409743309021 0.166656926274299622 0.38325914740562439
-0.333841919898986816 -0.121423080563545227 0.100545316934585571
-0.325045645236968994 0.30280613899230957 -0.0363706350326538086
0.534809887409210205 -0.346968948841094971 0.0381720028817653656
0.526060819625854492 -0.331997394561767578 0.0348475724458694458
-0.595640718936920166 0.382006198167800903 0.11372029036283493
-0.0106434291228652 -0.144492015242576599 -0.026565229520201683
-0.235011875629425049 0.171891003847122192 -0.0013249935582280159
-0.48535504937171936 -0.01089507807046175 0.177458330988883972
-0.277835547924041748 0.335993736982345581 0.0425665080547332764
0.514162421226501465 -0.349253624677658081 0.0974133461713790894
-0.44844520092010498 -0.0360432527959346771 0.117671370506286621
0.43509402871131897 -0.253481954336166382 0.332113295793533325
0.415581256151199341 -0.278606653213500977 0.327578336000442505
-0.4687613844871521 0.0341963060200214386 0.193821921944618225
0.50298541784286499 -0.339720606803894043 0.00830906257033348083
-0.481322765350341797 -0.00305507541634142399 0.17778623104095459
-0.37726256251335144 -0.10699819028377533 0.0931463688611984253
-0.500887870788574219 0.0219712927937507629 0.184575796127319336
0.361339658498764038 -0.287045001983642578 -0.141424104571342468
0.00204087398014962673 -0.231703191995620728 0.0903269648551940918
-0.139923185110092163 0.264970242977142334 0.0887673124670982361
-0.129225149750709534 0.254294365644454956 0.0717690661549568176
0.313287526369094849 -0.293434292078018188 -0.130793020129203796
0.428928017616271973 -0.255724012851715088 0.330612033605575562
-0.615280091762542725 0.306497246026992798 0.392516463994979858
0.411438167095184326 -0.358069896697998047 -0.225982949137687683
0.505769670009613037 -0.346554219722747803 -0.319470316171646118
0.50846332311630249 -0.352590709924697876 -0.322179943323135376
0.524246931076049805 -0.298538804054260254 -0.318253368139266968
0.510424613952636719 -0.346900135278701782 -0.319796502590179443
0.270709574222564697 -0.169540926814079285 -0.0791513621807098389
0.134342685341835022 0.120208740234375 0.329458177089691162
0.252500712871551514 -0.285294204950332642 0.328486025333404541
0.325187176465988159 -0.120397120714187622 0.311011970043182373
0.303143590688705444 -0.204634249210357666 0.251531660556793213
0.250775456428527832 -0.00391440559178590775 0.325460821390151978
0.508015632629394531 -0.343287050724029541 0.0879537761211395264
0.242431297898292542 0.0897939503192901611 0.31039583683013916
0.463573276996612549 -0.284131795167922974 -0.23074650764465332
-0.261976242065429688 0.313869833946228027 0.0461963824927806854
0.344835489988327026 -0.140156269073486328 0.32981380820274353
0.374564319849014282 -0.363974303007125854 -0.208298414945602417
0.338381499052047729 -0.129422679543495178 0.321059674024581909
0.527160346508026123 -0.347238302230834961 -0.323621660470962524
0.524925589561462402 -0.35209539532661438 -0.326176285743713379
0.480734169483184814 -0.372377365827560425 -0.312634199857711792
-0.359818220138549805 -0.0652878656983375549 0.0831571817398071289
-0.407322973012924194 0.0884673446416854858 -0.112826749682426453
0.0145955616608262062 0.0979716405272483826 0.217491880059242249
-0.378336995840072632 -0.0934694632887840271 -0.0280503053218126297
0.266196131706237793 0.068424418568611145 -0.0913425832986831665
-0.107883326709270477 -0.0153646208345890045 0.0463493280112743378
-0.357902407646179199 -0.0923113226890563965 0.0132028153166174889
-0.290174275636672974 0.304652124643325806 0.166898638010025024
-0.355344295501708984 -0.0738495811820030212 0.0409079045057296753
-0.59847414493560791 0.294436097145080566 0.186877384781837463
0.250129997730255127 0.0967777594923973083 -0.033819202333688736
0.379847258329391479 -0.355024129152297974 -0.208969637751579285
0.470500171184539795 -0.324900537729263306 0.138378128409385681
0.465199589729309082 -0.271924793720245361 -0.0925675109028816223
-0.43948480486869812 -0.0433604493737220764 0.0845054313540458679
-0.336113005876541138 -0.12510371208190918 0.127840235829353333
0.529040336608886719 -0.342048168182373047 0.0514075122773647308
0.393510907888412476 0.0471073612570762634 0.134066656231880188
-0.185624152421951294 0.313971757888793945 0.108183301985263824
-0.441442430019378662 -0.0432629361748695374 0.118066437542438507
0.538056373596191406 -0.326285064220428467 -0.05525980144739151
-0.352877259254455566 0.30624726414680481 0.114516951143741608
0.494859099388122559 -0.346246719360351562 0.0444963909685611725
-0.575467109680175781 0.305023640394210815 0.379650622606277466
0.431672513484954834 -0.281190991401672363 0.334063947200775146
-0.47749793529510498 0.00371968303807079792 0.164385378360748291
0.52567589282989502 -0.3499947190284729 -0.00218008505180478096
-0.066920451819896698 -0.263263046741485596 0.298670083284378052
-0.511800169944763184 0.00427849264815449715 0.188315644860267639
0.390591531991958618 -0.360443443059921265 -0.215265661478042603
-0.118121221661567688 0.25427323579788208 0.0640022158622741699
-0.500315070152282715 0.00469031697139143944 0.193499833345413208
0.427155613899230957 -0.274692565202713013 0.330997765064239502
-0.333399146795272827 0.10396372526884079 -0.118182383477687836
-0.105466067790985107 0.254130542278289795 0.0940086022019386292
0.511345326900482178 -0.34179234504699707 -0.319273412227630615
-0.612742066383361816 0.302459508180618286 0.396537631750106812
-0.508881747722625732 0.0362893827259540558 0.188843593001365662
-0.290876597166061401 -0.0894437506794929504 -0.0783633813261985779
0.51019972562789917 -0.345072299242019653 -0.32069927453994751
0.0723961144685745239 0.139223441481590271 0.0729274451732635498
0.246285960078239441 0.107122495770454407 0.321847498416900635
0.473850220441818237 -0.286892235279083252 -0.230277806520462036
0.305919826030731201 -0.314977943897247314 0.332066595554351807
0.512412846088409424 -0.350140422582626343 -0.321725815534591675
-0.31517454981803894 -0.0872903764247894287 -0.0340161882340908051
0.515023648738861084 -0.355845421552658081 -0.32269325852394104
-0.625111758708953857 0.180234432220458984 -0.0857838541269302368
-0.353378444910049438 -0.0561438724398612976 -0.143714621663093567
-0.33108249306678772 0.269425034523010254 -0.0547240786254405975
-0.176989957690238953 0.138760417699813843 0.00535799236968159676
0.546118557453155518 -0.217597529292106628 0.159573197364807129
0.0311019308865070343 0.10240674763917923 0.0657595992088317871
0.510473728179931641 -0.331005126237869263 -0.319071412086486816
0.586495816707611084 -0.32527768611907959 -0.319673091173171997
0.250368118286132812 -0.288611680269241333 0.318706899881362915
0.256249874830245972 -0.00321769784204661846 0.328401029109954834
0.30222022533416748 -0.282846838235855103 0.331591039896011353
-0.344010293483734131 -0.091115906834602356 0.0182279143482446671
-0.374212682247161865 -0.0903040766716003418 -0.0180089417845010757
-0.0649569928646087646 -0.273869037628173828 0.159626469016075134
-0.630385398864746094 0.275559514760971069 0.0762899443507194519
0.367302894592285156 -0.365800321102142334 -0.21187204122543335
-0.124058060348033905 -0.0294194556772708893 -0.00629886146634817123
-0.598497629165649414 0.34225115180015564 0.090888194739818573
0.444624543190002441 -0.2495594322681427 -0.285909175872802734
0.383354008197784424 -0.348269402980804443 -0.211735948920249939
0.313084125518798828 -0.372941046953201294 -0.155753180384635925
-0.179250150918960571 0.312613874673843384 0.100376419723033905
0.53582608699798584 -0.319473087787628174 -0.0320666544139385223
-0.655069410800933838 0.23827815055847168 0.0144209489226341248
-0.452904045581817627 -0.0542046390473842621 0.163511320948600769
0.500670433044433594 -0.348803609609603882 0.0717176496982574463
0.441211402416229248 -0.261128991842269897 0.334678411483764648
0.507949590682983398 -0.344011932611465454 0.0302625149488449097
0.265240967273712158 0.121564209461212158 0.0275778789073228836
0.400614738464355469 0.0325027145445346832 0.140229523181915283
-0.106079138815402985 0.252535611391067505 0.0730433613061904907
0.317336767911911011 -0.380966722965240479 -0.156630069017410278
-0.566569030284881592 0.29547572135925293 -0.0510424971580505371
0.391047686338424683 -0.362958163022994995 -0.220647111535072327
0.359781831502914429 0.033415965735912323 0.049026045948266983
0.195220157504081726 -0.365772128105163574 -0.0954967886209487915
0.391925632953643799 -0.355883866548538208 -0.216771781444549561
0.520342469215393066 -0.335303217172622681 -0.322220504283905029
0.523545742034912109 -0.333486676216125488 -0.323661893606185913
0.244963780045509338 0.024003937840461731 0.324328601360321045
0.213080063462257385 -0.338922619819641113 0.318876981735229492
0.237773731350898743 0.105972506105899811 0.315419822931289673
0.522301018238067627 -0.337211817502975464 -0.325311332941055298
0.318836241960525513 -0.380078166723251343 -0.150783583521842957
0.584821224212646484 -0.31815570592880249 -0.333890974521636963
-0.380825787782669067 -0.093744814395904541 -0.0175148695707321167
0.458998054265975952 -0.325733929872512817 0.125393927097320557
0.389684796333312988 0.0535327605903148651 0.132059201598167419
-0.173477873206138611 0.307214856147766113 0.106256008148193359
-0.462053567171096802 -0.0303742345422506332 0.134756073355674744
0.44034913182258606 -0.261713385581970215 0.335456371307373047
