ply
format ascii 1.0
element vertex 738
property float x
property float y
property float z
end_header
0.46822059154510498 -0.310855895280838013 -0.299311131238937378
0.5074271559715271 -0.34715723991394043 0.0179242920130491257
-0.556125402450561523 0.309779971837997437 0.102213427424430847
0.194308340549468994 -0.33936232328414917 -0.059187624603509903
0.0705135837197303772 -0.28221014142036438 -0.0779278874397277832
0.252750813961029053 -0.250379413366317749 0.320214271545410156
0.240068927407264709 0.0308025479316711426 0.316974461078643799
-0.120857924222946167 -0.0478635318577289581 0.00814316421747207642
0.179054722189903259 -0.100253507494926453 -0.0147967291995882988
0.532684266567230225 -0.332342207431793213 -0.0131816389039158821
0.37076878547668457 -0.349467724561691284 -0.208922579884529114
0.535126924514770508 -0.245935067534446716 0.177299261093139648
0.561420798301696777 -0.315760642290115356 -0.331007808446884155
0.554672300815582275 -0.211816579103469849 0.13394734263420105
-0.543514490127563477 0.380805164575576782 0.164502754807472229
0.122968092560768127 0.117068909108638763 0.133172020316123962
-0.582468986511230469 0.351981669664382935 0.0977691188454627991
-0.481681317090988159 0.186009138822555542 -0.0916141271591186523
0.515865981578826904 -0.339236736297607422 0.0388346277177333832
0.253770142793655396 -0.279290914535522461 0.32203441858291626
0.278957396745681763 -0.355973869562149048 -0.126081943511962891
0.508229553699493408 -0.286621004343032837 -0.313734471797943115
-0.432124346494674683 -0.0572220087051391602 0.116702400147914886
0.202087953686714172 0.0903490111231803894 0.223432332277297974
0.244444414973258972 0.104443185031414032 -0.0572092272341251373
-0.195734605193138123 0.20145764946937561 0.349374443292617798
0.250633776187896729 0.0247647520154714584 0.323406517505645752
0.239998608827590942 0.0188586059957742691 0.321098059415817261
-0.0313710235059261322 0.162596166133880615 0.382737666368484497
-0.482536345720291138 -0.0156666692346334457 0.180199161171913147
0.484097123146057129 -0.36915135383605957 0.0460814759135246277
-0.643715322017669678 0.287172079086303711 0.086203940212726593
0.276311129331588745 -0.165904253721237183 -0.0704842358827590942
-0.411775738000869751 -0.0568937286734580994 0.078909456729888916
-0.643141806125640869 0.175773292779922485 -0.0820707604289054871
-0.225727632641792297 -0.133953019976615906 -0.0522296279668807983
0.255267620086669922 -0.26570776104927063 0.321196109056472778
-0.345262289047241211 0.0172981563955545425 -0.116951361298561096
-0.28694644570350647 -0.0915642008185386658 -0.106531545519828796
-0.585151374340057373 0.209894776344299316 -0.218084216117858887
0.267934173345565796 -0.297158360481262207 0.315271198749542236
-0.0252650585025548935 -0.187336817383766174 -0.0434714145958423615
-0.618246614933013916 0.276969403028488159 0.0313787534832954407
-0.609043121337890625 0.298274874687194824 0.0924787372350692749
-0.397513866424560547 -0.0629022493958473206 0.118904441595077515
-0.451693922281265259 -0.0382129848003387451 0.119504295289516449
0.431371510028839111 -0.271934270858764648 0.329272687435150146
-0.0523877367377281189 0.140671297907829285 0.0917600244283676147
-0.503132224082946777 0.151083827018737793 0.355511903762817383
0.241160988807678223 -0.319436132907867432 0.322889715433120728
0.497464001178741455 -0.370974034070968628 0.0574003607034683228
0.399578303098678589 -0.257060050964355469 0.322548598051071167
-0.158065184950828552 -0.263584047555923462 0.181624576449394226
-0.499217897653579712 0.0139837972819805145 0.158115357160568237
0.417870044708251953 -0.297554194927215576 0.328820466995239258
0.535611271858215332 -0.340329825878143311 -0.018414035439491272
0.344714045524597168 -0.267514944076538086 -0.127838358283042908
-0.496556013822555542 0.0719290077686309814 0.204028204083442688
0.443906843662261963 -0.272378236055374146 0.33350074291229248
0.522340714931488037 -0.335550367832183838 0.0328358933329582214
0.453795343637466431 -0.319990038871765137 -0.293051660060882568
0.474545478820800781 -0.311860442161560059 0.116763859987258911
0.517597854137420654 -0.278511583805084229 -0.312845945358276367
0.503065407276153564 -0.326035469770431519 -0.314347058534622192
0.518410682678222656 -0.327284634113311768 0.101974241435527802
0.479732006788253784 -0.311521649360656738 -0.302193790674209595
0.114672034978866577 0.11837991327047348 0.289115250110626221
-0.122032701969146729 0.268485903739929199 0.158860132098197937
-0.614996075630187988 0.265441477298736572 0.0520893372595310211
-0.479440301656723022 0.00299446866847574711 0.181376174092292786
0.427040129899978638 -0.355210274457931519 0.158636480569839478
-0.292119503021240234 -0.110629431903362274 -0.105792641639709473
0.130670875310897827 0.0652944892644882202 0.321325361728668213
0.253974586725234985 0.0384929999709129333 -0.0777673497796058655
0.23567846417427063 0.0936700403690338135 -0.053034026175737381
0.418101251125335693 -0.261680006980895996 -0.202343285083770752
0.522021114826202393 -0.35480809211730957 -0.0194314718246459961
-0.609111249446868896 0.381041377782821655 0.181287497282028198
0.517949461936950684 -0.279411613941192627 -0.314768821001052856
0.499455690383911133 -0.350168436765670776 0.024118250235915184
-0.58807981014251709 0.369230806827545166 0.113067440688610077
0.506154358386993408 -0.104954726994037628 0.147350907325744629
-0.198178485035896301 0.311411052942276001 0.112997531890869141
0.264379560947418213 -0.286747843027114868 0.319861173629760742
0.237077429890632629 0.0619082637131214142 0.310640215873718262
-0.144310876727104187 -0.0435990728437900543 0.00420636450871825218
-0.657914161682128906 0.214666828513145447 -0.0462187118828296661
-0.28843766450881958 -0.0760332643985748291 -0.0686288848519325256
0.227480337023735046 0.041964113712310791 -0.0481157228350639343
0.551715075969696045 -0.144708842039108276 0.132096901535987854
0.520046234130859375 -0.295553863048553467 0.0749443769454956055
0.517936348915100098 -0.284201949834823608 -0.181184545159339905
-0.358003228902816772 -0.0171771887689828873 -0.0279613565653562546
0.091618366539478302 0.0879960581660270691 0.0858404040336608887
0.467019140720367432 -0.36205938458442688 -0.0106366891413927078
-0.432993233203887939 0.157664626836776733 -0.0665063634514808655
0.524093747138977051 -0.335826069116592407 0.0689433068037033081
0.263239532709121704 -0.286116927862167358 0.3185843825340271
0.00963974930346012115 -0.0911211222410202026 -0.0261027123779058456
0.032839164137840271 -0.130530089139938354 0.0218933504074811935
-0.630902528762817383 0.264960736036300659 0.0290400609374046326
0.24227103590965271 0.0740759968757629395 0.318909972906112671
0.240377843379974365 0.0293275173753499985 0.318987607955932617
-0.174963653087615967 0.30068671703338623 0.116377383470535278
0.304895162582397461 -0.151531308889389038 0.307878822088241577
0.262275516986846924 -0.290915787220001221 0.321070194244384766
-0.476244717836380005 -0.0082671046257019043 0.166250362992286682
0.242899268865585327 0.0815127938985824585 0.312269061803817749
0.520521640777587891 -0.351478606462478638 0.0819793045520782471
-0.0346110053360462189 -0.237723648548126221 0.124128870666027069
-0.63853156566619873 0.289949804544448853 0.0988356098532676697
-0.234046041965484619 -0.132923245429992676 -0.058016698807477951
-0.379228651523590088 -0.108900755643844604 0.105547636747360229
-0.23624950647354126 -0.147940307855606079 -0.0578637756407260895
-0.658130049705505371 0.214359387755393982 -0.0339205376803874969
0.5291556715965271 -0.352810144424438477 0.0779197961091995239
-0.621355056762695312 0.270217984914779663 0.0524857677519321442
-0.40413510799407959 -0.0644434764981269836 0.112075448036193848
-0.446349740028381348 -0.0416008755564689636 0.122010454535484314
0.268340647220611572 -0.285810202360153198 0.323545128107070923
0.127973094582557678 -0.326763898134231567 0.312658786773681641
0.152635350823402405 -0.343252301216125488 0.317932546138763428
0.448133915662765503 -0.335747361183166504 -0.293026357889175415
0.516061186790466309 -0.303128719329833984 -0.107951685786247253
0.515572667121887207 -0.280382990837097168 -0.312864303588867188
0.485245734453201294 -0.327801406383514404 -0.309827268123626709
0.464743584394454956 -0.346008807420730591 -0.302702218294143677
0.549881160259246826 -0.210360243916511536 -0.316013723611831665
0.524440288543701172 -0.300166219472885132 -0.322519183158874512
0.518310248851776123 -0.300977528095245361 -0.318414390087127686
0.247003957629203796 0.0567970201373100281 0.316501230001449585
0.241463392972946167 0.0872658789157867432 0.312837153673171997
-0.291569739580154419 -0.100639216601848602 -0.101919651031494141
-0.453603535890579224 -0.0520779937505722046 0.11710241436958313
0.405051976442337036 -0.272476553916931152 0.322592496871948242
-0.502476871013641357 0.00368070602416992188 0.189166024327278137
0.401351451873779297 -0.287450164556503296 0.324908077716827393
0.399495631456375122 -0.27377164363861084 0.323387950658798218
0.342560768127441406 -0.259157806634902954 0.0901552736759185791
-0.0185052007436752319 -0.244519919157028198 0.12870296835899353
-0.464585185050964355 0.0358792729675769806 0.1895914226770401
-0.194504231214523315 0.221432507038116455 0.172124758362770081
0.3672199547290802 -0.329430937767028809 -0.0234880000352859497
0.323859065771102905 -0.390215635299682617 -0.15888531506061554
0.535703659057617188 -0.323784977197647095 -0.0582127496600151062
-0.441811889410018921 -0.00483363308012485504 0.152731359004974365
-0.0189443156123161316 -0.059685099869966507 0.141782104969024658
5.50799377379007638e-05 -0.236257255077362061 0.106420725584030151
0.526444375514984131 -0.201971173286437988 -0.0800147727131843567
0.450181037187576294 -0.308434903621673584 -0.292907655239105225
0.5271567702293396 -0.275543510913848877 -0.315717428922653198
0.500262320041656494 -0.324985533952713013 -0.312716215848922729
0.475582867860794067 -0.305150836706161499 -0.297427266836166382
-0.127578109502792358 0.246455833315849304 0.139037087559700012
-0.649240374565124512 0.281979620456695557 0.0942190662026405334
-0.199089303612709045 0.286489576101303101 0.336002826690673828
0.498131036758422852 -0.0869688466191291809 0.136718913912773132
0.201185435056686401 -0.359272390604019165 -0.0908143743872642517
0.505713164806365967 -0.367828845977783203 -0.0226903576403856277
0.527449429035186768 -0.242882028222084045 0.173003003001213074
-0.586236655712127686 0.379255831241607666 0.170673832297325134
0.445402383804321289 -0.315028071403503418 -0.287782222032546997
0.498724311590194702 -0.111324749886989594 0.112227939069271088
-0.655928432941436768 0.175485208630561829 -0.103843420743942261
-0.202150419354438782 0.308611571788787842 0.0892062559723854065
0.201502934098243713 -0.0138224689289927483 0.295352369546890259
0.160304412245750427 -0.0623235404491424561 -0.0440316163003444672
-0.579761981964111328 0.302178323268890381 0.368741810321807861
0.275189399719238281 0.0981728583574295044 -0.0290655884891748428
-0.43535691499710083 0.155371710658073425 -0.0860341787338256836
0.534702062606811523 -0.333203315734863281 0.0127653162926435471
-0.568855345249176025 0.19734935462474823 -0.229170471429824829
-0.497688055038452148 0.0449898950755596161 -0.0868858695030212402
0.0316812135279178619 -0.104142658412456512 0.0330491811037063599
0.534399747848510742 -0.264584541320800781 -0.316362679004669189
0.0097689703106880188 0.197490498423576355 0.0276396404951810837
0.302367538213729858 0.0386998243629932404 -0.0844420716166496277
-0.332074612379074097 -0.0160120576620101929 -0.107710696756839752
0.236663803458213806 0.0142166037112474442 0.321902841329574585
0.125248447060585022 0.0127862859517335892 0.299047112464904785
0.527778863906860352 -0.355325818061828613 0.0663645640015602112
0.467456817626953125 -0.309941262006759644 -0.233143165707588196
-0.652222514152526855 0.285319089889526367 0.10432889312505722
0.546764969825744629 -0.220161274075508118 0.163561925292015076
0.528310179710388184 -0.323524534702301025 -0.0160254817456007004
-0.382940918207168579 -0.0564370192587375641 0.0762475579977035522
0.457298398017883301 -0.310916930437088013 -0.292605996131896973
0.50534135103225708 -0.339905977249145508 -0.317955672740936279
0.479201465845108032 -0.314397722482681274 -0.299552798271179199
0.520715713500976562 -0.30138280987739563 -0.317379027605056763
-0.00196222634986042976 -0.14008466899394989 -0.0247773528099060059
0.397830307483673096 -0.273329794406890869 0.323563039302825928
0.40149843692779541 -0.271757215261459351 0.323868125677108765
0.506364285945892334 -0.332142144441604614 0.105902954936027527
-0.467583686113357544 0.0424173921346664429 0.170700117945671082
0.410378724336624146 -0.346031844615936279 0.156658098101615906
-0.360657274723052979 -0.0352719612419605255 -0.148110777139663696
-0.127885445952415466 -0.267748922109603882 0.112446151673793793
0.512923896312713623 -0.369168251752853394 -0.0146341156214475632
-0.213774576783180237 0.312413990497589111 0.0977387726306915283
0.250944733619689941 -0.28725588321685791 0.323009729385375977
0.20921972393989563 0.00926206540316343307 -0.0460526421666145325
0.0703344494104385376 -0.151628792285919189 -0.0171852055937051773
-0.169805034995079041 0.304637789726257324 0.118942655622959137
0.471466153860092163 -0.364480435848236084 0.00708903232589364052
-0.29068949818611145 -0.0994298979640007019 -0.10317695140838623
0.0368191227316856384 -0.14977911114692688 -0.0216552596539258957
0.232379019260406494 0.0560266226530075073 0.309323817491531372
0.253751307725906372 -0.288817703723907471 0.320791035890579224
-0.471667081117630005 0.00112298107706010342 0.168715536594390869
0.241191893815994263 0.0624809488654136658 0.313223838806152344
0.509270548820495605 -0.35216820240020752 0.0640164613723754883
0.227791249752044678 -0.31495019793510437 0.314695239067077637
-0.375230997800827026 -0.0931614711880683899 0.0862239301204681396
-0.062362082302570343 -0.241709113121032715 0.302655428647994995
-0.222394868731498718 -0.127668991684913635 -0.0530752241611480713
-0.409750550985336304 -0.065454438328742981 0.0985646843910217285
-0.444892734289169312 -0.0447239093482494354 0.132787123322486877
0.239342376589775085 -0.294196337461471558 0.314566701650619507
0.154300644993782043 -0.324465066194534302 0.320245027542114258
0.4256172776222229 -0.256246060132980347 0.328714758157730103
0.438696056604385376 -0.342972069978713989 -0.292679697275161743
0.506757199764251709 -0.334608465433120728 -0.318100124597549438
0.445544391870498657 -0.35232052206993103 -0.28673824667930603
0.238456115126609802 0.0655442327260971069 0.312503427267074585
0.403577804565429688 -0.28767859935760498 0.326032400131225586
-0.494700521230697632 0.00671107973903417587 0.188450440764427185
0.485973387956619263 -0.063403785228729248 0.131849050521850586
0.0129376426339149475 -0.170815691351890564 0.00991234742105007172
0.531899511814117432 -0.307719767093658447 -0.0621761828660964966
0.315302819013595581 -0.302335828542709351 -0.126771673560142517
0.446361243724822998 -0.291370689868927002 -0.285640209913253784
-0.33684992790222168 0.224622398614883423 0.125805184245109558
-0.400661826133728027 -0.0281600076705217361 -0.00187504349742084742
0.403483211994171143 -0.271899938583374023 0.324251472949981689
-0.133170768618583679 0.195667877793312073 0.167869463562965393
0.399534851312637329 -0.271836817264556885 0.324064850807189941
-0.446346253156661987 -0.0249272808432579041 0.0214477982372045517
-0.137889668345451355 0.244719833135604858 0.191831961274147034
-0.612775087356567383 0.294027209281921387 0.183809712529182434
0.124792382121086121 0.115907341241836548 0.316847175359725952
-0.120834149420261383 0.250454485416412354 0.161964982748031616
-0.58328557014465332 0.348151922225952148 0.0581740736961364746
0.427279651165008545 -0.348203659057617188 0.153140947222709656
-0.566665947437286377 0.295102566480636597 -0.0689878314733505249
0.252245813608169556 0.026624239981174469 -0.079495258629322052
0.247965350747108459 0.100288279354572296 -0.0482508428394794464
-0.35712161660194397 -0.0556179322302341461 -0.141845956444740295
0.198972523212432861 0.120100118219852448 0.0358817614614963531
0.545840084552764893 -0.131648421287536621 0.112094424664974213
-0.581573724746704102 0.321785897016525269 -0.0228329543024301529
0.206482052803039551 0.0245409924536943436 0.176983654499053955
-0.595321416854858398 0.375134319067001343 0.172087013721466064
0.445235788822174072 -0.319295138120651245 0.127472534775733948
0.25555044412612915 -0.278787493705749512 0.316634953022003174
0.235873788595199585 0.0236531253904104233 0.316748857498168945
-0.362601548433303833 -0.0496731512248516083 -0.0237346887588500977
-0.182395979762077332 0.118116870522499084 0.0423991046845912933
0.255267888307571411 -0.288222730159759521 0.319451361894607544
0.242302060127258301 0.0330268926918506622 0.322014480829238892
0.400126457214355469 0.0232495535165071487 0.115300871431827545
-0.34014323353767395 -0.0659684464335441589 -0.147289469838142395
0.0762957111001014709 -0.332937121391296387 0.299110531806945801
-0.386468410491943359 -0.060688365250825882 0.0938835591077804565
-0.447928100824356079 -0.0411981306970119476 0.127795115113258362
0.439763963222503662 -0.279362201690673828 0.333787292242050171
0.0349572226405143738 -0.122837692499160767 -0.0255635064095258713
0.41474449634552002 -0.280815780162811279 0.327130913734436035
0.433448076248168945 -0.296104937791824341 0.333290010690689087
0.368474990129470825 -0.278643786907196045 -0.130237355828285217
-0.477192729711532593 0.0015623653307557106 0.188398316502571106
-0.291104942560195923 -0.0961396917700767517 -0.10450880229473114
0.241901427507400513 -0.312978297472000122 0.309812337160110474
0.473685145378112793 -0.354204684495925903 0.00709921494126319885
-0.295942038297653198 -0.096385955810546875 -0.106962352991104126
0.245246872305870056 -0.288569599390029907 0.320205211639404297
0.0628293305635452271 -0.329637527465820312 0.297194004058837891
0.158623293042182922 -0.267659455537796021 -0.105486571788787842
0.250485926866531372 0.0632901787757873535 0.315649628639221191
-0.482271343469619751 -0.00778496405109763145 0.178018122911453247
0.236627161502838135 0.066460244357585907 0.315005272626876831
0.239245772361755371 -0.33177533745765686 0.321542590856552124
-0.381899744272232056 -0.0918317139148712158 0.0367759577929973602
-0.215650603175163269 -0.139900654554367065 -0.0543093420565128326
-0.382366925477981567 -0.0634948462247848511 0.0835972204804420471
0.150512620806694031 -0.33157077431678772 0.332036346197128296
0.44628104567527771 -0.279893547296524048 0.333710789680480957
0.40786018967628479 -0.280527681112289429 0.325243592262268066
-0.501788794994354248 0.00669425539672374725 0.188764780759811401
-0.32161363959312439 0.0973199233412742615 -0.0702208727598190308
0.53293764591217041 -0.207510173320770264 -0.0525888390839099884
0.451552629470825195 -0.293807953596115112 -0.290530383586883545
0.488003194332122803 -0.325153946876525879 -0.310957491397857666
0.447005122900009155 -0.309649348258972168 -0.290896356105804443
-0.577606141567230225 0.26919025182723999 0.365930289030075073
-0.461135506629943848 0.105943024158477783 -0.231013789772987366
0.375345736742019653 -0.318705469369888306 0.199178293347358704
-0.58968651294708252 0.366894930601119995 0.131296142935752869
0.393189370632171631 -0.353362768888473511 -0.217517659068107605
0.44170495867729187 -0.310191631317138672 -0.289105087518692017
-0.200534701347351074 0.305338203907012939 0.0950683727860450745
-0.155351400375366211 0.267827093601226807 0.151775628328323364
0.530251204967498779 -0.33845674991607666 0.0718589425086975098
0.46436956524848938 -0.266084969043731689 -0.217701122164726257
-0.633388698101043701 0.275718659162521362 0.10708744078874588
0.439027309417724609 -0.308484345674514771 -0.287275314331054688
0.516013622283935547 -0.277126103639602661 -0.316915631294250488
0.517155647277832031 -0.340262025594711304 -0.320838004350662231
0.454961806535720825 -0.30696520209312439 -0.293332427740097046
0.491356313228607178 -0.321947455406188965 0.0944324508309364319
0.021205563098192215 -0.27572283148765564 -0.0185331311076879501
-0.653855025768280029 0.172023653984069824 -0.108121924102306366
-0.224571272730827332 0.318434357643127441 0.121466711163520813
0.465866148471832275 -0.364085882902145386 0.00592766515910625458
0.481554150581359863 -0.336819469928741455 0.050310872495174408
0.512061357498168945 -0.339321345090866089 -0.319496452808380127
0.440809816122055054 -0.356468260288238525 -0.297693699598312378
-0.269870728254318237 0.321923196315765381 0.0419686436653137207
0.424759417772293091 -0.313204914331436157 -0.281968235969543457
0.41594928503036499 -0.295266091823577881 0.328577041625976562
-0.325744956731796265 -0.0753236711025238037 0.123549304902553558
-0.366557210683822632 -0.0666405558586120605 0.154760122299194336
-0.338098198175430298 0.214791178703308105 0.132942482829093933
0.0103714363649487495 0.119307622313499451 0.105253681540489197
0.542491376399993896 -0.309193730354309082 -0.0462071001529693604
0.0142054352909326553 -0.261731088161468506 0.0395638756453990936
-0.00300973281264305115 -0.236528649926185608 0.094328656792640686
0.000745413941331207752 -0.219571217894554138 0.0815875828266143799
0.465435624122619629 -0.36094743013381958 0.0303344950079917908
-0.268991351127624512 -0.137946248054504395 0.177584797143936157
-0.344749957323074341 -0.0658176764845848083 0.141348645091056824
0.12402036041021347 -0.276684492826461792 0.12905547022819519
-0.133550524711608887 0.078759998083114624 0.0903753191232681274
0.463844239711761475 -0.0544844530522823334 0.0176272820681333542
-0.0135960690677165985 -0.216879948973655701 0.080427609384059906
-0.554669320583343506 0.391581624746322632 0.147822245955467224
0.497112244367599487 -0.366814851760864258 0.00525360554456710815
-0.610603809356689453 0.294024378061294556 0.186614304780960083
0.530535280704498291 -0.275192856788635254 -0.317754000425338745
0.370837092399597168 -0.264687120914459229 0.181596696376800537
0.420836657285690308 -0.344520330429077148 0.150907784700393677
0.252369076013565063 0.0391174890100955963 -0.0666227787733078003
0.549749016761779785 -0.150039300322532654 0.124282889068126678
-0.570440769195556641 0.284072816371917725 -0.00634956592693924904
0.501379013061523438 -0.362666696310043335 -0.00127874163445085287
0.208522379398345947 0.115563325583934784 -0.0103725465014576912
-0.288780063390731812 -0.0855371281504631042 -0.0663544833660125732
0.159697562456130981 -0.0832848995923995972 -0.0361145250499248505
-0.339595675468444824 -0.105375446379184723 0.141387999057769775
0.511558830738067627 -0.281353473663330078 -0.31326824426651001
-0.338916927576065063 -0.0795557200908660889 0.0386856012046337128
-0.369177937507629395 0.280717283487319946 -0.0625117272138595581
0.510289192199707031 -0.341024845838546753 0.0651423633098602295
0.302723705768585205 -0.206018880009651184 0.247991308569908142
0.543237090110778809 -0.312076002359390259 -0.0607592910528182983
0.14183671772480011 0.0693582147359848022 0.336498886346817017
-0.594744086265563965 0.267547428607940674 0.0122387586161494255
0.222323179244995117 -0.00722852395847439766 0.295686125755310059
0.231147021055221558 0.0341847948729991913 0.312883287668228149
0.533939957618713379 -0.319691270589828491 -0.0127932978793978691
-0.389002621173858643 -0.0638996735215187073 0.105851262807846069
-0.447271376848220825 -0.0400506146252155304 0.126646533608436584
0.496238440275192261 -0.0914801061153411865 0.154515489935874939
0.251153379678726196 0.0629671961069107056 0.316767573356628418
-0.290976643562316895 -0.0926833152770996094 0.307855159044265747
-0.366194456815719604 -0.114662416279315948 0.104145973920822144
-0.563206195831298828 0.127369493246078491 -0.0784001424908638
-0.501259922981262207 0.0235355086624622345 0.186811208724975586
0.51861727237701416 -0.297373443841934204 -0.31410747766494751
0.473117947578430176 -0.328265845775604248 -0.299958765506744385
-0.574139177799224854 0.268855750560760498 0.362856477499008179
-0.571094393730163574 0.354879289865493774 0.167162835597991943
-0.191619232296943665 0.30458676815032959 0.101431451737880707
-0.661926925182342529 0.239821121096611023 0.04174051433801651
-0.504705250263214111 0.144429042935371399 0.35349765419960022
0.507650792598724365 -0.347187846899032593 -0.318393945693969727
-0.200444862246513367 0.304921120405197144 0.102090373635292053
0.475585520267486572 -0.357731103897094727 0.00468430668115615845
0.510171294212341309 -0.330844700336456299 0.0664195790886878967
-0.610628604888916016 0.36758577823638916 0.087886318564414978
-0.562364399433135986 0.288322180509567261 -0.0558830201625823975
0.220245346426963806 0.0101291993632912636 0.309216201305389404
0.240808650851249695 0.00496041309088468552 0.321677297353744507
-0.359174013137817383 -0.0567630119621753693 -0.137841746211051941
0.399659961462020874 -0.252913922071456909 0.321993738412857056
0.399966001510620117 -0.263282418251037598 0.324745863676071167
0.224515825510025024 -0.324233293533325195 0.320773184299468994
0.411445975303649902 -0.268021494150161743 0.325165331363677979
-0.508910655975341797 0.0494963154196739197 0.195405885577201843
-0.631026685237884521 0.156579688191413879 -0.0525801591575145721
-0.501679122447967529 0.146994248032569885 0.345469832420349121
0.521446347236633301 -0.350749492645263672 -0.323139488697052002
0.495748788118362427 -0.348458409309387207 0.000201594506506808102
-0.197518095374107361 0.0161548033356666565 -0.0498955473303794861
-0.557639598846435547 0.341788709163665771 -0.00564647512510418892
0.488956689834594727 -0.360593646764755249 0.0410320870578289032
0.44947504997253418 -0.0744000747799873352 0.00194457871839404106
-0.556197881698608398 0.385190427303314209 0.157945960760116577
0.375011563301086426 -0.0813255235552787781 -0.119952879846096039
-0.389578461647033691 0.319533705711364746 0.168941617012023926
-0.38453984260559082 0.328089803457260132 0.197645112872123718
-0.363947272300720215 0.237999722361564636 -0.0834198221564292908
-0.407112687826156616 0.199509218335151672 0.0409917943179607391
-0.644345343112945557 0.28684958815574646 0.0937263667583465576
0.409011900424957275 -0.347390294075012207 0.136427104473114014
0.222638517618179321 0.0827263593673706055 -0.0335169173777103424
0.498861372470855713 -0.161479994654655457 0.123818717896938324
0.500573813915252686 -0.0930854231119155884 0.134744703769683838
0.215663716197013855 0.00168647035025060177 0.299547791481018066
-0.352784961462020874 -0.0680863931775093079 -0.00902827363461256027
-0.385208815336227417 0.265984445810317993 -0.0716035813093185425
0.506862938404083252 -0.347242861986160278 0.0548926517367362976
-0.356591910123825073 -0.0562248080968856812 -0.145433783531188965
0.132462739944458008 0.0724197551608085632 0.32222449779510498
-0.0990664660930633545 -0.265546590089797974 0.00613936269655823708
0.242707386612892151 0.0230977535247802734 0.321985065937042236
-0.480134367942810059 -0.0117091462016105652 0.185401126742362976
0.242724150419235229 0.0480812117457389832 0.317168295383453369
-0.278040766716003418 0.332593768835067749 0.0407515540719032288
0.370156407356262207 -0.0310578644275665283 -0.0399784892797470093
0.520573735237121582 -0.348141640424728394 -0.0363777689635753632
0.293617844581604004 -0.0121707180514931679 0.0370113030076026917
-0.64403146505355835 0.284768611192703247 0.0925734192132949829
0.0359500907361507416 0.136524349451065063 0.0851627811789512634
-0.397136986255645752 -0.0576099008321762085 0.125954881310462952
-0.441128015518188477 -0.0382061228156089783 0.131390541791915894
0.524239718914031982 -0.317730635404586792 -0.0655247345566749573
0.422800064086914062 -0.280205756425857544 0.331230729818344116
0.51002424955368042 -0.345138967037200928 0.057060781866312027
0.404217690229415894 -0.259088754653930664 0.323640495538711548
-0.480053454637527466 0.018038211390376091 0.176789700984954834
0.235753104090690613 0.068262539803981781 0.314567416906356812
-0.479195326566696167 -0.00836323481053113937 0.167432054877281189
0.239377513527870178 0.0672714188694953918 0.31496921181678772
0.388377398252487183 0.0257158111780881882 0.105985082685947418
0.220038130879402161 -0.316236883401870728 0.31042945384979248
0.38319733738899231 0.0426302962005138397 0.0690213367342948914
0.462867915630340576 0.0104419263079762459 0.175044894218444824
0.399844110012054443 -0.25888022780418396 0.327214926481246948
-0.499369591474533081 0.0211156066507101059 0.181011989712715149
-0.573330938816070557 0.266131460666656494 0.360079079866409302
-0.664385497570037842 0.229889452457427979 0.0218804609030485153
-0.149125531315803528 0.27517428994178772 0.079123370349407196
0.522480487823486328 -0.335173994302749634 -0.322753250598907471
-0.220258459448814392 0.315485000610351562 0.0968121811747550964
0.500252127647399902 -0.346732974052429199 0.0669541656970977783
-0.189610540866851807 0.302564710378646851 0.114833459258079529
0.313974112272262573 -0.130439847707748413 0.300730645656585693
0.225409775972366333 -0.0355124138295650482 0.305185467004776001
0.0578795783221721649 -0.330909073352813721 0.291439026594161987
0.435587197542190552 -0.280240833759307861 0.332742899656295776
0.409327894449234009 -0.286036193370819092 0.330910176038742065
0.38604050874710083 -0.266077131032943726 0.318789750337600708
0.397943884134292603 -0.384800106287002563 -0.225816160440444946
-0.162109270691871643 0.278193026781082153 0.128681033849716187
0.38083609938621521 0.0436512753367424011 0.0769653618335723877
0.391160160303115845 -0.256038904190063477 0.31879734992980957
-0.500090658664703369 0.0243962928652763367 0.185850247740745544
0.500045239925384521 -0.326054275035858154 -0.313378125429153442
0.381128430366516113 -0.37609294056892395 -0.216424480080604553
0.521552503108978271 -0.349395513534545898 -0.325155824422836304
0.521111726760864258 -0.348535269498825073 -0.322094440460205078
0.513726711273193359 -0.319784283638000488 -0.318718284368515015
0.255404353141784668 -0.222586005926132202 0.0574256107211112976
0.186436951160430908 -0.142474129796028137 -0.105706118047237396
0.508143961429595947 -0.320430487394332886 0.0291049238294363022
-0.469225078821182251 -0.011964370496571064 0.181095212697982788
0.49664604663848877 -0.349090307950973511 -0.310048431158065796
0.521884500980377197 -0.327658653259277344 -0.322225719690322876
0.476454466581344604 -0.320374161005020142 -0.303324222564697266
-0.340978503227233887 0.229765236377716064 -0.0443139970302581787
0.201863154768943787 0.132533296942710876 0.112190172076225281
-0.172260373830795288 0.0220901761204004288 0.0255823396146297455
0.266007214784622192 -0.166038095951080322 0.00595040153712034225
0.545047938823699951 -0.328501611948013306 -0.0480120480060577393
-0.456039607524871826 -0.0531479418277740479 0.162205621600151062
0.470167726278305054 -0.356181919574737549 -0.307383030652999878
0.478874862194061279 -0.269937783479690552 -0.301803857088088989
0.467784672975540161 -0.361988812685012817 -0.308473110198974609
-0.320014744997024536 0.266528874635696411 0.0115136317908763885
0.0333645157516002655 0.0983424484729766846 0.128499776124954224
-0.284161508083343506 -0.100088104605674744 -0.0873877927660942078
-0.61658090353012085 0.216981485486030579 -0.104808688163757324
0.244602218270301819 0.104243777692317963 -0.0298238806426525116
0.466665655374526978 -0.23526938259601593 -0.228749901056289673
-0.293426156044006348 -0.0885429605841636658 -0.0959404632449150085
0.249505937099456787 -0.276132911443710327 0.322541177272796631
0.222273126244544983 0.0666222721338272095 -0.0279848240315914154
-0.25043061375617981 -0.130228936672210693 -0.0555204376578330994
-0.211481556296348572 0.301812857389450073 0.148745998740196228
0.340110689401626587 -0.140885666012763977 0.318277359008789062
0.530013918876647949 -0.356777310371398926 0.0695321559906005859
-0.599748075008392334 0.356557250022888184 0.0604568831622600555
-0.345902681350708008 -0.0557545386254787445 -0.143670499324798584
-0.432521700859069824 0.157530501484870911 -0.084639817476272583
0.526914119720458984 -0.331900060176849365 0.0202296227216720581
0.528496384620666504 -0.288141220808029175 -0.0703219026327133179
-0.498559385538101196 0.142695784568786621 -0.253910839557647705
0.146645531058311462 0.156499534845352173 0.0587673783302307129
0.253493189811706543 -0.00795634184032678604 0.327651143074035645
0.350253582000732422 -0.147470459342002869 0.320511966943740845
0.442732274532318115 -0.322619706392288208 -0.229566097259521484
-0.223645582795143127 -0.140044018626213074 -0.0538340993225574493
0.522833049297332764 -0.350419193506240845 0.0968076214194297791
-0.645902454853057861 0.253441333770751953 0.0239152833819389343
0.393534302711486816 -0.280341029167175293 0.322240591049194336
-0.474400430917739868 -0.00990775879472494125 0.164877086877822876
0.224804461002349854 -0.325235188007354736 0.319029688835144043
-0.363286495208740234 -0.121224604547023773 0.13038790225982666
-0.238096892833709717 -0.140665903687477112 -0.0539640374481678009
-0.113602608442306519 -0.00928105879575014114 -0.0166943278163671494
0.389761179685592651 -0.278613030910491943 0.320571362972259521
-0.506729423999786377 0.0112213417887687683 0.201975792646408081
0.463069289922714233 -0.296979010105133057 -0.294522613286972046
0.351597011089324951 -0.148428380489349365 0.32136806845664978
0.458310544490814209 -0.303796082735061646 -0.229032427072525024
0.0249206721782684326 -0.143878504633903503 -0.0202101320028305054
0.369342565536499023 -0.327974677085876465 0.318718165159225464
0.391987621784210205 -0.281765103340148926 0.316832572221755981
0.129101768136024475 -0.31924593448638916 -0.0971803292632102966
-0.134396880865097046 0.278254866600036621 0.117541864514350891
-0.333004117012023926 0.0944774672389030457 -0.102396875619888306
0.374567180871963501 -0.375955700874328613 -0.214976981282234192
0.520328998565673828 -0.345784902572631836 -0.322772085666656494
0.523897707462310791 -0.358047395944595337 -0.326632171869277954
-0.0678644925355911255 -0.254880249500274658 0.0988948047161102295
0.326050132513046265 -0.131129160523414612 0.3147011399269104
0.424632996320724487 -0.260010808706283569 0.328243166208267212
-0.479676693677902222 0.0318573601543903351 0.196727603673934937
0.527052938938140869 -0.299654603004455566 -0.322233289480209351
0.538478076457977295 -0.292506814002990723 -0.324647516012191772
0.378360629081726074 -0.374194979667663574 -0.213687747716903687
0.371861249208450317 -0.35713493824005127 -0.213690802454948425
0.52451711893081665 -0.351647436618804932 -0.325013786554336548
0.525826692581176758 -0.363423407077789307 -0.323102444410324097
0.515985429286956787 -0.327199697494506836 -0.320091217756271362
0.479965299367904663 -0.352340936660766602 -0.312225967645645142
0.478937685489654541 -0.365608155727386475 -0.312942862510681152
-0.36170428991317749 0.310307234525680542 0.239844247698783875
-0.320583879947662354 0.104050517082214355 0.0222414284944534302
-0.447433590888977051 0.204253450036048889 -0.0403312742710113525
-0.377594888210296631 0.279301553964614868 -0.00725385593250393867
-0.022114194929599762 -0.26082223653793335 0.143867313861846924
-0.591857612133026123 0.361424863338470459 0.0642556920647621155
0.368068963289260864 -0.373521715402603149 -0.212478876113891602
-0.12375166267156601 -0.0107316076755523682 0.00800191424787044525
0.397118568420410156 -0.353412926197052002 -0.218301489949226379
0.507614552974700928 -0.159737437963485718 0.125205188989639282
0.195632413029670715 0.124575100839138031 0.00643577892333269119
-0.0267368517816066742 0.166682541370391846 0.383096128702163696
-0.333756119012832642 -0.121070362627506256 0.100380018353462219
-0.325105190277099609 0.302845954895019531 -0.0366720966994762421
0.534451305866241455 -0.34693378210067749 0.0378143973648548126
0.525700211524963379 -0.331968337297439575 0.0344880782067775726
-0.595696687698364258 0.382060348987579346 0.113449320197105408
-0.0106777092441916466 -0.144284859299659729 -0.0268336832523345947
-0.235082730650901794 0.171978160738945007 -0.00160913204308599234
-0.485293537378311157 -0.0105942357331514359 0.177300155162811279
-0.277963370084762573 0.336004346609115601 0.0423020422458648682
0.513791263103485107 -0.349207311868667603 0.097071528434753418
-0.448376864194869995 -0.0357347317039966583 0.117485463619232178
0.434705853462219238 -0.253460735082626343 0.331843167543411255
0.415211260318756104 -0.278561979532241821 0.32731473445892334
-0.468716531991958618 0.0344694629311561584 0.193664088845252991
0.50265049934387207 -0.339684128761291504 0.00794256199151277542
-0.481262296438217163 -0.00275853928178548813 0.177629336714744568
-0.377176731824874878 -0.106641791760921478 0.0929711237549781799
-0.500838220119476318 0.0222491659224033356 0.184411317110061646
0.361129701137542725 -0.286983639001846313 -0.141805931925773621
0.00199870765209197998 -0.231434538960456848 0.0901119112968444824
-0.14016859233379364 0.264970749616622925 0.0885100886225700378
-0.129472285509109497 0.254293471574783325 0.0714992806315422058
0.313100904226303101 -0.293341219425201416 -0.131158620119094849
0.42854347825050354 -0.255699664354324341 0.330342620611190796
-0.615280687808990479 0.306589812040328979 0.392365008592605591
0.411270678043365479 -0.357996851205825806 -0.226374819874763489
0.505592405796051025 -0.346509277820587158 -0.319867134094238281
0.508288681507110596 -0.352544456720352173 -0.322575807571411133
0.524037301540374756 -0.298516064882278442 -0.318653911352157593
0.510245263576507568 -0.346856474876403809 -0.320192813873291016
0.270470261573791504 -0.169500097632408142 -0.0795239582657814026
0.133975371718406677 0.120155833661556244 0.32923397421836853
0.252237379550933838 -0.285154372453689575 0.328282654285430908
0.324799060821533203 -0.120424754917621613 0.310736745595932007
0.302806764841079712 -0.20459100604057312 0.251259118318557739
0.250373750925064087 -0.00396884558722376823 0.32520681619644165
0.50764697790145874 -0.343243718147277832 0.087608635425567627
0.241967111825942993 0.0896915122866630554 0.310127198696136475
0.46334993839263916 -0.28410765528678894 -0.231150433421134949
-0.262110978364944458 0.313888102769851685 0.0459331311285495758
0.34444814920425415 -0.14018230140209198 0.329539328813552856
0.374408632516860962 -0.363885164260864258 -0.208684384822845459
0.337991654872894287 -0.129452124238014221 0.320783406496047974
0.526974320411682129 -0.347198903560638428 -0.324015825986862183
0.524744033813476562 -0.352053582668304443 -0.326570063829421997
0.480578750371932983 -0.372318357229232788 -0.313033431768417358
-0.359743714332580566 -0.0649770498275756836 0.0829683542251586914
-0.407254308462142944 0.0886614397168159485 -0.113126195967197418
0.0143446978181600571 0.0979976803064346313 0.217274993658065796
-0.37822452187538147 -0.0931327641010284424 -0.0282811783254146576
0.265791893005371094 0.0682979822158813477 -0.0917672887444496155
-0.107931241393089294 -0.015215444378554821 0.0460938513278961182
-0.357801377773284912 -0.0919798538088798523 0.0129857882857322693
-0.290285348892211914 0.304702460765838623 0.166714712977409363
-0.355258703231811523 -0.0735354050993919373 0.0407002009451389313
-0.598512709140777588 0.294543832540512085 0.186663642525672913
0.249677851796150208 0.096644185483455658 -0.0342260748147964478
0.379685908555984497 -0.354940026998519897 -0.209356486797332764
0.470130741596221924 -0.324854254722595215 0.138048604130744934
0.464905887842178345 -0.27191588282585144 -0.0929573327302932739
-0.439410537481307983 -0.0430502109229564667 0.0843037590384483337
-0.336029171943664551 -0.124743863940238953 0.127689152956008911
0.528676271438598633 -0.342013269662857056 0.051052875816822052
0.392945677042007446 0.0469529479742050171 0.133689150214195251
-0.185847297310829163 0.313967287540435791 0.107948683202266693
-0.441372156143188477 -0.0429493933916091919 0.117883078753948212
0.537732183933258057 -0.326264709234237671 -0.0556351318955421448
-0.352955281734466553 0.306310415267944336 0.114296771585941315
0.49451446533203125 -0.346202373504638672 0.0441392548382282257
-0.575462698936462402 0.30511888861656189 0.379502594470977783
0.431296348571777344 -0.28114810585975647 0.33380088210105896
-0.477442175149917603 0.00400807429105043411 0.164217084646224976
0.525341033935546875 -0.349958837032318115 -0.00254724826663732529
-0.0669154226779937744 -0.262919992208480835 0.298574924468994141
-0.511744797229766846 0.00456683896481990814 0.188154816627502441
0.39043000340461731 -0.36036190390586853 -0.215654432773590088
-0.11837971955537796 0.254265874624252319 0.0637254863977432251
-0.500258922576904297 0.00498104188591241837 0.193343952298164368
0.426778942346572876 -0.27465355396270752 0.330732882022857666
-0.333349615335464478 0.104123689234256744 -0.118479281663894653
-0.105747893452644348 0.254120618104934692 0.0937467068433761597
0.511162936687469482 -0.341750591993331909 -0.31967008113861084
-0.612740933895111084 0.30255424976348877 0.396387696266174316
-0.508837401866912842 0.036557953804731369 0.18867705762386322
-0.290760815143585205 -0.0891388356685638428 -0.0785975903272628784
0.510020017623901367 -0.345028996467590332 -0.321095675230026245
0.0720341503620147705 0.139170706272125244 0.0726151242852210999
0.245808273553848267 0.107008762657642365 0.321577161550521851
0.473622709512710571 -0.286870300769805908 -0.230681389570236206
0.305626630783081055 -0.314853042364120483 0.331845849752426147
0.512234866619110107 -0.350096136331558228 -0.322121500968933105
-0.315073102712631226 -0.0869796499609947205 -0.0342435911297798157
0.514847397804260254 -0.355800062417984009 -0.323088139295578003
-0.625095009803771973 0.180385366082191467 -0.0861597806215286255
-0.353256404399871826 -0.0558517873287200928 -0.14397093653678894
-0.331121176481246948 0.269484907388687134 -0.0550293326377868652
-0.17708192765712738 0.13884146511554718 0.00507039343938231468
0.545663654804229736 -0.217631712555885315 0.159238114953041077
0.0308224931359291077 0.102398104965686798 0.065457664430141449
0.510286688804626465 -0.33096662163734436 -0.319469183683395386
0.586269557476043701 -0.325261086225509644 -0.320062011480331421
0.25010719895362854 -0.288468003273010254 0.318502098321914673
0.255843460559844971 -0.00327599793672561646 0.328145354986190796
0.301917672157287598 -0.282743453979492188 0.331364661455154419
-0.343914628028869629 -0.0907906964421272278 0.018015565350651741
-0.374101817607879639 -0.089970022439956665 -0.0182397160679101944
-0.0649443790316581726 -0.27352452278137207 0.159470289945602417
-0.630423307418823242 0.275666594505310059 0.0759993046522140503
0.367153078317642212 -0.365705937147140503 -0.21225583553314209
-0.124069944024085999 -0.0292500928044319153 -0.00656788051128387451
-0.598544061183929443 0.342324167490005493 0.090605027973651886
0.444419592618942261 -0.249536648392677307 -0.286321103572845459
0.383189558982849121 -0.34818875789642334 -0.212123647332191467
0.312939912080764771 -0.372813552618026733 -0.156113743782043457
-0.17948015034198761 0.31260642409324646 0.10013580322265625
0.535487055778503418 -0.319455325603485107 -0.0324394814670085907
-0.655090630054473877 0.238404363393783569 0.0140867726877331734
-0.452832818031311035 -0.0538750365376472473 0.163353830575942993
0.500312685966491699 -0.348757177591323853 0.0713679566979408264
0.440823256969451904 -0.261103272438049316 0.334410220384597778
0.507604539394378662 -0.343972951173782349 0.0299017243087291718
0.264719128608703613 0.12141282856464386 0.0271842740476131439
0.400058120489120483 0.0323537960648536682 0.139854878187179565
-0.106353417038917542 0.252524226903915405 0.0727693513035774231
0.317194044589996338 -0.38083881139755249 -0.156991496682167053
-0.566574811935424805 0.295563101768493652 -0.0514111444354057312
0.390889376401901245 -0.36287534236907959 -0.221035972237586975
0.359267622232437134 0.0332746319472789764 0.0486243627965450287
0.19512668251991272 -0.365562200546264648 -0.0958038195967674255
0.391762346029281616 -0.355804145336151123 -0.217160880565643311
0.520153701305389404 -0.335265815258026123 -0.322616636753082275
0.523355066776275635 -0.333450645208358765 -0.324057787656784058
0.244548678398132324 0.0239366982132196426 0.324072599411010742
0.212869197130203247 -0.338715165853500366 0.318702459335327148
0.237303093075752258 0.105864435434341431 0.315151721239089966
0.522113502025604248 -0.337174028158187866 -0.32570686936378479
0.318690031766891479 -0.379951506853103638 -0.151144728064537048
0.584598064422607422 -0.318139851093292236 -0.334280133247375488
-0.380712687969207764 -0.0934057161211967468 -0.0177459213882684708
0.458635509014129639 -0.325685232877731323 0.125060930848121643
0.389115840196609497 0.0533761605620384216 0.131680876016616821
-0.173712104558944702 0.307208925485610962 0.106017708778381348
-0.461987763643264771 -0.03006695955991745 0.134577095508575439
0.439961701631546021 -0.26168707013130188 0.335188597440719604
0.400481522083282471 0.0245495140552520752 0.127982944250106812
0.427645444869995117 -0.263831764459609985 0.332120001316070557
-0.509602129459381104 0.00429052673280239105 0.19094596803188324
-0.131002292037010193 0.253504842519760132 0.0816773921251296997
-0.283895134925842285 0.335722923278808594 0.0343705341219902039
0.455639809370040894 -0.259711772203445435 0.336713343858718872
-0.330571889877319336 0.0977923870086669922 -0.117679230868816376
-0.508338689804077148 0.0360717512667179108 0.188634246587753296
0.25834229588508606 0.00730367796495556831 0.327636986970901489
0.446215122938156128 -0.256230443716049194 0.333897948265075684
0.236441090703010559 0.108871713280677795 0.30892297625541687
0.302845984697341919 -0.329334527254104614 0.334489583969116211
-0.320400655269622803 0.266893059015274048 -0.0469154566526412964
-0.132966920733451843 -0.268608361482620239 -0.00484072975814342499
-0.376833677291870117 -0.0754743292927742004 0.0239262916147708893
-0.375406563282012939 -0.063541121780872345 -0.160035565495491028
-0.494647860527038574 -0.0227408427745103836 0.173888459801673889
-0.52762913703918457 -0.00686445413157343864 0.186736807227134705
0.382623076438903809 -0.366668760776519775 -0.219222143292427063
0.389553874731063843 -0.330320179462432861 0.186603590846061707
-0.577887892723083496 0.291840970516204834 -0.0408920720219612122
0.241906151175498962 0.0882294848561286926 -0.0394444465637207031
0.375088095664978027 -0.351541668176651001 -0.209803611040115356
0.187461808323860168 0.107702180743217468 0.00185198045801371336
-0.341664224863052368 0.272992551326751709 -0.0518500395119190216
0.532806396484375 -0.353886812925338745 0.0534320250153541565
-0.113633468747138977 0.185250669717788696 0.354688137769699097
-0.215756207704544067 0.313314706087112427 0.112166494131088257
0.470895707607269287 -0.305126428604125977 -0.23575882613658905
0.536795914173126221 -0.321053236722946167 -0.026219438761472702
-0.266274094581604004 0.309939444065093994 0.0454451926052570343
0.27917441725730896 0.00820002518594264984 -0.0272761713713407516
0.385009467601776123 -0.362252682447433472 -0.216939494013786316
0.0283100418746471405 -0.0956818237900733948 0.01885271817445755
-0.41661641001701355 -0.0576562955975532532 0.133191496133804321
0.385651141405105591 -0.287716656923294067 -0.109615132212638855
0.382707476615905762 -0.363310635089874268 -0.219522938132286072
0.200336650013923645 -0.366468369960784912 -0.0960343927145004272
0.38816303014755249 -0.354205548763275146 -0.216578051447868347
0.51217120885848999 -0.336933434009552002 -0.319896578788757324
0.513480007648468018 -0.336695581674575806 -0.322078913450241089
0.233391657471656799 0.0340497605502605438 0.318923145532608032
0.242121204733848572 0.0888295397162437439 0.309995502233505249
0.362982481718063354 -0.283075451850891113 0.316257685422897339
