ply
format ascii 1.0
element vertex 738
property float x
property float y
property float z
end_header
-0.578975439071655273 0.347860872745513916 0.151824504137039185
0.104409269988536835 -0.0116938324645161629 0.021013166755437851
-0.341772556304931641 -0.123287521302700043 0.104418747127056122
-0.121244460344314575 -0.275532245635986328 0.17391166090965271
-0.161672070622444153 0.167171284556388855 0.325032413005828857
0.514354825019836426 -0.358724713325500488 0.0266766808927059174
0.520405411720275879 -0.287740260362625122 -0.0117968954145908356
0.478247642517089844 -0.140196368098258972 0.107507944107055664
-0.181430518627166748 0.029210185632109642 0.0257387757301330566
-0.34248882532119751 -0.121509745717048645 0.103561609983444214
-0.600669443607330322 0.37656557559967041 0.188080087304115295
-0.12021443247795105 -0.266650497913360596 0.218157798051834106
0.522810399532318115 -0.308976858854293823 -0.0749060660600662231
0.51570206880569458 -0.252286851406097412 -0.309668362140655518
0.454337418079376221 -0.308369040489196777 -0.294597476720809937
0.23997950553894043 -0.0961194783449172974 0.158513203263282776
-0.620699644088745117 0.272039711475372314 0.0368197523057460785
-0.430435419082641602 -0.00378573266789317131 0.177131965756416321
-0.250963866710662842 -0.136769890785217285 -0.0712592080235481262
0.316682696342468262 -0.319060683250427246 0.122436933219432831
0.538681328296661377 -0.249887228012084961 0.106515854597091675
0.452092438936233521 -0.140011847019195557 0.0153074199333786964
0.428716957569122314 -0.321140795946121216 0.123604126274585724
0.412644237279891968 -0.330928385257720947 -0.20991748571395874
0.473186999559402466 -0.128780320286750793 0.10939151793718338
-0.54942852258682251 0.378366440534591675 0.172307834029197693
0.189893946051597595 -0.339798331260681152 -0.0134139079600572586
-0.202252849936485291 -0.135311812162399292 -0.068593241274356842
-0.186075180768966675 0.311872005462646484 0.117707632482051849
0.102719694375991821 0.107548311352729797 0.174324959516525269
-0.444817900657653809 -0.0542356744408607483 0.0916514843702316284
-0.489863336086273193 0.0300727542489767075 0.0166126769036054611
0.230777919292449951 0.0108714131638407707 0.314882755279541016
-0.0252540037035942078 0.11308259516954422 0.312345534563064575
0.242628961801528931 -0.038777422159910202 0.204529419541358948
-0.385333091020584106 0.245182991027832031 0.0340827740728855133
-0.654536545276641846 0.216571524739265442 -0.0396119654178619385
0.482374191284179688 -0.116478875279426575 0.0233226306736469269
0.121573910117149353 0.0793335661292076111 0.138437405228614807
-0.382412135601043701 -0.0724792852997779846 0.0954527184367179871
0.319065243005752563 -0.0725593417882919312 0.0622944198548793793
-0.4411507248878479 -0.0115977972745895386 0.00664953235536813736
-0.502660036087036133 0.233525559306144714 -0.0714075788855552673
-0.547719478607177734 0.203296765685081482 -0.0688330382108688354
0.0879763960838317871 0.0915023833513259888 0.0799146667122840881
-0.5203513503074646 0.204408839344978333 -0.0474608056247234344
-0.168728739023208618 0.0723585039377212524 0.232373863458633423
-0.0578894242644309998 -0.186735883355140686 0.0267159957438707352
-0.213011965155601501 0.290581852197647095 0.108961187303066254
0.249016955494880676 -0.00563168060034513474 0.02223951555788517
-0.556239664554595947 0.204230219125747681 0.11809895932674408
-0.457796275615692139 0.216304019093513489 0.0242958106100559235
-0.463089972734451294 0.266307860612869263 -0.00298185134306550026
-0.575906336307525635 0.247408092021942139 -0.0767851695418357849
-0.3898276686668396 0.274941414594650269 -0.0843650922179222107
0.343187510967254639 -0.134789600968360901 0.318698465824127197
-0.499071747064590454 0.206699147820472717 -0.0118814455345273018
-0.346467554569244385 0.292637884616851807 -0.050363931804895401
0.525355815887451172 -0.361148715019226074 0.0415785089135169983
-0.540391683578491211 0.215005949139595032 0.200844049453735352
-0.569760739803314209 0.294149428606033325 -0.00348027492873370647
0.315973460674285889 0.023452121764421463 0.0486308373510837555
0.481420129537582397 -0.307094663381576538 -0.303857773542404175
0.479081332683563232 -0.326407253742218018 0.125192254781723022
0.522580564022064209 -0.307113349437713623 -0.0988998040556907654
0.489774078130722046 -0.310860216617584229 -0.307621031999588013
0.515599906444549561 -0.32513388991355896 0.119653128087520599
0.443943709135055542 -0.300291180610656738 -0.290833503007888794
0.522597908973693848 -0.304665595293045044 -0.0975621789693832397
0.133655503392219543 0.116204023361206055 0.336952537298202515
-0.642874240875244141 0.242416560649871826 -0.00979329273104667664
-0.293160140514373779 -0.113749168813228607 -0.105848655104637146
0.53861689567565918 -0.255623340606689453 0.0920138880610466003
0.128515318036079407 0.0974263325333595276 0.317227154970169067
-0.23576587438583374 -0.143410786986351013 -0.0714882388710975647
0.251841038465499878 0.0297820400446653366 -0.0860682874917984009
0.530335903167724609 -0.323250114917755127 0.00663560116663575172
-0.599821031093597412 0.307138413190841675 0.104193121194839478
0.531473100185394287 -0.244803369045257568 0.0863672792911529541
-0.374593794345855713 -0.0607548244297504425 0.0921638384461402893
0.52595210075378418 -0.275442779064178467 -0.123440273106098175
-0.501610755920410156 0.148656025528907776 0.352875590324401855
0.384541153907775879 -0.297734439373016357 0.131667166948318481
0.13210749626159668 -0.331925094127655029 -0.100552394986152649
0.522132933139801025 -0.354960352182388306 -0.0151344574987888336
-0.436986297369003296 0.150404125452041626 -0.0852558314800262451
0.515139937400817871 -0.300226539373397827 0.064519442617893219
0.392463952302932739 -0.367950499057769775 -0.21387125551700592
0.499908536672592163 -0.171648889780044556 0.129868313670158386
0.532604873180389404 -0.334113597869873047 0.0281924791634082794
-0.580402195453643799 0.348623275756835938 0.0399666950106620789
0.519385814666748047 -0.241051405668258667 -0.308912068605422974
-0.601494967937469482 0.370397239923477173 0.104340992867946625
-0.501111924648284912 0.147028550505638123 0.355080872774124146
0.233421057462692261 -0.277874380350112915 0.317197203636169434
-0.181899324059486389 -0.136942923069000244 -0.0557479895651340485
-0.228927075862884521 -0.137879595160484314 -0.0536526106297969818
-0.204819247126579285 0.298185169696807861 0.126546069979667664
0.261974334716796875 -0.289697408676147461 0.323484808206558228
-0.362810969352722168 -0.0304820239543914795 0.119384646415710449
-0.500639498233795166 0.0194211173802614212 0.0316481068730354309
0.242261558771133423 -4.8810416046762839e-05 0.322121232748031616
0.140817373991012573 -0.290386587381362915 0.311548084020614624
0.307507097721099854 -0.207634851336479187 0.248021036386489868
-0.386643320322036743 0.254701942205429077 0.0341343991458415985
0.530488908290863037 -0.262408643960952759 0.10274089127779007
0.223473548889160156 0.0225867480039596558 0.305283665657043457
0.530013561248779297 -0.147580206394195557 -0.308446645736694336
-0.645389020442962646 0.231206014752388 -0.0478473231196403503
0.540646612644195557 -0.311052918434143066 -0.0446442477405071259
0.507217228412628174 -0.267858505249023438 -0.311691612005233765
0.513690352439880371 -0.316184699535369873 -0.295290648937225342
0.458240240812301636 -0.290975630283355713 -0.296766757965087891
-0.543628454208374023 0.267957597970962524 -0.189717471599578857
-0.62193375825881958 0.288784146308898926 0.0663455575704574585
0.362829089164733887 -0.384266018867492676 -0.206283003091812134
-0.0930518656969070435 0.267073094844818115 0.189193591475486755
-0.448998034000396729 0.131241574883460999 -0.209094598889350891
-0.575975239276885986 0.203645303845405579 -0.127445444464683533
-0.630598366260528564 0.191585466265678406 -0.0402597822248935699
-0.470304340124130249 0.138882800936698914 -0.231421887874603271
0.257058113813400269 -0.0172641035169363022 -0.0722558200359344482
0.22992311418056488 0.0536337830126285553 -0.0453347191214561462
0.11246877908706665 0.109629072248935699 0.301496148109436035
-0.584644854068756104 0.218256205320358276 -0.22185090184211731
-0.59873354434967041 0.235087275505065918 -0.0111179202795028687
-0.367551296949386597 -0.0915977805852890015 0.122639425098896027
-0.330533325672149658 -0.125210553407669067 0.137093603610992432
-0.635127663612365723 0.199498757719993591 -0.038678828626871109
-0.426228255033493042 -0.0548034906387329102 0.0990211367607116699
-0.478626430034637451 0.0201848521828651428 -0.0368116982281208038
0.208060473203659058 0.00847665779292583466 0.30066266655921936
-0.634702563285827637 0.247941434383392334 -0.00636211177334189415
-0.128608599305152893 0.26972353458404541 0.132055968046188354
0.270465999841690063 -0.330266773700714111 0.179916247725486755
0.532428562641143799 -0.210244894027709961 -0.099061913788318634
-0.127051740884780884 -0.112549878656864166 -0.0549573749303817749
0.453536778688430786 -0.338921815156936646 -0.298295378684997559
-0.213175550103187561 0.0362418591976165771 -0.0598733313381671906
-0.553722798824310303 0.175688654184341431 0.0124821728095412254
-0.199085235595703125 0.139560982584953308 0.0209493078291416168
-0.0131568368524312973 -0.102464757859706879 -0.0430979207158088684
0.264147043228149414 -0.274897903203964233 0.202267274260520935
0.348044276237487793 -0.321114987134933472 -0.000218411849346011877
-0.156515136361122131 0.0697643235325813293 0.0273559708148241043
-0.249761119484901428 0.130744218826293945 -0.0346504561603069305
0.198501691222190857 0.00152917066588997841 0.0189084839075803757
0.075749620795249939 0.0807407721877098083 0.0237803198397159576
-0.283981919288635254 0.28812640905380249 -0.00615800917148590088
0.476319044828414917 -0.289863854646682739 -0.301930636167526245
-0.557411015033721924 0.26562047004699707 -0.0175946280360221863
-0.237952783703804016 0.0976128876209259033 -0.0326575525104999542
0.137254491448402405 -0.280751138925552368 0.14990021288394928
0.295741856098175049 -0.297376722097396851 0.0567450150847434998
-0.286589890718460083 0.257140904664993286 0.000320117862429469824
-0.021666383370757103 -0.0403372831642627716 0.0888319686055183411
0.203881636261940002 0.0426003597676753998 0.0655229613184928894
-0.144302234053611755 -0.0850878059864044189 0.091544516384601593
0.371890157461166382 -0.0735400095582008362 0.0313618481159210205
0.520732223987579346 -0.199191510677337646 -0.098751850426197052
0.486461848020553589 -0.297858715057373047 -0.305591404438018799
0.479803949594497681 -0.314873158931732178 0.122090213000774384
0.512957930564880371 -0.307225078344345093 -0.102647140622138977
0.495383262634277344 -0.309483200311660767 -0.309963256120681763
0.505515396595001221 -0.327857106924057007 -0.00436300598084926605
0.511101007461547852 -0.324570298194885254 0.118117362260818481
0.465246349573135376 -0.288765907287597656 -0.296782165765762329
0.437344342470169067 -0.263471513986587524 -0.194510787725448608
0.13446277379989624 0.11685054749250412 0.336868226528167725
0.395952910184860229 -0.244374766945838928 0.318540334701538086
-0.602170944213867188 0.354162663221359253 0.0652093216776847839
-0.505761504173278809 0.357084095478057861 0.178054183721542358
0.541990876197814941 -0.282560825347900391 0.0976814627647399902
0.255784094333648682 0.0367363393306732178 -0.072270512580871582
-0.233767926692962646 0.155920952558517456 -0.00549886468797922134
0.505505383014678955 -0.332022786140441895 -0.00278647569939494133
0.444155007600784302 -0.250064998865127563 -0.228233799338340759
-0.639703810214996338 0.254428446292877197 0.0542272850871086121
0.531966209411621094 -0.262743473052978516 0.0930001288652420044
-0.393771260976791382 -0.059127509593963623 0.100217729806900024
0.523260891437530518 -0.289698272943496704 -0.0923428386449813843
0.0273430682718753815 -0.274000883102416992 -0.0354703813791275024
0.384503424167633057 -0.306067794561386108 0.118592776358127594
-0.582847654819488525 0.36671072244644165 0.131422162055969238
0.239541947841644287 0.00285054044798016548 0.180923417210578918
-0.113648019731044769 0.165476053953170776 0.347371697425842285
0.481522828340530396 -0.368379205465316772 -0.0223118383437395096
0.411570489406585693 -0.321174979209899902 -0.211251512169837952
0.506631255149841309 -0.155622720718383789 0.123782262206077576
0.52815622091293335 -0.334746956825256348 0.0125652849674224854
-0.584803104400634766 0.336308002471923828 0.0337882973253726959
-0.59142303466796875 0.381805390119552612 0.130974039435386658
0.525678277015686035 -0.24440707266330719 -0.310888677835464478
0.473787754774093628 -0.290785431861877441 -0.299681395292282104
-0.597882449626922607 0.353597372770309448 0.169390156865119934
-0.588015139102935791 0.3713359534740448 0.100811302661895752
-0.212744385004043579 -0.129402577877044678 -0.0578757785260677338
0.233752280473709106 -0.292963206768035889 0.314764112234115601
0.237366586923599243 0.0670542344450950623 0.319875210523605347
0.541202366352081299 -0.313889652490615845 -0.0583662465214729309
-0.445363461971282959 -0.0482654236257076263 0.126853540539741516
0.358868777751922607 -0.388339579105377197 -0.209228634834289551
-0.557251989841461182 0.211103886365890503 -0.114004053175449371
0.520171403884887695 -0.279601573944091797 -0.177359029650688171
0.241229712963104248 0.0347119346261024475 0.314350247383117676
0.242075413465499878 0.000354392832377925515 0.0234696287661790848
0.380011796951293945 0.0386913716793060303 0.0116750933229923248
0.526152431964874268 -0.23071250319480896 -0.310395210981369019
0.326327502727508545 0.0960205420851707458 -0.0361345373094081879
-0.374941557645797729 -0.0601170025765895844 -0.133142098784446716
0.51225811243057251 -0.167615398764610291 0.135674893856048584
-0.575175821781158447 0.321916580200195312 0.049170374870300293
-0.559635281562805176 0.283358663320541382 0.363921403884887695
0.223756492137908936 0.0318612605333328247 -0.0583837330341339111
-0.575031459331512451 0.21457478404045105 -0.221481427550315857
-0.0449900627136230469 0.156538769602775574 0.0810276791453361511
0.113387122750282288 0.109980739653110504 0.0252728220075368881
0.342066019773483276 -0.246998235583305359 -0.0970770716667175293
-0.285772621631622314 0.300339877605438232 -0.00306042982265353203
0.152601882815361023 -0.00440501002594828606 -0.0037411500234156847
0.068351447582244873 0.138776332139968872 0.0754831880331039429
-0.270763128995895386 0.280094772577285767 0.0014737278688699007
0.502706468105316162 -0.292646676301956177 -0.159595191478729248
0.136267945170402527 -0.0258070025593042374 0.0129478070884943008
-0.339735567569732666 -0.0318682193756103516 0.022591056302189827
0.372702926397323608 -0.091922171413898468 0.0440760590136051178
0.199222967028617859 0.101133137941360474 -0.00200078566558659077
-0.297972768545150757 -0.0249108821153640747 0.0357369668781757355
0.131075248122215271 -0.0178065784275531769 -0.0262573137879371643
0.100677825510501862 0.0160592515021562576 0.0910508334636688232
0.174972236156463623 0.119263410568237305 0.0378437601029872894
-0.231196761131286621 -0.0635344982147216797 0.104472450911998749
0.485445797443389893 -0.296722590923309326 -0.303819179534912109
-0.603849172592163086 0.289430916309356689 0.184856325387954712
0.466525137424468994 -0.30875319242477417 0.119850151240825653
0.377572834491729736 -0.0145956669002771378 0.00616987748071551323
0.513708531856536865 -0.295364290475845337 -0.103737615048885345
0.518218994140625 -0.239800393581390381 -0.307893484830856323
0.477276980876922607 -0.309783786535263062 -0.300573527812957764
0.48275342583656311 -0.274583905935287476 -0.300198227167129517
0.116514630615711212 0.118745617568492889 0.297440409660339355
-0.584874927997589111 0.356227368116378784 0.0654359683394432068
0.383055001497268677 -0.337342113256454468 0.125279232859611511
-0.575158298015594482 0.317571818828582764 -0.0269538890570402145
-0.605135142803192139 0.217064082622528076 -0.0873165726661682129
0.267059236764907837 0.0391248278319835663 -0.0864695683121681213
-0.357115179300308228 -0.0220598634332418442 -0.131432056427001953
-0.564967095851898193 0.314204573631286621 -0.00829885248094797134
0.18995802104473114 -0.340726882219314575 -0.0749592036008834839
0.403493434190750122 -0.35764959454536438 -0.224309921264648438
-0.500860750675201416 0.145613566040992737 0.354424357414245605
0.508932530879974365 -0.151587009429931641 0.114754065871238708
0.496220439672470093 -0.263994723558425903 -0.304683864116668701
0.457329869270324707 -0.280942469835281372 -0.290028840303421021
0.440292030572891235 -0.265028059482574463 -0.283979922533035278
-0.588691949844360352 0.357330977916717529 0.0613460354506969452
0.504535555839538574 -0.126918584108352661 0.124173767864704132
-0.206921130418777466 0.31233900785446167 0.108523286879062653
0.267561167478561401 -0.284016072750091553 0.318943440914154053
0.231859311461448669 0.00349402846768498421 0.317648351192474365
0.512635231018066406 -0.175783708691596985 -0.282052040100097656
-0.115917608141899109 0.00992672983556985855 0.00571220926940441132
0.40322500467300415 -0.359677731990814209 -0.224933668971061707
0.416943192481994629 -0.313293397426605225 0.143533498048782349
-0.556151688098907471 0.376358717679977417 0.186466798186302185
-0.176341444253921509 0.3090076744556427 0.118209116160869598
-0.390423744916915894 0.275912314653396606 -0.0853665471076965332
0.364571422338485718 0.0516275465488433838 0.0243815816938877106
0.12848779559135437 0.115640521049499512 0.318666428327560425
-0.287206411361694336 -0.100408896803855896 -0.092280462384223938
0.257444947957992554 0.100714355707168579 -0.0622482337057590485
-0.361954420804977417 -0.0596757382154464722 -0.144403144717216492
0.133441537618637085 0.113604292273521423 0.33761170506477356
-0.563801944255828857 0.199242100119590759 -0.229454889893531799
-0.277093887329101562 0.287854641675949097 -0.00115447177086025476
0.454253733158111572 -0.24652881920337677 -0.288570761680603027
0.459594964981079102 -0.275476276874542236 -0.291096329689025879
-0.635507285594940186 0.308052420616149902 0.170042276382446289
0.511825799942016602 -0.317523419857025146 -0.0388332530856132507
0.468304663896560669 -0.265878587961196899 -0.29822772741317749
0.477514952421188354 -0.295084178447723389 -0.3005085289478302
0.457511633634567261 -0.246312633156776428 -0.290143221616744995
0.380454689264297485 -0.361007064580917358 -0.214115962386131287
-0.480065435171127319 -0.0124471113085746765 0.185601308941841125
-0.517132878303527832 0.365652263164520264 0.173747971653938293
-0.61921769380569458 0.201965406537055969 -0.0875824764370918274
-0.237972065806388855 0.0188602041453123093 -0.0727790966629981995
-0.383251488208770752 -0.05890670046210289 0.0234669353812932968
0.474201858043670654 -0.368374735116958618 0.02156059630215168
-0.649924933910369873 0.236678823828697205 0.0318457074463367462
0.411921590566635132 -0.34675300121307373 -0.221906915307044983
0.525405287742614746 -0.337187439203262329 0.0798167884349822998
0.505413353443145752 -0.239103704690933228 -0.308351099491119385
0.248917683959007263 -0.282188653945922852 0.318002998828887939
0.238520726561546326 0.0664828941226005554 0.314419776201248169
0.538924455642700195 -0.301889091730117798 -0.0939237028360366821
-0.448518753051757812 -0.0412730388343334198 0.126284658908843994
-0.0445000194013118744 0.104467540979385376 0.317629516124725342
0.247287392616271973 0.0209618657827377319 0.321976572275161743
-0.285530328750610352 -0.0995440706610679626 -0.0992999225854873657
-0.138432875275611877 -0.0150516824796795845 -0.0490119978785514832
-0.278551310300827026 0.337728649377822876 0.0467352047562599182
-0.25538557767868042 0.289767414331436157 -0.00349035626277327538
-0.219583585858345032 0.321750432252883911 0.0696071609854698181
-0.573924362659454346 0.152228504419326782 -0.0748669356107711792
-0.290623664855957031 0.292576253414154053 0.0157860890030860901
0.524974465370178223 -0.320707142353057861 0.0269302427768707275
0.345443069934844971 -0.0306576080620288849 -0.0346924886107444763
0.521590530872344971 -0.362940281629562378 0.0891482830047607422
-0.0839756280183792114 -0.111728690564632416 0.0782916396856307983
-0.404644101858139038 0.325946271419525146 0.120955497026443481
0.504100680351257324 -0.367103278636932373 -0.004739394411444664
-0.119389168918132782 0.265972018241882324 0.120743013918399811
0.518068850040435791 -0.342991888523101807 0.0355975329875946045
0.129667952656745911 -0.33453407883644104 0.301011145114898682
0.465968549251556396 -0.311098784208297729 0.0722298622131347656
0.482206642627716064 -0.374029427766799927 0.0520816631615161896
0.420425295829772949 -0.0262277796864509583 0.0646308138966560364
0.493494242429733276 -0.363564878702163696 -0.015785999596118927
-0.233632341027259827 0.287036359310150146 0.0839059427380561829
0.530569314956665039 -0.331799477338790894 -0.00747544318437576294
-0.272622793912887573 0.315285831689834595 0.11372741311788559
0.307561516761779785 0.00243394565768539906 0.0460872314870357513
0.466786503791809082 -0.263488143682479858 -0.296298772096633911
0.473169684410095215 -0.30437779426574707 0.114004082977771759
0.510528206825256348 -0.313685804605484009 -0.104636557400226593
0.508561015129089355 -0.245447695255279541 -0.30867081880569458
0.447306036949157715 -0.292567521333694458 -0.292985916137695312
0.46574971079826355 -0.2833385169506073 -0.297505676746368408
0.137673527002334595 0.11272101104259491 0.336550801992416382
-0.652757883071899414 0.285616517066955566 0.0976405888795852661
-0.638963043689727783 0.244747161865234375 -0.0386011600494384766
0.135658413171768188 0.069230400025844574 0.337669074535369873
-0.577756822109222412 0.303695917129516602 -0.0559594668447971344
0.261832356452941895 0.0303143169730901718 -0.0736752599477767944
0.541309893131256104 -0.216817930340766907 0.111328713595867157
-0.360747009515762329 -0.0356873124837875366 -0.134610682725906372
-0.575399577617645264 0.327373802661895752 -0.0299653671681880951
-0.362438887357711792 -0.0708316639065742493 -0.0342450141906738281
-0.131203040480613708 -0.267428487539291382 0.118863373994827271
0.494464308023452759 -0.365860641002655029 -0.00062306493055075407
0.373144000768661499 -0.359403133392333984 -0.210279747843742371
-0.37902909517288208 -0.106769971549510956 0.101072676479816437
-0.0676635950803756714 -0.263905346393585205 0.296233892440795898
0.519242823123931885 -0.243400782346725464 -0.309693098068237305
0.508800268173217773 -0.330607384443283081 0.0150249619036912918
-0.593994975090026855 0.368879765272140503 0.120230875909328461
-0.656022310256958008 0.175621271133422852 -0.103443354368209839
-0.223684981465339661 -0.144026145339012146 -0.0539574548602104187
-0.191917553544044495 0.316513657569885254 0.100478135049343109
0.256020873785018921 -0.283483117818832397 0.319435745477676392
0.238495409488677979 0.0321461856365203857 0.318886876106262207
-0.120790019631385803 -0.0460560880601406097 0.00710393674671649933
-0.642198622226715088 0.308557242155075073 0.101509079337120056
0.36402621865272522 -0.373940229415893555 -0.207195177674293518
0.537102043628692627 -0.217836871743202209 0.161611303687095642
-0.55338132381439209 0.382366389036178589 0.157645717263221741
-0.123171322047710419 0.259191364049911499 0.114876247942447662
0.118747040629386902 0.102344878017902374 0.0892403200268745422
-0.376093626022338867 0.26576077938079834 -0.0899004563689231873
0.516224682331085205 -0.349095821380615234 0.0985172465443611145
-0.294195055961608887 -0.107031151652336121 -0.109561748802661896
0.27436026930809021 0.102757707238197327 -0.0578922517597675323
-0.57576441764831543 0.219479143619537354 -0.213074028491973877
-0.116211391985416412 0.268487393856048584 0.179568469524383545
0.235375925898551941 -0.287950515747070312 0.314124464988708496
0.309492439031600952 -0.187376320362091064 0.240785330533981323
0.541101813316345215 -0.325885772705078125 -0.0211732629686594009
0.0783525332808494568 -0.337604999542236328 0.281965076923370361
-0.00709985056892037392 -0.17176346480846405 0.0040673394687473774
-0.282912641763687134 0.261642336845397949 0.00676084589213132858
0.512496411800384521 -0.237175554037094116 -0.309687405824661255
-0.647562801837921143 0.278186887502670288 0.0791747719049453735
-0.646953582763671875 0.183129847049713135 -0.0912868306040763855
0.51343691349029541 -0.322570085525512695 0.0240366607904434204
-0.407581120729446411 -0.06352195143699646 0.113258630037307739
0.516157627105712891 -0.355744004249572754 -0.0208803322166204453
-0.567194044589996338 0.374238759279251099 0.152148231863975525
0.235248923301696777 0.0429536998271942139 0.313436418771743774
-0.665447354316711426 0.227081239223480225 0.0227231942117214203
-0.44872698187828064 -0.0383766479790210724 0.126793369650840759
0.502346992492675781 -0.302322477102279663 -0.179125085473060608
-0.589746594429016113 0.360937535762786865 0.0857221931219100952
-0.194758594036102295 0.314789831638336182 0.104596465826034546
0.246271103620529175 0.02386493980884552 0.323570907115936279
0.530253052711486816 -0.323849678039550781 -0.0583358407020568848
-0.183507770299911499 0.306897997856140137 0.128216490149497986
0.246519789099693298 0.00694827362895011902 0.323701232671737671
0.0579866021871566772 0.139620199799537659 0.345518141984939575
-0.506284832954406738 0.149411395192146301 0.356625676155090332
0.270081222057342529 -0.311229705810546875 0.325974792242050171
-0.254402041435241699 0.0235991403460502625 -0.0709968656301498413
0.240426987409591675 -0.295264065265655518 0.322225034236907959
0.248301044106483459 0.0437325239181518555 0.314161986112594604
0.467716634273529053 -0.102112293243408203 0.0343652591109275818
-0.125427648425102234 0.195030808448791504 0.115159153938293457
0.239320740103721619 -0.326575219631195068 0.317673087120056152
0.499574273824691772 -0.36663404107093811 0.074390508234500885
0.522767305374145508 -0.324772894382476807 0.0259533487260341644
0.443983763456344604 -0.253333121538162231 0.332089632749557495
0.320828676223754883 -0.13154175877571106 -0.106892190873622894
0.0627019256353378296 -0.0107293948531150818 0.321458637714385986
0.510627925395965576 -0.3609352707862854 0.0472509674727916718
0.134992137551307678 -0.100696951150894165 0.0403122864663600922
0.0488533191382884979 0.0115088224411010742 0.029494481161236763
0.0201156493276357651 0.0481845028698444366 0.0423539504408836365
0.0874665901064872742 -0.0660298392176628113 0.289390623569488525
-0.162725672125816345 -0.265517055988311768 0.147743791341781616
0.264270782470703125 -0.0202897805720567703 0.0613010860979557037
-0.0295533910393714905 -0.0289822239428758621 0.295318514108657837
0.501563549041748047 -0.240420013666152954 -0.302268713712692261
0.475313514471054077 -0.315014451742172241 -0.302208900451660156
-0.631488025188446045 0.306202918291091919 0.167027056217193604
0.474811851978302002 -0.320886373519897461 0.120764203369617462
0.508440494537353516 -0.300917387008666992 -0.105796389281749725
0.527607977390289307 -0.274977594614028931 -0.317454665899276733
0.492926657199859619 -0.332475662231445312 -0.310967981815338135
0.502854883670806885 -0.320208221673965454 0.0977573543787002563
0.473561257123947144 -0.305851936340332031 -0.298359394073486328
-0.559872627258300781 0.268020153045654297 0.364247262477874756
0.124351412057876587 0.116772301495075226 0.313968449831008911
-0.63415604829788208 0.282155990600585938 0.0539056882262229919
-0.587932109832763672 0.362691909074783325 0.102066874504089355
0.370866686105728149 -0.374094992876052856 -0.212973788380622864
0.437809914350509644 -0.348046153783798218 0.154086783528327942
0.0574713088572025299 0.12125154584646225 0.320892333984375
-0.575128674507141113 0.368717402219772339 0.215222746133804321
0.264086872339248657 0.0244265459477901459 -0.0588778853416442871
0.368150413036346436 -0.336848348379135132 0.1603737473487854
0.50988394021987915 -0.301636219024658203 -0.112245626747608185
0.132998377084732056 -0.320551812648773193 -0.0979715436697006226
0.515936374664306641 -0.348871529102325439 -0.020535716786980629
0.388665080070495605 -0.346835404634475708 -0.214331001043319702
-0.577600717544555664 0.318978428840637207 0.0404228270053863525
0.535425245761871338 -0.277945846319198608 -0.320860445499420166
0.467270821332931519 -0.310985863208770752 -0.299495607614517212
0.506554782390594482 -0.347213119268417358 0.0176855958998203278
-0.556483328342437744 0.30962720513343811 0.101922392845153809
0.193266928195953369 -0.339348137378692627 -0.0593702979385852814
0.069493904709815979 -0.282168567180633545 -0.0780881792306900024
0.251887470483779907 -0.250344306230545044 0.319905102252960205
0.239289641380310059 0.0307883359491825104 0.316664606332778931
-0.121650904417037964 -0.0478533171117305756 0.00795816536992788315
0.1781301349401474 -0.100283503532409668 -0.014994853176176548
0.53183138370513916 -0.332405447959899902 -0.0134145896881818771
0.369735389947891235 -0.349554300308227539 -0.209107205271720886
0.534361362457275391 -0.245986968278884888 0.177022069692611694
0.56055063009262085 -0.31588253378868103 -0.331200867891311646
0.553927719593048096 -0.211885437369346619 0.133678704500198364
-0.543844461441040039 0.380669891834259033 0.164190173149108887
0.122248202562332153 0.1170063316822052 0.132909923791885376
-0.582814037799835205 0.351816564798355103 0.0974610000848770142
-0.482168048620223999 0.185880988836288452 -0.091872483491897583
0.515009939670562744 -0.339290589094161987 0.0385914631187915802
0.252901613712310791 -0.279257804155349731 0.321721076965332031
0.277904033660888672 -0.356010794639587402 -0.126266643404960632
0.50732886791229248 -0.286756843328475952 -0.313923478126525879
-0.432715654373168945 -0.0572052299976348877 0.116477258503437042
0.201340839266777039 0.0903017148375511169 0.223141476511955261
0.243699818849563599 0.104272603988647461 -0.0574546456336975098
-0.196253210306167603 0.201439961791038513 0.34909898042678833
0.249852806329727173 0.0247498862445354462 0.323094606399536133
0.239211931824684143 0.0188497938215732574 0.320788025856018066
-0.0320152603089809418 0.162606701254844666 0.38246530294418335
-0.483060389757156372 -0.0156627427786588669 0.179953664541244507
0.48320537805557251 -0.369199186563491821 0.0458366163074970245
-0.644083738327026367 0.28699648380279541 0.0858920961618423462
0.275357991456985474 -0.165972292423248291 -0.0706807225942611694
-0.412389248609542847 -0.0568768158555030823 0.0786939859390258789
-0.643611788749694824 0.175603941082954407 -0.0823622867465019226
-0.226525366306304932 -0.133926257491111755 -0.0524171516299247742
0.254401862621307373 -0.265674322843551636 0.32088470458984375
-0.345926880836486816 0.017262432724237442 -0.117162048816680908
-0.287716478109359741 -0.0915484651923179626 -0.10672452300786972
-0.585664451122283936 0.209696978330612183 -0.218383833765983582
0.267061948776245117 -0.297131001949310303 0.3149566650390625
-0.0261941477656364441 -0.18729749321937561 -0.0436362437903881073
-0.618640720844268799 0.276795089244842529 0.0310791656374931335
-0.609408676624298096 0.298109203577041626 0.0921775549650192261
-0.398123353719711304 -0.0628745555877685547 0.118680916726589203
-0.452265053987503052 -0.0382064282894134521 0.119275934994220734
0.430563926696777344 -0.27195402979850769 0.328963249921798706
-0.053033735603094101 0.140621215105056763 0.0915247723460197449
-0.503551304340362549 0.151035010814666748 0.35524141788482666
0.240282148122787476 -0.319402188062667847 0.322571605443954468
0.496585369110107422 -0.371020197868347168 0.0571525655686855316
0.398755490779876709 -0.257070749998092651 0.322241246700286865
-0.158862411975860596 -0.263510376214981079 0.18137165904045105
-0.499730229377746582 0.0139647815376520157 0.157870516180992126
0.417046666145324707 -0.297570765018463135 0.328509390354156494
0.534755587577819824 -0.340392142534255981 -0.0186462458223104477
0.343724459409713745 -0.267592549324035645 -0.128031998872756958
-0.497024118900299072 0.0718985795974731445 0.203773543238639832
0.443107724189758301 -0.272401392459869385 0.333190381526947021
0.521489739418029785 -0.335605859756469727 0.0325939208269119263
0.452830076217651367 -0.320116162300109863 -0.293235808610916138
0.473691374063491821 -0.311902493238449097 0.116505227982997894
0.516710340976715088 -0.278648018836975098 -0.313036650419235229
0.502139508724212646 -0.326161861419677734 -0.31453511118888855
0.517578661441802979 -0.327330946922302246 0.101717010140419006
0.47879183292388916 -0.311651438474655151 -0.302379399538040161
0.113944865763187408 0.118375852704048157 0.288830310106277466
-0.122522927820682526 0.268425345420837402 0.158581361174583435
-0.615388214588165283 0.265275955200195312 0.051793217658996582
-0.479948461055755615 0.00300184730440378189 0.181129679083824158
0.426146328449249268 -0.355233520269393921 0.158367201685905457
-0.292891442775726318 -0.11061280220746994 -0.10598493367433548
0.129905730485916138 0.0653095170855522156 0.321034878492355347
0.253158301115036011 0.0383445657789707184 -0.077991001307964325
0.234920650720596313 0.0935103148221969604 -0.0532744042575359344
0.417146474123001099 -0.261792421340942383 -0.202535703778266907
0.521147668361663818 -0.354868024587631226 -0.0196633823215961456
-0.609436213970184326 0.380885392427444458 0.180966675281524658
0.517061710357666016 -0.279548197984695435 -0.31495937705039978
0.49857717752456665 -0.350222855806350708 0.0238783992826938629
-0.588415086269378662 0.369065403938293457 0.112753793597221375
0.505426764488220215 -0.10504942387342453 0.147073909640312195
-0.198617666959762573 0.31132817268371582 0.112716078758239746
0.263510376214981079 -0.286718785762786865 0.319547086954116821
0.236318275332450867 0.0618822351098060608 0.310330569744110107
-0.145088836550712585 -0.0435905568301677704 0.00401939311996102333
-0.658360183238983154 0.214491724967956543 -0.0465170368552207947
-0.289178907871246338 -0.0760218426585197449 -0.0688229501247406006
0.226668700575828552 0.041835002601146698 -0.0483397431671619415
0.550999224185943604 -0.144798099994659424 0.131824418902397156
0.519223868846893311 -0.295610040426254272 0.0746936202049255371
0.51706010103225708 -0.28430485725402832 -0.181390091776847839
-0.358655244112014771 -0.0171823035925626755 -0.0281626302748918533
0.0908511504530906677 0.0879404991865158081 0.0856039002537727356
0.466096550226211548 -0.362117677927017212 -0.0108682410791516304
-0.433513849973678589 0.15756632387638092 -0.0667509809136390686
0.52325361967086792 -0.335875898599624634 0.0686934664845466614
0.262370020151138306 -0.286087334156036377 0.318270593881607056
0.00874769687652587891 -0.0911115929484367371 -0.026270352303981781
0.0319346673786640167 -0.130497872829437256 0.0217081718146800995
-0.631302237510681152 0.264786690473556519 0.0287395957857370377
0.241521894931793213 0.074045233428478241 0.318597882986068726
0.239597737789154053 0.0293141920119524002 0.318677514791488647
-0.175412282347679138 0.300605297088623047 0.116097986698150635
0.304058045148849487 -0.151517435908317566 0.307577282190322876
0.261405318975448608 -0.290886372327804565 0.320755481719970703
-0.476772576570510864 -0.00826708041131496429 0.166007474064826965
0.242155551910400391 0.0814772620797157288 0.311957061290740967
0.519675374031066895 -0.351524025201797485 0.0817263796925544739
-0.0355006493628025055 -0.237637490034103394 0.12390909343957901
-0.638897359371185303 0.289778649806976318 0.0985255986452102661
-0.234840363264083862 -0.132897615432739258 -0.05820484459400177
-0.379873573780059814 -0.108854003250598907 0.105336882174015045
-0.237048685550689697 -0.147911205887794495 -0.0580520071089267731
-0.658571541309356689 0.214186325669288635 -0.0342185162007808685
0.528314471244812012 -0.352855801582336426 0.0776677429676055908
-0.621745467185974121 0.270049959421157837 0.0521869026124477386
-0.404744595289230347 -0.0644176825881004333 0.111853703856468201
-0.446924358606338501 -0.0415915995836257935 0.121781975030899048
0.267473131418228149 -0.285782605409622192 0.323230475187301636
0.127089649438858032 -0.326692759990692139 0.312343597412109375
0.151748448610305786 -0.343190550804138184 0.317612916231155396
0.44715610146522522 -0.33586999773979187 -0.293210208415985107
0.515187382698059082 -0.303214102983474731 -0.108167149126529694
0.514682173728942871 -0.280519217252731323 -0.313054680824279785
0.484302788972854614 -0.327928513288497925 -0.310013562440872192
0.463772773742675781 -0.346132010221481323 -0.302886992692947388
0.549057900905609131 -0.210514485836029053 -0.316213846206665039
0.52354729175567627 -0.30029761791229248 -0.322709172964096069
0.517411291599273682 -0.301108837127685547 -0.318603932857513428
0.246243461966514587 0.0567701011896133423 0.31618952751159668
0.240723848342895508 0.0872288942337036133 0.312525033950805664
-0.292342126369476318 -0.100618422031402588 -0.102112114429473877
-0.454182535409927368 -0.0520684793591499329 0.116875804960727692
0.404227763414382935 -0.272489041090011597 0.32228386402130127
-0.502984285354614258 0.00366997928358614445 0.188916459679603577
0.400521427392959595 -0.287461966276168823 0.32459789514541626
0.3986683189868927 -0.273782581090927124 0.32307898998260498
0.341636300086975098 -0.259184211492538452 0.0899129882454872131
-0.0194037929177284241 -0.244431614875793457 0.128481164574623108
-0.465088337659835815 0.0358701273798942566 0.189342126250267029
-0.195009768009185791 0.221384987235069275 0.171861737966537476
0.366240769624710083 -0.329478919506072998 -0.0237057153135538101
0.322802156209945679 -0.390269964933395386 -0.159073323011398315
0.534846782684326172 -0.323857367038726807 -0.0584379434585571289
-0.442358106374740601 -0.00482881022617220879 0.152492821216583252
-0.0197631977498531342 -0.0596413277089595795 0.141554743051528931
-0.000858065264765173197 -0.236173078417778015 0.106208749115467072
0.525639772415161133 -0.202082902193069458 -0.0802405849099159241
0.449218392372131348 -0.308563888072967529 -0.293091177940368652
0.526279449462890625 -0.275679886341094971 -0.31590917706489563
0.499334394931793213 -0.325112193822860718 -0.312904089689254761
0.474641025066375732 -0.305281758308410645 -0.297611981630325317
-0.128086104989051819 0.246393293142318726 0.138768002390861511
-0.649601519107818604 0.281799465417861938 0.0939034149050712585
-0.199553251266479492 0.286450564861297607 0.335713863372802734
0.497406452894210815 -0.0870730504393577576 0.136442318558692932
0.200122550129890442 -0.359264135360717773 -0.0909895226359367371
0.50481945276260376 -0.367887586355209351 -0.0229216255247592926
0.526678323745727539 -0.242933601140975952 0.172727301716804504
-0.586558401584625244 0.379102498292922974 0.170357227325439453
0.444433063268661499 -0.315153837203979492 -0.287965983152389526
0.49798545241355896 -0.111428216099739075 0.111958719789981842
-0.656401097774505615 0.175305768847465515 -0.104140274226665497
-0.202590912580490112 0.308520674705505371 0.088929101824760437
0.200684502720832825 -0.0138056790456175804 0.295047461986541748
0.159402966499328613 -0.0623731575906276703 -0.0442241542041301727
-0.580103039741516113 0.30205082893371582 0.368448793888092041
0.274449139833450317 0.097997128963470459 -0.0293174367398023605
-0.435884594917297363 0.155269339680671692 -0.0862804576754570007
0.533856749534606934 -0.33326229453086853 0.0125273047015070915
-0.569381594657897949 0.197158381342887878 -0.229466527700424194
-0.498260378837585449 0.0449171476066112518 -0.0871192589402198792
0.0307933464646339417 -0.104116901755332947 0.0328594110906124115
0.533534646034240723 -0.264723151922225952 -0.316555947065353394
0.00916626304388046265 0.197385415434837341 0.0273997727781534195
0.301564991474151611 0.0385272577404975891 -0.0846732631325721741
-0.332765668630599976 -0.0160318966954946518 -0.107914380729198456
0.235873743891716003 0.0142110744491219521 0.321593284606933594
0.124448277056217194 0.0128174573183059692 0.298760861158370972
0.526932597160339355 -0.355372697114944458 0.0661149397492408752
0.466513991355895996 -0.310051798820495605 -0.233336001634597778
-0.652579903602600098 0.285139232873916626 0.104011766612529755
0.546016037464141846 -0.220221847295761108 0.163287192583084106
0.52745741605758667 -0.323590129613876343 -0.0162576232105493546
-0.383568674325942993 -0.0564139559864997864 0.0760344192385673523
0.456340014934539795 -0.311045259237289429 -0.292790085077285767
0.504410207271575928 -0.340029746294021606 -0.318143934011459351
0.478259474039077759 -0.314526110887527466 -0.299738645553588867
0.519818782806396484 -0.301513344049453735 -0.317568928003311157
-0.0028730388730764389 -0.140056625008583069 -0.0249462723731994629
0.397002309560775757 -0.273340284824371338 0.323254048824310303
0.400672823190689087 -0.271768718957901001 0.323559314012527466
0.505521833896636963 -0.33218654990196228 0.105645008385181427
-0.468087047338485718 0.0424017608165740967 0.170453593134880066
0.409476876258850098 -0.346052408218383789 0.156390711665153503
-0.36135941743850708 -0.0352957136929035187 -0.148316487669944763
-0.128739774227142334 -0.26766669750213623 0.112228088080883026
0.512037873268127441 -0.369225412607192993 -0.0148672303184866905
-0.214213162660598755 0.312326967716217041 0.0974594652652740479
0.250074386596679688 -0.287222415208816528 0.322695285081863403
0.208373472094535828 0.0091582033783197403 -0.0462649539113044739
0.0693978667259216309 -0.151605367660522461 -0.0173624530434608459
-0.170253902673721313 0.30455741286277771 0.118661262094974518
0.470548331737518311 -0.36453711986541748 0.00685323867946863174
-0.291462302207946777 -0.0994095802307128906 -0.103369459509849548
0.035891510546207428 -0.149752035737037659 -0.0218277871608734131
0.231614813208580017 0.0560044869780540466 0.30901530385017395
0.25288042426109314 -0.288785219192504883 0.320476770401000977
-0.472189724445343018 0.00112323311623185873 0.168471813201904297
0.240434080362319946 0.0624535679817199707 0.312913179397583008
0.508410453796386719 -0.352216094732284546 0.0637676715850830078
0.22691047191619873 -0.314910352230072021 0.314379185438156128
-0.375876337289810181 -0.093114510178565979 0.0860228538513183594
-0.0631561130285263062 -0.241633415222167969 0.302355110645294189
-0.223192140460014343 -0.12764403223991394 -0.0532624237239360809
-0.410362601280212402 -0.0654314309358596802 0.0983461886644363403
-0.445466369390487671 -0.0447120442986488342 0.13255627453327179
0.238467171788215637 -0.294158756732940674 0.314253151416778564
0.153418377041816711 -0.32440224289894104 0.319927334785461426
0.42481037974357605 -0.256264090538024902 0.328406691551208496
0.43770715594291687 -0.343093067407608032 -0.292862653732299805
0.505830168724060059 -0.334733188152313232 -0.318288505077362061
0.444555491209030151 -0.352438420057296753 -0.286922603845596313
0.237699851393699646 0.0655167177319526672 0.312193155288696289
0.402749091386795044 -0.287691026926040649 0.32572212815284729
-0.495207011699676514 0.00670442311093211174 0.188201397657394409
0.485252678394317627 -0.0635172948241233826 0.131571069359779358
0.0120128626003861427 -0.170765906572341919 0.00973787251859903336
0.531047165393829346 -0.307796686887741089 -0.0624004192650318146
0.314284145832061768 -0.302396565675735474 -0.126961112022399902
0.445403873920440674 -0.291502118110656738 -0.285824030637741089
-0.337309718132019043 0.22456088662147522 0.125549927353858948
-0.401291698217391968 -0.0281624626368284225 -0.00207820069044828415
0.402658641338348389 -0.271911978721618652 0.323942631483078003
-0.133724674582481384 0.19562762975692749 0.167611002922058105
0.398708254098892212 -0.271847754716873169 0.323755979537963867
-0.446946173906326294 -0.0249384548515081406 0.0212367307394742966
-0.138397485017776489 0.244673237204551697 0.191558122634887695
-0.61312401294708252 0.293879091739654541 0.183508381247520447
0.124065659940242767 0.115905463695526123 0.316557377576828003
-0.121341317892074585 0.250398427248001099 0.161691337823867798
-0.583647787570953369 0.347981363534927368 0.0578661821782588959
0.426387041807174683 -0.348228245973587036 0.15287347137928009
-0.567086219787597656 0.294906556606292725 -0.0692805200815200806
0.251416772603988647 0.0264818724244832993 -0.0797148644924163818
0.247218802571296692 0.100120477378368378 -0.0484967045485973358
-0.357836365699768066 -0.0556326285004615784 -0.142047971487045288
0.198253661394119263 0.119970954954624176 0.0356250479817390442
0.545125663280487061 -0.13174690306186676 0.111825346946716309
-0.581971287727355957 0.321598052978515625 -0.023134671151638031
0.205678477883338928 0.0245059877634048462 0.176707565784454346
-0.59564661979675293 0.374979943037033081 0.171769887208938599
0.44435960054397583 -0.319329917430877686 0.12721213698387146
0.254680931568145752 -0.278754681348800659 0.316322624683380127
0.235089123249053955 0.0236432980746030807 0.316439777612686157
-0.363271176815032959 -0.0496669001877307892 -0.0239336341619491577
-0.183012679219245911 0.118072479963302612 0.0421791523694992065
0.254396975040435791 -0.288190633058547974 0.319137394428253174
0.241524830460548401 0.0330121070146560669 0.321703702211380005
0.39939996600151062 0.0231100190430879593 0.115018352866172791
-0.340874254703521729 -0.0659794881939888 -0.147489607334136963
0.0754147544503211975 -0.332854509353637695 0.298799872398376465
-0.387090474367141724 -0.0606614984571933746 0.0936672687530517578
-0.448499977588653564 -0.0411886833608150482 0.127565100789070129
0.43896019458770752 -0.279384344816207886 0.333476483821868896
0.0340426899492740631 -0.122821129858493805 -0.0257355011999607086
0.413924038410186768 -0.280831098556518555 0.326821178197860718
0.432635128498077393 -0.296125650405883789 0.332978338003158569
0.367489814758300781 -0.278725206851959229 -0.130433455109596252
-0.477680325508117676 0.00159574858844280243 0.1881512850522995
-0.291875362396240234 -0.0961214080452919006 -0.104701608419418335
0.241020649671554565 -0.312943071126937866 0.3094978928565979
0.472777187824249268 -0.354261279106140137 0.00686392281204462051
-0.296706825494766235 -0.0963719338178634644 -0.107155650854110718
0.244374930858612061 -0.288534045219421387 0.319891154766082764
0.0619519427418708801 -0.329553395509719849 0.296885102987289429
0.157597199082374573 -0.267657190561294556 -0.105653338134288788
0.24973064661026001 0.0632591471076011658 0.315337091684341431
-0.482789993286132812 -0.00778139429166913033 0.177772611379623413
0.235871270298957825 0.0664337947964668274 0.314694970846176147
0.238363534212112427 -0.331741929054260254 0.321223258972167969
-0.382563173770904541 -0.0918034538626670837 0.0365748368203639984
-0.216457247734069824 -0.13987337052822113 -0.054495789110660553
-0.382996141910552979 -0.0634678676724433899 0.0833838358521461487
0.149632066488265991 -0.331508934497833252 0.33171495795249939
0.445481359958648682 -0.279917389154434204 0.333399802446365356
0.407035678625106812 -0.280541062355041504 0.324934035539627075
-0.50229489803314209 0.00668284110724925995 0.188515156507492065
-0.322215735912322998 0.0972616150975227356 -0.0704447850584983826
0.532140433788299561 -0.207615002989768982 -0.0528193674981594086
0.450597524642944336 -0.29394039511680603 -0.290713787078857422
0.487064123153686523 -0.325281649827957153 -0.311143964529037476
0.446039497852325439 -0.309777408838272095 -0.291079849004745483
-0.577956080436706543 0.269070327281951904 0.365644931793212891
-0.461737930774688721 0.105823934078216553 -0.231273427605628967
0.3744468092918396 -0.318710386753082275 0.198902025818824768
-0.590023040771484375 0.366736084222793579 0.130981951951980591
0.392167359590530396 -0.35345497727394104 -0.217704296112060547
0.440734982490539551 -0.310318887233734131 -0.289288341999053955
-0.2009744793176651 0.305248737335205078 0.0947916135191917419
-0.155832812190055847 0.26776394248008728 0.15150037407875061
0.529415309429168701 -0.338505774736404419 0.0716083347797393799
