ply
format ascii 1.0
element vertex 737
property float x
property float y
property float z
end_header
-0.549256801605224609 0.174191772937774658 -0.0439854636788368225
-0.543965637683868408 0.277782738208770752 0.171759366989135742
0.400962948799133301 -0.233919873833656311 -0.0235489141196012497
0.286514699459075928 -0.0626039877533912659 -0.0969504788517951965
0.221419364213943481 0.0399559624493122101 -0.0702514424920082092
0.103022605180740356 -0.138485923409461975 0.210768833756446838
0.115074269473552704 0.0724408477544784546 0.316428661346435547
-0.370655208826065063 0.11848226934671402 0.236953526735305786
-0.0233352985233068466 -0.0574686713516712189 0.137482866644859314
0.221598640084266663 -0.236081138253211975 0.0975153893232345581
0.0754153728485107422 0.0648207589983940125 0.0341807492077350616
-0.383965164422988892 -0.0579486116766929626 0.10425354540348053
0.103937782347202301 0.0790443271398544312 0.126085728406906128
0.251912951469421387 0.0285681765526533127 -0.0658567622303962708
-0.372517108917236328 0.269466400146484375 0.113657653331756592
0.0321567654609680176 -0.0556393414735794067 0.302180469036102295
-0.015240207314491272 0.137674510478973389 0.0921282321214675903
-0.501712501049041748 0.0956851914525032043 -0.127829506993293762
-0.345904648303985596 0.0124963643029332161 0.150637000799179077
0.526612222194671631 -0.0547860860824584961 -0.309366673231124878
-0.500335216522216797 0.135910794138908386 -0.240850850939750671
0.472850888967514038 -0.269127130508422852 0.113114416599273682
0.376840472221374512 -0.134066715836524963 -0.0479520559310913086
0.234572306275367737 0.0927709490060806274 -0.0404088497161865234
0.137150704860687256 0.0128102051094174385 0.284639477729797363
0.520587563514709473 -0.204683855175971985 -0.088396705687046051
-0.53656083345413208 0.124779500067234039 -0.105740271508693695
-0.579486846923828125 0.292622774839401245 -0.00103059969842433929
0.482569605112075806 -0.325187146663665771 0.100037604570388794
0.499323397874832153 -0.269687533378601074 0.0358202829957008362
0.492960989475250244 -0.330184787511825562 -0.0630892887711524963
-0.483642846345901489 0.120319962501525879 -0.0454865507781505585
-0.591734111309051514 0.30142095685005188 0.175698563456535339
0.483352810144424438 -0.323080331087112427 0.13437989354133606
0.505738437175750732 -0.303614765405654907 -0.104074597358703613
-0.381326049566268921 0.316952317953109741 0.158754289150238037
-0.546552836894989014 0.334305793046951294 0.134298115968704224
0.460360974073410034 -0.259539633989334106 0.114850066602230072
0.533816814422607422 -0.207440316677093506 -0.0880338698625564575
0.513287603855133057 -0.231829747557640076 -0.304990947246551514
-0.554202497005462646 0.259515911340713501 -0.0208429470658302307
0.461261987686157227 -0.304727286100387573 0.108890444040298462
-0.452108711004257202 0.112712092697620392 -0.224892571568489075
0.486228317022323608 -0.314226657152175903 -0.303642541170120239
-0.559570550918579102 0.317493408918380737 0.354699850082397461
0.179205119609832764 -0.104271247982978821 -0.0161804482340812683
0.306134819984436035 0.0179668907076120377 -0.111744344234466553
0.506262362003326416 -0.337974756956100464 0.0248147118836641312
0.404610216617584229 0.0224755536764860153 0.00810927897691726685
0.47514614462852478 -0.288266569375991821 -0.300122469663619995
0.0104400124400854111 0.153979882597923279 0.0575030669569969177
0.523096382617950439 -0.30053180456161499 -0.0980141535401344299
-0.380982547998428345 0.333873331546783447 0.205014914274215698
-0.551160216331481934 0.33736419677734375 0.124734938144683838
0.41842767596244812 -0.252778619527816772 0.0979117751121520996
-0.580256283283233643 0.208245694637298584 -0.214858606457710266
0.278278350830078125 -0.0852999091148376465 0.190458998084068298
-0.12986476719379425 0.224380746483802795 0.126604184508323669
-0.382326632738113403 0.104028679430484772 -0.0631907060742378235
0.551415622234344482 -0.220284923911094666 0.114156521856784821
0.383593142032623291 -0.242661476135253906 0.31378406286239624
-0.552851438522338867 0.163096010684967041 0.0799300670623779297
-0.134537309408187866 0.201315358281135559 0.168508872389793396
0.242201969027519226 0.109749495983123779 -0.0490198135375976562
0.116418108344078064 0.0396500639617443085 0.328201800584793091
-0.559287607669830322 0.277922630310058594 0.00259304442442953587
0.319807767868041992 -0.132913187146186829 -0.0797911211848258972
-0.575102806091308594 0.200278937816619873 -0.225804522633552551
0.207766503095626831 0.117780841886997223 0.0451795235276222229
0.463683664798736572 -0.308382630348205566 0.134663060307502747
-0.585449159145355225 0.319638848304748535 -0.0247137360274791718
0.530387341976165771 -0.253591865301132202 0.0981156080961227417
-0.309837043285369873 0.0825280323624610901 -0.0721361488103866577
-0.449562102556228638 0.00854182802140712738 -0.139992281794548035
-0.301230430603027344 0.290642023086547852 0.14647461473941803
-0.526514351367950439 0.181584477424621582 -0.215105399489402771
-0.391659080982208252 -0.0585407577455043793 0.100934989750385284
-0.545418322086334229 0.262713104486465454 -0.164561733603477478
0.313618928194046021 -0.334208756685256958 0.197713539004325867
-0.0598233044147491455 0.0938525423407554626 0.321329474449157715
-0.101717904210090637 0.143665939569473267 0.0936506986618041992
0.499712377786636353 -0.362921446561813354 0.0762683898210525513
0.348869621753692627 -0.28293842077255249 -0.135018989443778992
-0.412395119667053223 0.198073625564575195 0.0365393050014972687
-0.345198929309844971 0.251649677753448486 -0.0133056556805968285
-0.267482906579971313 0.0789497494697570801 -0.0144877061247825623
-0.180772989988327026 0.0186220519244670868 0.0397610887885093689
-0.553412556648254395 0.212590053677558899 -0.0472345016896724701
0.407723784446716309 -0.400885522365570068 -0.215667411684989929
0.517594814300537109 -0.285262405872344971 -0.100316919386386871
0.395180970430374146 -0.264494478702545166 -0.193705394864082336
0.497817009687423706 -0.274315237998962402 -0.30077853798866272
0.434459120035171509 -0.257355034351348877 -0.00187971699051558971
-0.154390111565589905 -0.244025543332099915 0.149007007479667664
-0.630130350589752197 0.194355040788650513 -0.0475440546870231628
-0.35494038462638855 0.000476058630738407373 -0.150964811444282532
-0.501060128211975098 0.1462506502866745 0.346397489309310913
-0.331639200448989868 0.299673408269882202 0.191210418939590454
-0.334562003612518311 -0.0315157100558280945 -0.1321067214012146
0.113053455948829651 0.0953094735741615295 0.0293684955686330795
0.470008403062820435 -0.135082826018333435 0.0994157791137695312
0.398915767669677734 -0.305017918348312378 0.145151183009147644
-0.457233667373657227 0.167620465159416199 0.116980038583278656
-0.536311626434326172 0.287246435880661011 0.042300201952457428
-0.27624046802520752 -0.127532035112380981 0.0820941552519798279
-0.483028322458267212 0.249071255326271057 -0.102741755545139313
0.171094760298728943 -0.27202838659286499 0.0367156080901622772
-0.344634354114532471 0.103494495153427124 0.00673686200752854347
-0.365988433361053467 0.282914340496063232 0.0872011631727218628
0.386483818292617798 -0.230050429701805115 -0.12170872837305069
-0.353045552968978882 0.00252898270264267921 0.0354873500764369965
-0.518036961555480957 0.201971665024757385 0.0493776798248291016
-0.384952336549758911 0.182861417531967163 0.0923567935824394226
-0.571789145469665527 0.328069567680358887 -0.0114251915365457535
-0.3390178382396698 -0.0876342654228210449 -0.0537235662341117859
-0.136870577931404114 -0.268911838531494141 0.130539193749427795
0.274961113929748535 -0.165886968374252319 0.0550767593085765839
0.313087195158004761 -0.302611947059631348 -0.128278777003288269
-0.381219238042831421 0.250273168087005615 0.233605250716209412
0.310667514801025391 -0.217187955975532532 0.201247856020927429
0.496318697929382324 -0.255007773637771606 -0.105422139167785645
-0.118984661996364594 0.0725578293204307556 0.173812836408615112
0.512499034404754639 -0.362010002136230469 -0.0306973475962877274
-0.509150803089141846 0.268975883722305298 -0.00469352537766098976
-0.595170974731445312 0.243853852152824402 -0.00246089114807546139
-0.586276352405548096 0.250941157341003418 0.194560915231704712
-0.547740280628204346 0.121269874274730682 -0.133898243308067322
-0.244914144277572632 0.182699218392372131 0.357155114412307739
0.462409168481826782 -0.264244586229324341 -0.290322870016098022
0.456126213073730469 -0.256001889705657959 -0.18685634434223175
0.519395828247070312 -0.302898496389389038 0.044533316045999527
-0.625655233860015869 0.200187236070632935 0.0451913326978683472
-0.255769461393356323 -0.00461402209475636482 -0.0618971996009349823
0.245457679033279419 0.0988586097955703735 -0.0688606947660446167
0.504928350448608398 -0.160082012414932251 0.130867898464202881
0.343100130558013916 -0.0701259076595306396 0.162115871906280518
0.399828553199768066 -0.237186506390571594 0.130385354161262512
-0.359591275453567505 -0.118687383830547333 0.116751641035079956
-0.479027479887008667 0.189589232206344604 0.064250558614730835
-0.574675261974334717 0.341898560523986816 0.025564858689904213
-0.358971774578094482 -0.0632492974400520325 0.0911346599459648132
-0.342739403247833252 0.0116886217147111893 -0.114105932414531708
0.302980363368988037 -0.295909851789474487 0.162162512540817261
-0.504633307456970215 0.22091558575630188 0.1421937495470047
-0.485157400369644165 0.0284685362130403519 -0.0465627014636993408
0.0331783294677734375 0.087856881320476532 0.0880190208554267883
-0.231490671634674072 0.347093105316162109 0.149085462093353271
0.0318913869559764862 0.0104341134428977966 0.0422638952732086182
-0.365689873695373535 -0.0366559252142906189 -0.0324354544281959534
-0.0480962060391902924 -0.234198465943336487 0.301925122737884521
0.185847967863082886 -0.292889952659606934 0.00385862588882446289
0.234658330678939819 -0.0117159998044371605 0.230334252119064331
-0.526456058025360107 0.140648052096366882 0.0683366134762763977
-0.520304501056671143 0.201375663280487061 -0.0670536831021308899
-0.552251517772674561 0.285637974739074707 0.107843764126300812
0.143762916326522827 0.00767760584130883217 0.307903140783309937
0.06792411208152771 -0.28616449236869812 -0.081212170422077179
-0.36197623610496521 0.0353147871792316437 -0.160847783088684082
0.307325214147567749 -0.293747872114181519 0.0296552162617444992
-0.339258581399917603 0.213391199707984924 0.159489244222640991
-0.188125893473625183 0.199968740344047546 0.368029773235321045
-0.540082931518554688 0.254801124334335327 -0.0837806612253189087
0.522594332695007324 -0.199824050068855286 -0.0926398560404777527
-0.519041717052459717 0.185299217700958252 0.136812403798103333
-0.543687641620635986 0.269912153482437134 -0.00209231814369559288
0.471075832843780518 -0.326416701078414917 0.0446364544332027435
0.288842648267745972 0.0308142602443695068 0.0538431927561759949
0.433223366737365723 -0.306212902069091797 -0.284995406866073608
-0.518627583980560303 0.0900353714823722839 -0.134731784462928772
-0.600599765777587891 0.285222530364990234 0.184312179684638977
0.467607170343399048 -0.321349591016769409 0.127400264143943787
0.467573016881942749 -0.260756075382232666 -0.293588370084762573
-0.404042810201644897 0.300480663776397705 0.143142580986022949
-0.454266965389251709 0.119466833770275116 -0.223561137914657593
0.481493264436721802 -0.31203189492225647 -0.302405685186386108
0.468156963586807251 -0.330893814563751221 -0.00295384530909359455
0.457222253084182739 -0.305465579032897949 -0.292336881160736084
0.524231910705566406 -0.262163072824478149 -0.102011017501354218
-0.408800423145294189 0.318579435348510742 0.163004368543624878
-0.560808241367340088 0.267457574605941772 0.365581303834915161
-0.576196372509002686 0.21050107479095459 -0.200446546077728271
0.447365552186965942 -0.296776086091995239 -0.222966507077217102
0.310354441404342651 -0.0764332935214042664 0.148886457085609436
0.534634947776794434 -0.248502328991889954 0.10116007924079895
-0.562626659870147705 0.11976681649684906 -0.232888594269752502
-0.4082222580909729 0.0767061561346054077 -0.116199970245361328
-0.579748570919036865 0.356268733739852905 0.0829703137278556824
0.0413355790078639984 0.114367261528968811 0.312473446130752563
-0.456664890050888062 0.00892805960029363632 0.181949570775032043
0.409384608268737793 -0.344119042158126831 0.15994185209274292
-0.554791390895843506 0.288417428731918335 -0.0488900654017925262
0.543142259120941162 -0.256160140037536621 0.113592304289340973
0.0239444989711046219 -0.249822720885276794 0.205192685127258301
0.195468127727508545 0.129831328988075256 0.0349672324955463409
0.315436363220214844 -0.37064063549041748 -0.156888410449028015
0.110538177192211151 0.05939440056681633 0.319143474102020264
-0.31492951512336731 0.306353241205215454 0.284423708915710449
-0.254494577646255493 -0.132636398077011108 -0.0728668347001075745
-0.386547774076461792 -0.0601238235831260681 0.106709487736225128
0.453129708766937256 -0.0729661062359809875 -0.116409115493297577
0.315793395042419434 -0.333242088556289673 0.195844247937202454
0.297692924737930298 0.0379533171653747559 0.0501442141830921173
0.475860089063644409 -0.331166982650756836 0.136369675397872925
0.439763724803924561 -0.267662256956100464 -0.282189220190048218
0.461405485868453979 -0.273271650075912476 0.137930020689964294
0.504042685031890869 -0.346577078104019165 0.0174395982176065445
0.518961727619171143 -0.269752919673919678 -0.0871416106820106506
0.498666167259216309 -0.0883290693163871765 0.161752432584762573
0.542290389537811279 -0.21548105776309967 0.110777042806148529
-0.577171027660369873 0.326794058084487915 0.0807766914367675781
0.246599629521369934 0.111099489033222198 -0.0543133877217769623
0.0335220731794834137 0.0682486817240715027 0.272659122943878174
-0.562148451805114746 0.275182783603668213 0.0242901071906089783
-0.61406177282333374 0.271956562995910645 0.0388855189085006714
0.535650253295898438 -0.239451110363006592 0.102814935147762299
-0.576148271560668945 0.212661311030387878 -0.116373948752880096
-0.425112932920455933 0.0307222120463848114 -0.188182547688484192
0.304436385631561279 -0.126598834991455078 -0.108232356607913971
-0.385163724422454834 -0.0556400343775749207 0.100951626896858215
-0.603366553783416748 0.259497493505477905 0.0177842844277620316
-0.460796624422073364 0.30626225471496582 0.081549033522605896
0.504907488822937012 -0.264119476079940796 -0.109246499836444855
0.534640491008758545 -0.192567169666290283 0.0286418143659830093
-0.61629873514175415 0.210430681705474854 -0.0557897165417671204
0.452558070421218872 -0.123818479478359222 0.0893387719988822937
0.0335704609751701355 -0.279497295618057251 -0.0355866923928260803
0.4019508957862854 -0.318962454795837402 0.130917057394981384
-0.0939009040594100952 0.0739215165376663208 0.293396145105361938
0.24315488338470459 -0.136912479996681213 0.0112093500792980194
0.16129930317401886 -0.271576732397079468 0.044018380343914032
-0.590690135955810547 0.36905205249786377 0.0905721858143806458
0.0269749332219362259 -0.0117908567190170288 0.0281362403184175491
0.195693358778953552 0.0338638536632061005 0.178222641348838806
-0.306134849786758423 -0.0913746356964111328 0.305678844451904297
0.493718475103378296 -0.366994202136993408 0.0198263563215732574
0.52162635326385498 -0.311570137739181519 0.0460187718272209167
0.502639293670654297 -0.153706610202789307 0.118924163281917572
0.080798514187335968 -0.272050857543945312 -0.0593166351318359375
-0.325461924076080322 -0.103148326277732849 0.088694252073764801
-0.58630681037902832 0.334729641675949097 0.018927503377199173
-0.0738627910614013672 -0.235747113823890686 0.301798880100250244
0.194291964173316956 -0.339925944805145264 -0.0621859058737754822
-0.398969799280166626 0.27201804518699646 -0.0542753860354423523
-0.521811783313751221 0.044149596244096756 -0.0573692210018634796
-0.257874339818954468 0.142195522785186768 0.0915857031941413879
-0.21355755627155304 -0.13568452000617981 -0.0629536062479019165
0.50851130485534668 -0.104892455041408539 0.144239500164985657
0.214078202843666077 -0.279716163873672485 -0.00916260294616222382
0.238052099943161011 -0.0761914029717445374 0.126944348216056824
-0.140481308102607727 0.296419829130172729 0.148101806640625
-0.656076192855834961 0.171416535973548889 -0.112136729061603546
0.253252893686294556 -0.00960035063326358795 0.249987930059432983
0.250195562839508057 -0.178949832916259766 0.302715063095092773
-0.263071358203887939 -0.136922374367713928 -0.0673482045531272888
-0.200862392783164978 0.314250975847244263 0.0992573946714401245
0.257734000682830811 -0.27813798189163208 0.323030710220336914
0.178765654563903809 -0.0541725680232048035 -0.0508337616920471191
-0.443328201770782471 -0.0665905848145484924 0.129392713308334351
-0.503814637660980225 0.0300713889300823212 0.247473955154418945
-0.497093945741653442 0.0365360528230667114 -0.011317533440887928
0.232575327157974243 0.022683827206492424 0.314090937376022339
-0.371420949697494507 -0.0456977672874927521 0.143650099635124207
-0.348982542753219604 0.106571674346923828 0.0662920475006103516
0.307527333498001099 -0.19892708957195282 0.242913112044334412
0.308307617902755737 -0.00567793985828757286 0.219590723514556885
-0.442874312400817871 0.26653781533241272 -0.0369109660387039185
0.51711958646774292 -0.326677650213241577 -0.0812880471348762512
-0.538842976093292236 0.138430923223495483 -0.0968154966831207275
0.465743511915206909 -0.124600045382976532 0.00200041127391159534
-0.385425567626953125 0.255297958850860596 0.0331022925674915314
0.493912875652313232 -0.30205535888671875 0.121085986495018005
0.465278029441833496 -0.106352858245372772 0.0595796629786491394
0.20365627110004425 0.0150602478533983231 -0.0420698672533035278
-0.224620699882507324 0.295645236968994141 0.158980831503868103
-0.125159174203872681 -0.0489717721939086914 0.0111841131001710892
-0.231742784380912781 0.228290095925331116 0.348417580127716064
-0.380809515714645386 -0.0542537793517112732 0.145765364170074463
0.341139853000640869 -0.0739133358001708984 0.0477549172937870026
-0.435970962047576904 -0.0121739665046334267 0.0344073176383972168
0.20529446005821228 0.0164952799677848816 0.0705253034830093384
0.0561637021601200104 -0.0860113576054573059 0.239447042346000671
-0.383899062871932983 -0.0594367645680904388 0.116884715855121613
-0.136744365096092224 -0.264727085828781128 -0.00088683300418779254
-0.243765413761138916 0.0635453537106513977 0.245088919997215271
-0.542151391506195068 0.210790574550628662 0.163107842206954956
-0.59079211950302124 0.287062108516693115 -0.00690269796177744865
0.306886434555053711 0.0174618810415267944 0.0429703406989574432
0.47848820686340332 -0.314851999282836914 -0.305281102657318115
0.503764450550079346 -0.345630377531051636 -0.0636943504214286804
0.471644431352615356 -0.305266290903091431 0.115109533071517944
0.527138888835906982 -0.30300334095954895 -0.109283141791820526
-0.402922272682189941 0.311419963836669922 0.135047763586044312
0.517937600612640381 -0.251373887062072754 -0.307282894849777222
0.507610440254211426 -0.329132407903671265 -0.314646393060684204
0.518841743469238281 -0.331470370292663574 0.091650836169719696
0.47737354040145874 -0.304325371980667114 -0.302920669317245483
0.527597188949584961 -0.285749316215515137 -0.107899576425552368
-0.55992424488067627 0.26707381010055542 0.36596718430519104
-0.640177309513092041 0.289453685283660889 0.0855611339211463928
0.371387273073196411 -0.401201128959655762 -0.217356875538825989
-0.449744313955307007 -0.00098503695335239172 0.175433740019798279
0.176368638873100281 0.0728137269616127014 0.00682425312697887421
-0.453564554452896118 0.134686470031738281 -0.21326717734336853
0.403102308511734009 -0.335962384939193726 0.129059240221977234
-0.598931550979614258 0.207307249307632446 0.00119598570745438337
0.247513100504875183 -0.114628732204437256 -0.0706194639205932617
-0.48317381739616394 0.182702600955963135 -0.209678024053573608
-0.376072198152542114 -0.0629803836345672607 0.0920238271355628967
0.522950053215026855 -0.321064800024032593 0.0359542630612850189
0.542432844638824463 -0.217546150088310242 0.108304508030414581
0.525759518146514893 -0.273650556802749634 0.0553835071623325348
0.111135736107826233 0.0839478671550750732 0.317440658807754517
-0.350839853286743164 -0.0477979704737663269 0.0453413724899291992
0.105048775672912598 0.0721012651920318604 0.295683443546295166
-0.165290787816047668 0.132972389459609985 0.151643618941307068
0.502808690071105957 -0.256596416234970093 -0.102363467216491699
0.428938239812850952 -0.303970307111740112 0.13602060079574585
-0.355635702610015869 -0.10129895806312561 0.159344762563705444
0.498665690422058105 -0.201752260327339172 -0.107823900878429413
-0.578440368175506592 0.347939014434814453 0.152534574270248413
0.104998931288719177 -0.0115995537489652634 0.0214060712605714798
-0.34112665057182312 -0.1232270747423172 0.10490696132183075
-0.120620884001255035 -0.275520443916320801 0.174304217100143433
-0.161108970642089844 0.167191654443740845 0.325454533100128174
0.515058636665344238 -0.358684897422790527 0.0268919132649898529
0.521102428436279297 -0.287687987089157104 -0.0115838451310992241
0.478891640901565552 -0.140134051442146301 0.107710406184196472
-0.180820107460021973 0.0293054822832345963 0.0262387022376060486
-0.341843068599700928 -0.121448792517185211 0.104050666093826294
-0.600135862827301025 0.376628071069717407 0.188795343041419983
-0.119607299566268921 -0.266646355390548706 0.218542933464050293
0.523514807224273682 -0.308921784162521362 -0.0746796652674674988
0.516383171081542969 -0.252187222242355347 -0.30940556526184082
0.455022752285003662 -0.3082733154296875 -0.294324129819869995
0.24056263267993927 -0.0960711836814880371 0.158796802163124084
-0.620150089263916016 0.272143274545669556 0.0375753752887248993
-0.429822355508804321 -0.00372375920414924622 0.177662238478660583
-0.250277489423751831 -0.13670012354850769 -0.0707303062081336975
0.317313343286514282 -0.319036573171615601 0.122684553265571594
0.539364993572235107 -0.249851807951927185 0.10669158399105072
0.452739089727401733 -0.13992580771446228 0.0155519898980855942
0.429375201463699341 -0.321112066507339478 0.123812511563301086
0.413329511880874634 -0.330851614475250244 -0.209637999534606934
0.473826855421066284 -0.128713920712471008 0.109597541391849518
-0.548896074295043945 0.378439575433731079 0.173006013035774231
0.190542906522750854 -0.339775979518890381 -0.0130833135917782784
-0.201571866869926453 -0.135247066617012024 -0.0680758431553840637
-0.185500368475914001 0.311964839696884155 0.118245393037796021
0.103282138705253601 0.107642486691474915 0.174683317542076111
-0.444182783365249634 -0.0541609972715377808 0.092219032347202301
-0.48924487829208374 0.0301728732883930206 0.0172617137432098389
0.23134961724281311 0.0108907101675868034 0.315167248249053955
-0.0246905665844678879 0.113103881478309631 0.312735795974731445
0.243204891681671143 -0.0387270860373973846 0.204814627766609192
-0.38477209210395813 0.245318621397018433 0.0346919521689414978
-0.653966724872589111 0.216680347919464111 -0.0388310849666595459
0.483022630214691162 -0.116384305059909821 0.0235587600618600845
0.122141376137733459 0.0794316604733467102 0.138798981904983521
-0.381774246692657471 -0.0724057033658027649 0.095969855785369873
0.319668054580688477 -0.0724682658910751343 0.0625853389501571655
-0.440512984991073608 -0.0114982761442661285 0.00726456427946686745
-0.502093613147735596 0.233670637011528015 -0.0706781893968582153
-0.547148823738098145 0.203429102897644043 -0.0680832788348197937
0.0885431990027427673 0.0916232690215110779 0.0803068205714225769
-0.519782423973083496 0.204542875289916992 -0.0467365793883800507
-0.168151363730430603 0.0724010616540908813 0.232809454202651978
-0.0572439245879650116 -0.186706185340881348 0.0271523520350456238
-0.212440997362136841 0.29068148136138916 0.109495937824249268
0.249606609344482422 -0.00551633909344673157 0.0225785877555608749
-0.555690407752990723 0.204322457313537598 0.118773512542247772
-0.457236409187316895 0.216434851288795471 0.0249508898705244064
-0.462540477514266968 0.266449779272079468 -0.0022934002336114645
-0.575343906879425049 0.247541889548301697 -0.0760091692209243774
-0.389264583587646484 0.275114953517913818 -0.0837011486291885376
0.343789041042327881 -0.134809151291847229 0.318916946649551392
-0.498509138822555542 0.206831350922584534 -0.0111833633854985237
-0.34590226411819458 0.292796969413757324 -0.049721401184797287
0.526061892509460449 -0.361111849546432495 0.0417871288955211639
-0.539846420288085938 0.215076759457588196 0.201471492648124695
-0.569228410720825195 0.294279754161834717 -0.00270643038675189018
0.316562116146087646 0.0235809683799743652 0.0489490516483783722
0.482109159231185913 -0.306999921798706055 -0.303591102361679077
0.479755699634552002 -0.326380342245101929 0.125384360551834106
0.523285388946533203 -0.307055681943893433 -0.0986699908971786499
0.490464299917221069 -0.310767412185668945 -0.307353585958480835
0.516287386417388916 -0.325107336044311523 0.119837738573551178
0.444626003503799438 -0.300194293260574341 -0.290557354688644409
0.523302257061004639 -0.304607689380645752 -0.0973328500986099243
0.134215250611305237 0.116235695779323578 0.337276756763458252
-0.642313897609710693 0.242524310946464539 -0.00901961885392665863
-0.292468667030334473 -0.1136670783162117 -0.105293653905391693
0.539303362369537354 -0.255585134029388428 0.0921931490302085876
0.129076018929481506 0.0974608138203620911 0.317553818225860596
-0.235078766942024231 -0.143344178795814514 -0.0709638074040412903
0.252427548170089722 0.0299311187118291855 -0.085692770779132843
0.531040787696838379 -0.323205411434173584 0.00684516504406929016
-0.599282920360565186 0.307230204343795776 0.104922622442245483
0.532155334949493408 -0.244762137532234192 0.0865502506494522095
-0.373958349227905273 -0.0606790892779827118 0.0926833152770996094
0.526651501655578613 -0.275376856327056885 -0.123208910226821899
-0.501052320003509521 0.148680150508880615 0.353404730558395386
0.385183036327362061 -0.297705978155136108 0.13188539445400238
0.132773876190185547 -0.331898480653762817 -0.100171856582164764
0.5228424072265625 -0.354916274547576904 -0.0149128306657075882
-0.436392337083816528 0.150551632046699524 -0.084582209587097168
0.515829801559448242 -0.300186902284622192 0.064715459942817688
0.393150418996810913 -0.367876887321472168 -0.213582918047904968
0.500562965869903564 -0.171604439616203308 0.130051255226135254
0.533310115337371826 -0.33407294750213623 0.0283981822431087494
-0.57986217737197876 0.348734021186828613 0.0407262705266475677
0.520064830780029297 -0.240949749946594238 -0.308649629354476929
-0.600958287715911865 0.370485514402389526 0.105090878903865814
-0.5005531907081604 0.147051960229873657 0.355608731508255005
0.234008461236953735 -0.277905374765396118 0.317437618970870972
-0.181223556399345398 -0.136881619691848755 -0.0552405118942260742
-0.228246361017227173 -0.137813448905944824 -0.0531352870166301727
-0.204247459769248962 0.298276841640472412 0.127076193690299988
0.262568145990371704 -0.289728075265884399 0.323713868856430054
-0.362187713384628296 -0.0304062832146883011 0.119892425835132599
-0.500020146369934082 0.0195144116878509521 0.0322953276336193085
0.242835193872451782 -3.47177301591727883e-05 0.322400599718093872
0.141393542289733887 -0.290422767400741577 0.311824768781661987
0.30810779333114624 -0.207640528678894043 0.248247578740119934
-0.386083930730819702 0.254838109016418457 0.0347467362880706787
0.53117293119430542 -0.262373536825180054 0.102919511497020721
0.2240438312292099 0.0226128213107585907 0.305572390556335449
0.530671179294586182 -0.147448897361755371 -0.308175474405288696
-0.644821584224700928 0.231319472193717957 -0.0470631681382656097
0.541354894638061523 -0.31100192666053772 -0.0444278866052627563
0.507900536060333252 -0.267760396003723145 -0.31142762303352356
0.514387309551239014 -0.316099286079406738 -0.295028775930404663
0.458924055099487305 -0.29087558388710022 -0.296499371528625488
-0.543052434921264648 0.268117070198059082 -0.188912421464920044
-0.621388256549835205 0.288880705833435059 0.0670944973826408386
0.363513082265853882 -0.384196996688842773 -0.205984801054000854
-0.0924732312560081482 0.267139166593551636 0.189674749970436096
-0.448378622531890869 0.131403893232345581 -0.208372339606285095
-0.575395107269287109 0.203781023621559143 -0.126660332083702087
-0.630025386810302734 0.191695928573608398 -0.0394893959164619446
-0.46968504786491394 0.139045253396034241 -0.230676591396331787
0.257655203342437744 -0.0171363912522792816 -0.0718956813216209412
0.230504482984542847 0.0537807494401931763 -0.0449576899409294128
0.113028682768344879 0.109671719372272491 0.301832199096679688
-0.584051549434661865 0.218403011560440063 -0.221028655767440796
-0.598175704479217529 0.235203146934509277 -0.0103606078773736954
-0.366915285587310791 -0.0915340781211853027 0.123135730624198914
-0.329895913600921631 -0.125157058238983154 0.137564718723297119
-0.634556353092193604 0.199609085917472839 -0.0379060842096805573
-0.425594180822372437 -0.0547295697033405304 0.0995722785592079163
-0.477994829416275024 0.0202932003885507584 -0.0361479148268699646
0.208629801869392395 0.00849817972630262375 0.300953894853591919
-0.634144306182861328 0.248050466179847717 -0.00559065258130431175
-0.128032952547073364 0.269813209772109985 0.132565289735794067
0.271077841520309448 -0.330260246992111206 0.180168122053146362
0.533114492893218994 -0.210166364908218384 -0.0988356992602348328
-0.126392483711242676 -0.112487807869911194 -0.0544612295925617218
0.454226166009902954 -0.338830351829528809 -0.298016101121902466
-0.212551862001419067 0.0363554581999778748 -0.0593290850520133972
-0.553159713745117188 0.175803244113922119 0.0131992790848016739
-0.198498636484146118 0.139679551124572754 0.0214777123183012009
-0.0125245144590735435 -0.102403901517391205 -0.0426436662673950195
0.264747589826583862 -0.274896234273910522 0.202511817216873169
0.348704427480697632 -0.321070075035095215 5.33227066625840962e-05
-0.155916944146156311 0.069867350161075592 0.0278569217771291733
-0.249166801571846008 0.130876541137695312 -0.0340879745781421661
0.199089094996452332 0.00163948594126850367 0.0192657522857189178
0.0763251110911369324 0.0808635279536247253 0.0242024809122085571
-0.283424794673919678 0.288283288478851318 -0.00557000050321221352
0.477005928754806519 -0.289763808250427246 -0.301670163869857788
-0.556861519813537598 0.265748918056488037 -0.0168433766812086105
-0.237350493669509888 0.0977374687790870667 -0.032105322927236557
0.137854054570198059 -0.280746966600418091 0.150209829211235046
0.296379804611206055 -0.297342509031295776 0.0570157617330551147
-0.286022037267684937 0.257283806800842285 0.000906840432435274124
-0.0210712887346744537 -0.0402752123773097992 0.0892537906765937805
0.204458802938461304 0.0427169576287269592 0.0658701434731483459
-0.143683180212974548 -0.0850341469049453735 0.0919918715953826904
0.372505158185958862 -0.0734361708164215088 0.031647123396396637
0.521412551403045654 -0.199109137058258057 -0.0985204949975013733
0.487150043249130249 -0.297762632369995117 -0.305327087640762329
0.480477362871170044 -0.314845025539398193 0.122280523180961609
0.513660192489624023 -0.307166457176208496 -0.10241379588842392
0.496073871850967407 -0.309390902519226074 -0.3096962571144104
0.506214320659637451 -0.327810287475585938 -0.00414231698960065842
0.511786997318267822 -0.324543118476867676 0.118303194642066956
0.46593242883682251 -0.288664549589157104 -0.296521782875061035
0.438022702932357788 -0.263387113809585571 -0.194243937730789185
0.135022535920143127 0.116882495582103729 0.337192177772521973
0.396579951047897339 -0.244404524564743042 0.318726569414138794
-0.601630806922912598 0.354262351989746094 0.0659689158201217651
-0.505225479602813721 0.357161462306976318 0.17871113121509552
0.542684853076934814 -0.282527059316635132 0.0978567227721214294
0.256369531154632568 0.0368864871561527252 -0.0718979835510253906
-0.233181938529014587 0.15605008602142334 -0.00494773825630545616
0.506204843521118164 -0.331976532936096191 -0.0025655494537204504
0.444830268621444702 -0.249971047043800354 -0.227963745594024658
-0.639150798320770264 0.254523187875747681 0.0549778416752815247
0.532651901245117188 -0.262706100940704346 0.0931808352470397949
-0.393136918544769287 -0.0590532533824443817 0.100745275616645813
0.523962557315826416 -0.289638519287109375 -0.092115841805934906
0.0280049555003643036 -0.273980677127838135 -0.0350466109812259674
0.38514825701713562 -0.306035697460174561 0.118814378976821899
-0.582312285900115967 0.366793721914291382 0.132149785757064819
0.240116268396377563 0.00292333820834755898 0.181220725178718567
-0.113085560500621796 0.165484815835952759 0.347781211137771606
0.482223570346832275 -0.368332356214523315 -0.0220731161534786224
0.412254303693771362 -0.321096688508987427 -0.210972264409065247
0.507285535335540771 -0.155571103096008301 0.123967938125133514
0.528861880302429199 -0.334704130887985229 0.0127759110182523727
-0.584261894226074219 0.336419850587844849 0.0345484204590320587
-0.590886414051055908 0.381886273622512817 0.131709635257720947
0.526359200477600098 -0.244307383894920349 -0.310627162456512451
0.474475353956222534 -0.290684908628463745 -0.299422681331634521
-0.597347259521484375 0.353667169809341431 0.170103535056114197
-0.58748328685760498 0.371428132057189941 0.101562902331352234
-0.212066695094108582 -0.129335716366767883 -0.0573591999709606171
0.234340652823448181 -0.292993456125259399 0.315005064010620117
0.237935528159141541 0.0670894458889961243 0.320163190364837646
0.541911959648132324 -0.313837975263595581 -0.0581473112106323242
-0.444735467433929443 -0.0481981560587882996 0.127407088875770569
0.359552443027496338 -0.388271123170852661 -0.208926498889923096
-0.556676566600799561 0.211242541670799255 -0.113230414688587189
0.520870208740234375 -0.2795296311378479 -0.177119359374046326
0.241801083087921143 0.0347397848963737488 0.314635097980499268
0.242663726210594177 0.000470413302537053823 0.023811614140868187
0.380608618259429932 0.038841739296913147 0.0119898002594709396
0.526830077171325684 -0.230609238147735596 -0.310133367776870728
0.326908677816390991 0.0961977019906044006 -0.035776190459728241
-0.374260574579238892 -0.0600115843117237091 -0.132527872920036316
0.512915313243865967 -0.167571410536766052 0.135853812098503113
-0.574635505676269531 0.322026520967483521 0.0499151125550270081
-0.55910956859588623 0.28337666392326355 0.364509999752044678
0.224341899156570435 0.032000463455915451 -0.0580057613551616669
-0.57443767786026001 0.214723289012908936 -0.22066362202167511
-0.0444165542721748352 0.156648799777030945 0.0814977288246154785
0.11395709216594696 0.110116466879844666 0.0256839673966169357
0.342725515365600586 -0.246932640671730042 -0.0967857763171195984
-0.285209417343139648 0.300487279891967773 -0.0024601970799267292
0.15319158136844635 -0.00429965928196907043 -0.00335935945622622967
0.0689181312918663025 0.138900384306907654 0.0759024769067764282
-0.270198702812194824 0.280240684747695923 0.00205988273955881596
0.503403842449188232 -0.292577594518661499 -0.159352883696556091
0.136859908699989319 -0.0257144570350646973 0.0133277075365185738
-0.339095771312713623 -0.0317750908434391022 0.0231344755738973618
0.373320162296295166 -0.0918277129530906677 0.0443524718284606934
0.199795618653297424 0.101287566125392914 -0.00162223761435598135
-0.297341108322143555 -0.0248210225254297256 0.0362581722438335419
0.131669551134109497 -0.0177057255059480667 -0.0258615575730800629
0.101254619657993317 0.0161501467227935791 0.0914278924465179443
0.17554137110710144 0.119406640529632568 0.038226686418056488
-0.230575114488601685 -0.0634711533784866333 0.104936644434928894
0.486134082078933716 -0.296626091003417969 -0.303555995225906372
-0.603312969207763672 0.289498001337051392 0.185548976063728333
0.467193782329559326 -0.308723688125610352 0.120043478906154633
0.378176420927047729 -0.0144588854163885117 0.00647573359310626984
0.514408886432647705 -0.29530373215675354 -0.103505387902259827
0.518897593021392822 -0.239698305726051331 -0.307630985975265503
0.477966219186782837 -0.309689372777938843 -0.300306439399719238
0.48343735933303833 -0.274482756853103638 -0.29993736743927002
0.117074720561504364 0.11879219114780426 0.297776728868484497
-0.58433687686920166 0.35633009672164917 0.0661899298429489136
0.383702129125595093 -0.337313801050186157 0.125504046678543091
-0.574611842632293701 0.317700326442718506 -0.0261785686016082764
-0.60456317663192749 0.21719011664390564 -0.086532101035118103
0.267644375562667847 0.039281066507101059 -0.0860964655876159668
-0.356448948383331299 -0.021941550076007843 -0.130818426609039307
-0.564423918724060059 0.314331382513046265 -0.00753466272726655006
0.190617918968200684 -0.340698659420013428 -0.0746160745620727539
0.404180228710174561 -0.357572972774505615 -0.224023446440696716
-0.500301659107208252 0.145637005567550659 0.354952305555343628
0.509587526321411133 -0.151531100273132324 0.114942163228988647
0.496901899576187134 -0.263894379138946533 -0.304419904947280884
0.458012521266937256 -0.28084111213684082 -0.289763957262039185
0.440966755151748657 -0.264925897121429443 -0.28370290994644165
-0.58815312385559082 0.357434064149856567 0.0621032491326332092
0.505183815956115723 -0.126856744289398193 0.124365456402301788
-0.206348270177841187 0.312436521053314209 0.10906720906496048
0.268155395984649658 -0.284045487642288208 0.319170683622360229
0.232431560754776001 0.0035100721288472414 0.317931205034255981
0.513299345970153809 -0.175663620233535767 -0.281789034605026245
-0.115305185317993164 0.0100197587162256241 0.00619835266843438148
0.403912007808685303 -0.359601140022277832 -0.224646821618080139
0.417594164609909058 -0.313269466161727905 0.143739879131317139
-0.555626809597015381 0.376426935195922852 0.187172174453735352
-0.175766021013259888 0.309100210666656494 0.118744544684886932
-0.389861017465591431 0.276086658239364624 -0.0847021192312240601
0.365163534879684448 0.0517773665487766266 0.0247006602585315704
0.12904791533946991 0.1156788170337677 0.318994969129562378
-0.286509394645690918 -0.1003275066614151 -0.0917400941252708435
0.258018553256988525 0.100888445973396301 -0.0618640966713428497
-0.36127239465713501 -0.0595689229667186737 -0.143792808055877686
0.13400132954120636 0.113635070621967316 0.33793562650680542
-0.563203155994415283 0.199391931295394897 -0.228642359375953674
-0.276535302400588989 0.288008242845535278 -0.000569115800317376852
0.454925209283828735 -0.246422573924064636 -0.288296490907669067
0.460276544094085693 -0.275374025106430054 -0.290831387042999268
-0.63496696949005127 0.308117836713790894 0.170757889747619629
0.512526869773864746 -0.317472189664840698 -0.0386084280908107758
0.46898353099822998 -0.265774965286254883 -0.297960847616195679
0.478203117847442627 -0.294985592365264893 -0.300247818231582642
0.458183437585830688 -0.246206238865852356 -0.289869844913482666
0.381138741970062256 -0.360933303833007812 -0.213824361562728882
-0.479446172714233398 -0.0123927835375070572 0.186166182160377502
-0.51659703254699707 0.365729242563247681 0.174417212605476379
-0.618641555309295654 0.20208720862865448 -0.0867958143353462219
-0.237338632345199585 0.0189735051244497299 -0.0722253471612930298
-0.382601290941238403 -0.0588189177215099335 0.0240266229957342148
0.474896490573883057 -0.368331611156463623 0.0217914152890443802
-0.649366378784179688 0.236775845289230347 0.0326035022735595703
0.412608504295349121 -0.346675664186477661 -0.221624299883842468
0.52610313892364502 -0.337154179811477661 0.0800110176205635071
0.506088972091674805 -0.238998904824256897 -0.308085978031158447
0.249508410692214966 -0.282218813896179199 0.318237572908401489
0.239089801907539368 0.0665202513337135315 0.314707964658737183
0.539633393287658691 -0.301832616329193115 -0.0937014669179916382
-0.447892367839813232 -0.0412047877907752991 0.126842126250267029
-0.0439356192946434021 0.104483537375926971 0.31802290678024292
0.247860297560691833 0.0209828782826662064 0.322257816791534424
-0.284833520650863647 -0.0994616299867630005 -0.0987567901611328125
-0.137802645564079285 -0.0149580659344792366 -0.0485021844506263733
-0.277985274791717529 0.337853163480758667 0.0473295152187347412
-0.254816204309463501 0.289908945560455322 -0.00289729121141135693
-0.219010621309280396 0.321862280368804932 0.0701747387647628784
-0.573338925838470459 0.152349397540092468 -0.0741118118166923523
-0.290060967206954956 0.292717784643173218 0.0163769349455833435
0.525675177574157715 -0.320664465427398682 0.0271365176886320114
0.346049785614013672 -0.0305275190621614456 -0.034372083842754364
0.522290408611297607 -0.362909764051437378 0.0893444567918777466
-0.0833578482270240784 -0.111684113740921021 0.0787260457873344421
-0.404095947742462158 0.3260517418384552 0.121559157967567444
0.504806280136108398 -0.367059618234634399 -0.00451201014220714569
-0.118813224136829376 0.266066521406173706 0.121254555881023407
0.518770098686218262 -0.342952162027359009 0.0358069054782390594
0.130248159170150757 -0.334567636251449585 0.301296621561050415
0.466643929481506348 -0.311059266328811646 0.0724375396966934204
0.482898741960525513 -0.373991549015045166 0.0523015707731246948
0.421038299798965454 -0.0261131525039672852 0.0648997947573661804
0.49419701099395752 -0.363519012928009033 -0.0155533785000443459
-0.233063101768493652 0.28714674711227417 0.0844538882374763489
0.531276822090148926 -0.331754177808761597 -0.00726149650290608406
-0.272059649229049683 0.31538766622543335 0.114277057349681854
0.308152347803115845 0.00255536427721381187 0.0464038364589214325
0.467464596033096313 -0.263384371995925903 -0.296031147241592407
0.473840594291687012 -0.304346412420272827 0.114194333553314209
0.511231005191802979 -0.313627719879150391 -0.104401499032974243
0.509238958358764648 -0.245345070958137512 -0.30840650200843811
0.447987586259841919 -0.292468786239624023 -0.292711973190307617
0.466434508562088013 -0.283236205577850342 -0.29724496603012085
0.138233542442321777 0.112752422690391541 0.336873024702072144
-0.652215719223022461 0.285697370767593384 0.0984070152044296265
-0.638399839401245117 0.244861334562301636 -0.0378187522292137146
0.136220306158065796 0.0692498162388801575 0.337988138198852539
-0.577205657958984375 0.303829699754714966 -0.0551761351525783539
0.262419313192367554 0.0304632857441902161 -0.0733055174350738525
0.541987478733062744 -0.216779187321662903 0.111501455307006836
-0.36007535457611084 -0.0355732925236225128 -0.133997455239295959
-0.574853181838989258 0.327502906322479248 -0.0291865020990371704
-0.36177361011505127 -0.0707402229309082031 -0.0336739793419837952
-0.130558282136917114 -0.267407089471817017 0.119276143610477448
0.495167076587677002 -0.365815997123718262 -0.00039376315544359386
0.373826950788497925 -0.359330445528030396 -0.20998653769493103
-0.378384321928024292 -0.106701187789440155 0.101570300757884979
-0.0670875310897827148 -0.2639312744140625 0.296598553657531738
0.519922316074371338 -0.243299633264541626 -0.309430539608001709
0.509498894214630127 -0.330563247203826904 0.0152404317632317543
-0.593459010124206543 0.368964463472366333 0.120969630777835846
-0.655438661575317383 0.175737723708152771 -0.102639004588127136
-0.22300274670124054 -0.143962085247039795 -0.0534421205520629883
-0.191342636942863464 0.316612958908081055 0.101025737822055817
0.256613016128540039 -0.283513188362121582 0.319667398929595947
0.239066675305366516 0.0321712121367454529 0.319171726703643799
-0.120163574814796448 -0.0459800735116004944 0.00758300861343741417
-0.641654670238494873 0.308640599250793457 0.102258190512657166
0.364709526300430298 -0.373869985342025757 -0.2068987637758255
0.537774026393890381 -0.217812806367874146 0.161773011088371277
-0.552846550941467285 0.382443487644195557 0.158351331949234009
-0.12259577214717865 0.259288281202316284 0.115387938916683197
0.119313344359397888 0.102466605603694916 0.0896206945180892944
-0.375526934862136841 0.265934258699417114 -0.0892435163259506226
0.516918957233428955 -0.349065870046615601 0.098710283637046814
-0.293504685163497925 -0.106946766376495361 -0.109004192054271698
0.274934709072113037 0.102934934198856354 -0.0575131140649318695
-0.57517319917678833 0.219627350568771362 -0.212257459759712219
-0.115635007619857788 0.268557697534561157 0.18005700409412384
0.235964253544807434 -0.287980556488037109 0.314364761114120483
0.310091674327850342 -0.187376633286476135 0.241014480590820312
0.54181218147277832 -0.325839072465896606 -0.0209602639079093933
0.0789330527186393738 -0.337635010480880737 0.282275497913360596
-0.0064599793404340744 -0.171732097864151001 0.00449742237105965614
-0.282345801591873169 0.261783987283706665 0.00734453089535236359
0.513172805309295654 -0.237071424722671509 -0.309423267841339111
-0.64701545238494873 0.278274357318878174 0.079930819571018219
-0.646373867988586426 0.183246925473213196 -0.0904878824949264526
0.514134585857391357 -0.32252657413482666 0.0242473632097244263
-0.40694776177406311 -0.0634519234299659729 0.113788925111293793
0.51686561107635498 -0.355699032545089722 -0.020655335858464241
-0.566659688949584961 0.374316632747650146 0.152861431241035461
0.235819205641746521 0.0429839938879013062 0.313723534345626831
-0.664884865283966064 0.22717680037021637 0.0234862919896841049
-0.448101341724395752 -0.0383080914616584778 0.127351373434066772
0.503046214580535889 -0.302252382040023804 -0.178881004452705383
-0.589211225509643555 0.361033797264099121 0.086473807692527771
-0.194184184074401855 0.314887881278991699 0.10514175146818161
0.24684375524520874 0.0238861516118049622 0.323852598667144775
0.530961334705352783 -0.323798656463623047 -0.0581124238669872284
-0.182933315634727478 0.306987076997756958 0.128747597336769104
0.247093483805656433 0.00696421228349208832 0.323980569839477539
0.0585450343787670135 0.139644920825958252 0.345874637365341187
-0.505726873874664307 0.149434015154838562 0.357156574726104736
0.27067875862121582 -0.311259984970092773 0.326201736927032471
-0.253769487142562866 0.0237149465829133987 -0.0704375132918357849
0.241017013788223267 -0.295295596122741699 0.322462618350982666
0.248872548341751099 0.0437638163566589355 0.314446091651916504
0.468357592821121216 -0.102015204727649689 0.0346066392958164215
-0.124853640794754028 0.195128500461578369 0.115647688508033752
0.239913374185562134 -0.326605111360549927 0.317913532257080078
0.500268101692199707 -0.366599112749099731 0.0745962485671043396
0.523468077182769775 -0.324730396270751953 0.0261610895395278931
0.44462430477142334 -0.253365546464920044 0.332257121801376343
0.32146105170249939 -0.131444633007049561 -0.106574170291423798
0.0632658898830413818 -0.0107342991977930069 0.321800798177719116
0.511328220367431641 -0.360898017883300781 0.0474621616303920746
0.135592028498649597 -0.100636713206768036 0.040671423077583313
0.0494420677423477173 0.0116039393469691277 0.0299142245203256607
0.0206993706524372101 0.0482863374054431915 0.0427885726094245911
0.0880306437611579895 -0.0660379454493522644 0.289718478918075562
-0.162085503339767456 -0.265492737293243408 0.148152053356170654
0.264859318733215332 -0.0201855916529893875 0.0616200529038906097
-0.0289850886911153793 -0.0289889294654130936 0.295693844556808472
0.502239644527435303 -0.240315675735473633 -0.302004247903823853
0.476002782583236694 -0.314920812845230103 -0.301939219236373901
-0.63094782829284668 0.30626988410949707 0.167741745710372925
0.475484639406204224 -0.320858001708984375 0.120957396924495697
0.509140610694885254 -0.300857216119766235 -0.105561912059783936
0.528296291828155518 -0.274884879589080811 -0.317193061113357544
0.493620604276657104 -0.332386523485183716 -0.310696989297866821
0.503539919853210449 -0.320175796747207642 0.0979490131139755249
