ply
format ascii 1.0
element vertex 737
property float x
property float y
property float z
end_header
0.340902805328369141 -0.266236811876296997 0.00857148319482803345
0.468190193176269531 -0.316545218229293823 -0.302460938692092896
0.309936732053756714 -0.341387659311294556 0.13782075047492981
-0.0518648885190486908 0.111859448254108429 0.112741567194461823
0.474656075239181519 -0.125631868839263916 -0.0227517187595367432
0.384608328342437744 -0.0637787282466888428 -0.0668277665972709656
-0.447181165218353271 -0.00537932105362415314 -0.0221805311739444733
0.470193594694137573 -0.201383352279663086 0.0130606712773442268
0.438888758420944214 -0.25098884105682373 -0.210550889372825623
-0.404393494129180908 0.145552217960357666 -0.0549992695450782776
0.45653301477432251 -0.260829627513885498 -0.212056979537010193
-0.106136903166770935 0.0455361343920230865 0.270120441913604736
0.500909149646759033 -0.261550784111022949 0.0201607011258602142
0.323204129934310913 -0.203852936625480652 0.20626319944858551
0.447843313217163086 -0.345919251441955566 -0.229802370071411133
0.481961935758590698 -0.358437120914459229 -0.0715342238545417786
0.499981522560119629 -0.319494307041168213 -0.311517715454101562
-0.112903483211994171 0.145454183220863342 0.36748078465461731
-0.496423155069351196 0.13429705798625946 -0.0523224584758281708
-0.435030341148376465 -0.028843265026807785 0.166139513254165649
-0.630885779857635498 0.304949194192886353 0.182595968246459961
0.487418651580810547 -0.321422189474105835 0.124906115233898163
-0.251118868589401245 -0.0259164962917566299 0.0656207874417304993
0.389351636171340942 0.0471512190997600555 -0.0441082976758480072
0.514829695224761963 -0.309214323759078979 -0.103397175669670105
-0.375074774026870728 0.331098109483718872 0.143435060977935791
-0.365183174610137939 -0.00547622516751289368 -0.126415282487869263
-0.534260690212249756 0.285443097352981567 -0.00437326589599251747
-0.193930760025978088 -0.0188028570264577866 0.173077046871185303
0.357143104076385498 -0.282417476177215576 0.0416122674942016602
-0.214676946401596069 -0.0846151486039161682 0.0357369370758533478
0.0777812153100967407 -0.0504607111215591431 0.263711452484130859
0.464440613985061646 -0.308157682418823242 -0.219751358032226562
-0.573945462703704834 0.361829280853271484 0.267175137996673584
-0.573501527309417725 0.275025337934494019 0.236082583665847778
-0.551469624042510986 0.27112308144569397 -0.106913737952709198
0.531908273696899414 -0.201317325234413147 -0.0909404605627059937
0.471091240644454956 -0.306679427623748779 -0.0196347832679748535
-0.584570765495300293 0.26158374547958374 -0.042461790144443512
0.420462071895599365 -0.302195876836776733 0.0649467110633850098
-0.457775294780731201 0.117698304355144501 -0.232306033372879028
0.313607364892959595 0.0446048267185688019 0.026026485487818718
0.495271891355514526 -0.321158647537231445 -0.310256779193878174
0.342763006687164307 -0.185627028346061707 0.163129866123199463
0.44969862699508667 -0.358875423669815063 -0.0822887048125267029
-0.295140117406845093 0.214865639805793762 0.0124740861356258392
-0.46654355525970459 0.15596519410610199 -0.0451685972511768341
0.448702633380889893 -0.26473882794380188 -0.145167052745819092
0.512756705284118652 -0.329910725355148315 0.110916256904602051
0.477049559354782104 -0.30289691686630249 -0.303690612316131592
-0.382486522197723389 0.334296822547912598 0.162096560001373291
-0.559954285621643066 0.26426088809967041 0.364298164844512939
0.445473819971084595 -0.331452697515487671 -0.229599297046661377
-0.558433353900909424 0.333807647228240967 0.113016746938228607
0.437894284725189209 -0.249645546078681946 0.091273963451385498
-0.362869918346405029 0.247097834944725037 -0.0159108955413103104
0.442542225122451782 -0.23503229022026062 -0.22733701765537262
0.134106338024139404 0.121524259448051453 0.336941838264465332
0.28501051664352417 -0.0809343978762626648 0.190169155597686768
0.541067659854888916 -0.22072187066078186 0.111910529434680939
0.159547403454780579 0.0948129519820213318 0.1240081787109375
-0.048952639102935791 -0.0626076459884643555 0.0487518347799777985
-0.588925540447235107 0.271616101264953613 -0.00755808968096971512
-0.609967231750488281 0.237265333533287048 -0.0564172007143497467
-0.343185871839523315 0.167538926005363464 0.0328962206840515137
-0.581210315227508545 0.191382691264152527 0.0904563590884208679
-0.436145693063735962 0.0528669916093349457 -0.148926571011543274
-0.0908197388052940369 0.266876190900802612 0.17718920111656189
0.249287188053131104 0.104544401168823242 -0.0595127604901790619
0.111259736120700836 0.0962064787745475769 -0.0147720333188772202
0.386020660400390625 -0.264055192470550537 0.195964530110359192
-0.0154717732220888138 0.00382441142573952675 0.222471579909324646
-0.437667816877365112 -0.0132236871868371964 -0.032369907945394516
-0.1362580806016922 -0.0367762893438339233 0.0949790626764297485
0.0254099052399396896 0.143272683024406433 0.294297665357589722
-0.554776847362518311 0.151483312249183655 -0.113596461713314056
0.0427506677806377411 -0.057816632091999054 0.153489857912063599
-0.155823558568954468 -0.00169588311109691858 0.155951201915740967
0.0368487052619457245 0.139818578958511353 0.0897289067506790161
-0.462022185325622559 0.00825945660471916199 0.166507929563522339
-0.286850988864898682 -0.0533557124435901642 0.13518156111240387
0.207506865262985229 -0.152973413467407227 0.212379038333892822
0.0319079384207725525 0.118967160582542419 0.0908321291208267212
0.32115742564201355 -0.171641513705253601 0.010241788811981678
0.301061004400253296 -0.123741179704666138 -0.0418954752385616302
-0.377222925424575806 -0.00727326981723308563 -0.0303662903606891632
0.44817844033241272 -0.272356241941452026 0.0940318554639816284
0.317464590072631836 -0.117025978863239288 0.0132402330636978149
0.157508626580238342 -0.0908433571457862854 0.212473779916763306
-0.16248457133769989 0.147003829479217529 0.0701170936226844788
0.456143170595169067 -0.108246512711048126 -0.231777161359786987
-0.577538609504699707 0.244898498058319092 -0.120194971561431885
-0.571568310260772705 0.295192867517471313 -0.0643737390637397766
0.517827868461608887 -0.242051213979721069 -0.159113422036170959
-0.369764208793640137 0.0991239249706268311 -0.0743057727813720703
-0.613941848278045654 0.264136314392089844 0.0382754430174827576
0.342784523963928223 -0.328600317239761353 -0.106636978685855865
0.340278714895248413 -0.188973695039749146 0.160055384039878845
0.532133698463439941 -0.247091904282569885 0.0923620983958244324
0.143271908164024353 0.0790496170520782471 0.0918354392051696777
-0.572299480438232422 0.30553099513053894 -0.0516254715621471405
0.270998209714889526 0.00561883393675088882 0.0704740434885025024
-0.625166356563568115 0.193582609295845032 -0.0885739922523498535
-0.461315661668777466 0.292361974716186523 -0.0620607547461986542
-0.152756825089454651 0.180603340268135071 0.0905656293034553528
-0.549119949340820312 0.174607932567596436 -0.0443303138017654419
-0.543843746185302734 0.278240352869033813 0.171426638960838318
0.400893658399581909 -0.233532890677452087 -0.0239272937178611755
0.286448270082473755 -0.0621790774166584015 -0.0973944440484046936
0.221361443400382996 0.0404125414788722992 -0.070697292685508728
0.102990306913852692 -0.138075441122055054 0.210494890809059143
0.115047693252563477 0.0728988796472549438 0.316124141216278076
-0.370588690042495728 0.118903987109661102 0.236677497625350952
-0.0233428310602903366 -0.0570587813854217529 0.137159466743469238
0.221548497676849365 -0.235685959458351135 0.0971976444125175476
0.0753910094499588013 0.0652701333165168762 0.0337823405861854553
-0.383891791105270386 -0.0576108917593955994 0.103953443467617035
0.103912174701690674 0.0794925317168235779 0.125721842050552368
0.251849919557571411 0.0290215853601694107 -0.0663041472434997559
-0.372420370578765869 0.269923508167266846 0.113333694636821747
0.0321235805749893188 -0.0552009567618370056 0.301914602518081665
-0.0152503196150064468 0.138142630457878113 0.0917512103915214539
-0.501587331295013428 0.0960635989904403687 -0.128182336688041687
-0.345840632915496826 0.0128713259473443031 0.150349810719490051
0.526534080505371094 -0.0544056445360183716 -0.309793859720230103
-0.500204205513000488 0.13628251850605011 -0.241200357675552368
0.472782671451568604 -0.26873403787612915 0.112805314362049103
0.376768827438354492 -0.133660286664962769 -0.0483654513955116272
0.234508663415908813 0.0932453051209449768 -0.0408541187644004822
0.137117296457290649 0.0132545772939920425 0.284341633319854736
0.520517110824584961 -0.204306498169898987 -0.0887672603130340576
-0.536428093910217285 0.125172749161720276 -0.106087155640125275
-0.579330086708068848 0.293078035116195679 -0.00138000131119042635
0.482498019933700562 -0.324803084135055542 0.0997353419661521912
0.499255239963531494 -0.269305557012557983 0.0354861654341220856
0.492890417575836182 -0.329824537038803101 -0.0634366944432258606
-0.483519434928894043 0.1207166388630867 -0.045838136225938797
-0.591610252857208252 0.301883935928344727 0.17536240816116333
0.483278483152389526 -0.322688430547714233 0.134090512990951538
0.505668401718139648 -0.303257554769515991 -0.104429081082344055
-0.38122829794883728 0.317422270774841309 0.15844041109085083
-0.546421587467193604 0.334773331880569458 0.133961141109466553
0.460292518138885498 -0.259143590927124023 0.114537894725799561
0.533747375011444092 -0.207065150141716003 -0.0883977785706520081
0.513215601444244385 -0.231496110558509827 -0.305382907390594482
-0.554058432579040527 0.259959548711776733 -0.0211886223405599594
0.461192190647125244 -0.304339081048965454 0.108585670590400696
-0.451991111040115356 0.11307854950428009 -0.225247427821159363
0.486158162355422974 -0.313906937837600708 -0.304022282361984253
-0.559461116790771484 0.317971467971801758 0.354379892349243164
0.179162979125976562 -0.103859372437000275 -0.0165841225534677505
0.306061267852783203 0.0184176340699195862 -0.112205706536769867
0.506191074848175049 -0.337604284286499023 0.0244916193187236786
0.404535979032516479 0.0229243561625480652 0.00767819304019212723
0.475077569484710693 -0.287944108247756958 -0.30050814151763916
0.0104224113747477531 0.154457345604896545 0.0571096129715442657
0.5230255126953125 -0.300174564123153687 -0.0983617305755615234
-0.380888283252716064 0.334349662065505981 0.204709365963935852
-0.551027119159698486 0.337831765413284302 0.124396443367004395
0.418359875679016113 -0.25238347053527832 0.0975869372487068176
-0.580112874507904053 0.208653926849365234 -0.215196520090103149
0.278233140707015991 -0.0848921164870262146 0.190145894885063171
-0.129852041602134705 0.224872738122940063 0.126249432563781738
-0.382229834794998169 0.104423917829990387 -0.0635442286729812622
0.551346957683563232 -0.219887331128120422 0.113847710192203522
0.383501768112182617 -0.242215096950531006 0.313542872667312622
-0.552729010581970215 0.163515925407409668 0.0795871615409851074
-0.134523719549179077 0.201799869537353516 0.168170779943466187
0.242134898900985718 0.110230438411235809 -0.0494688116014003754
0.116387210786342621 0.040105082094669342 0.327907800674438477
-0.559131443500518799 0.278376221656799316 0.00224072486162185669
0.319739609956741333 -0.132507234811782837 -0.0802132561802864075
-0.574959397315979004 0.200681746006011963 -0.22614307701587677
0.207711696624755859 0.118254058063030243 0.0447639115154743195
0.463610976934432983 -0.307988584041595459 0.134369447827339172
-0.58529973030090332 0.32009473443031311 -0.025053810328245163
0.53031766414642334 -0.253200829029083252 0.0978059247136116028
-0.309763461351394653 0.0829278677701950073 -0.0724915489554405212
-0.449457645416259766 0.00887777283787727356 -0.140351563692092896
-0.301160514354705811 0.291121512651443481 0.146157607436180115
-0.526377677917480469 0.181981191039085388 -0.215448856353759766
-0.39158359169960022 -0.0582042597234249115 0.100632689893245697
-0.5452767014503479 0.263146460056304932 -0.164902463555335999
0.313544511795043945 -0.333803832530975342 0.197458386421203613
-0.0598405711352825165 0.0943290069699287415 0.321039766073226929
-0.101709529757499695 0.144132345914840698 0.0932867527008056641
0.499639511108398438 -0.362546652555465698 0.0759654417634010315
0.34880104660987854 -0.282574713230133057 -0.135409414768218994
-0.412286698818206787 0.198505640029907227 0.0362000614404678345
-0.345105499029159546 0.25210842490196228 -0.0136499004438519478
-0.26742178201675415 0.079359591007232666 -0.0148398727178573608
-0.180741742253303528 0.0190249551087617874 0.0394134894013404846
-0.553272485733032227 0.213018670678138733 -0.0475788526237010956
0.407650738954544067 -0.400557547807693481 -0.216039612889289856
0.517524480819702148 -0.284902423620223999 -0.100670091807842255
0.395110130310058594 -0.264140456914901733 -0.194103673100471497
0.497746676206588745 -0.27398914098739624 -0.301163047552108765
0.43439057469367981 -0.256971448659896851 -0.0022416277788579464
-0.154407083988189697 -0.243657618761062622 0.148750320076942444
-0.629992783069610596 0.19477476179599762 -0.0478816628456115723
-0.354862511157989502 0.00081500661326572299 -0.1513252854347229
-0.500974595546722412 0.146689742803573608 0.346108913421630859
-0.331561833620071411 0.300150156021118164 0.190904542803764343
-0.334494501352310181 -0.0311836507171392441 -0.132466048002243042
0.113018915057182312 0.0957728922367095947 0.0289589390158653259
0.469944477081298828 -0.134669899940490723 0.0990628451108932495
0.398843824863433838 -0.304621011018753052 0.144858643412590027
-0.457125365734100342 0.168042689561843872 0.116653487086296082
-0.536173164844512939 0.287699878215789795 0.0419550240039825439
-0.276203036308288574 -0.127195075154304504 0.0817963257431983948
-0.482894003391265869 0.249510437250137329 -0.103090167045593262
0.171050280332565308 -0.271644860506057739 0.036379396915435791
-0.344549506902694702 0.103897586464881897 0.00639182794839143753
-0.365889042615890503 0.283374041318893433 0.0868714526295661926
0.386412262916564941 -0.229674205183982849 -0.122109696269035339
-0.352968007326126099 0.00288674863986670971 0.0351552590727806091
-0.517909348011016846 0.20240214467048645 0.0490341149270534515
-0.384854763746261597 0.183285370469093323 0.0920302942395210266
-0.571639180183410645 0.328528642654418945 -0.011766461655497551
-0.338956207036972046 -0.0873140916228294373 -0.0540716126561164856
-0.136890366673469543 -0.268546760082244873 0.130273371934890747
0.274905174970626831 -0.165483236312866211 0.0547143667936325073
0.313020646572113037 -0.302249997854232788 -0.128662809729576111
-0.381134599447250366 0.250731170177459717 0.233307927846908569
0.310602277517318726 -0.216773003339767456 0.200967997312545776
0.496248632669448853 -0.254641145467758179 -0.105790711939334869
-0.118976563215255737 0.0730025619268417358 0.173490256071090698
0.51242673397064209 -0.361650705337524414 -0.0310288630425930023
-0.509011685848236084 0.269425183534622192 -0.00504293246194720268
-0.595029532909393311 0.244291529059410095 -0.00280302460305392742
-0.58615952730178833 0.25139385461807251 0.194229245185852051
-0.547607004642486572 0.121658198535442352 -0.134243816137313843
-0.244891151785850525 0.18318641185760498 0.356885612010955811
0.462338060140609741 -0.263913184404373169 -0.290717750787734985
0.45605623722076416 -0.25564807653427124 -0.187242656946182251
0.519325733184814453 -0.302521824836730957 0.0442137718200683594
-0.625525057315826416 0.200613588094711304 0.0448521450161933899
-0.255719453096389771 -0.00424324953928589821 -0.0622532851994037628
0.245389968156814575 0.0993373394012451172 -0.0693143680691719055
0.504863083362579346 -0.159669280052185059 0.130540773272514343
0.343043327331542969 -0.0697013735771179199 0.161768138408660889
0.399761021137237549 -0.236783698201179504 0.130070030689239502
-0.359534233808517456 -0.118359670042991638 0.116467341780662537
-0.478906989097595215 0.190017253160476685 0.063910067081451416
-0.57452702522277832 0.342361748218536377 0.0252241138368844986
-0.358904063701629639 -0.0629115402698516846 0.0908315554261207581
-0.342662930488586426 0.012041349895298481 -0.11446516215801239
0.302913963794708252 -0.295510321855545044 0.161884263157844543
-0.504517078399658203 0.221355989575386047 0.14186491072177887
-0.485042184591293335 0.0288238972425460815 -0.0469143502414226532
0.0331625938415527344 0.0883080810308456421 0.0876414775848388672
-0.231445267796516418 0.347604185342788696 0.148755624890327454
0.031878296285867691 0.0108606051653623581 0.0418818444013595581
-0.3656119704246521 -0.0363195277750492096 -0.0327838771045207977
-0.0481546372175216675 -0.23378010094165802 0.301720708608627319
0.185802355408668518 -0.292508929967880249 0.00351400184445083141
0.234613746404647827 -0.0112812705338001251 0.230014875531196594
-0.526335477828979492 0.14105716347694397 0.0679970011115074158
-0.520168185234069824 0.201800569891929626 -0.0674004778265953064
-0.552118122577667236 0.286093950271606445 0.107495598495006561
0.14372679591178894 0.00812479481101036072 0.307612001895904541
0.0678846091032028198 -0.28580823540687561 -0.0815941467881202698
-0.361892282962799072 0.0356674306094646454 -0.161207348108291626
0.307262003421783447 -0.293364673852920532 0.0293099135160446167
-0.339181452989578247 0.213840484619140625 0.159180045127868652
-0.188117608428001404 0.200480237603187561 0.367745280265808105
-0.53993988037109375 0.25524061918258667 -0.0841249004006385803
0.522523880004882812 -0.199446484446525574 -0.0930114015936851501
-0.518927037715911865 0.185728862881660461 0.136482298374176025
-0.543543398380279541 0.270360350608825684 -0.0024396225344389677
0.471005678176879883 -0.326040089130401611 0.0443110428750514984
0.288782060146331787 0.0312603823840618134 0.0534309372305870056
0.433151960372924805 -0.305886030197143555 -0.285387188196182251
-0.518500626087188721 0.0904101431369781494 -0.135082289576530457
-0.600478708744049072 0.28568229079246521 0.183976918458938599
0.467534154653549194 -0.320958703756332397 0.127106353640556335
0.467501670122146606 -0.260424613952636719 -0.293983489274978638
-0.403938531875610352 0.300944060087203979 0.142823368310928345
-0.454148352146148682 0.119836412370204926 -0.223915189504623413
0.48142319917678833 -0.311711609363555908 -0.302786767482757568
0.46808701753616333 -0.330523520708084106 -0.00329569331370294094
0.457152009010314941 -0.30514177680015564 -0.292723685503005981
0.524161577224731445 -0.261799812316894531 -0.102366939187049866
-0.408695429563522339 0.319047480821609497 0.162688687443733215
-0.560702025890350342 0.267926603555679321 0.365263938903808594
-0.576053082942962646 0.210914239287376404 -0.200784340500831604
0.447295576333999634 -0.296436607837677002 -0.223348945379257202
0.310300469398498535 -0.0760133564472198486 0.148539826273918152
0.534565269947052002 -0.248110249638557434 0.100850954651832581
-0.562488079071044922 0.120136760175228119 -0.233231917023658752
-0.408121019601821899 0.0770807713270187378 -0.116556748747825623
-0.579606115818023682 0.356737643480300903 0.082627423107624054
0.0413176268339157104 0.114836998283863068 0.312163382768630981
-0.4565773606300354 0.00929624494165182114 0.181655779480934143
0.409308969974517822 -0.343722164630889893 0.159662693738937378
-0.55464470386505127 0.288866937160491943 -0.0492334775626659393
0.543071091175079346 -0.255767613649368286 0.11329042911529541
0.0239068400114774704 -0.24942508339881897 0.204948976635932922
0.195413708686828613 0.130309566855430603 0.0345481261610984802
0.315369069576263428 -0.370296061038970947 -0.157264009118080139
0.11051052063703537 0.0598510205745697021 0.318842917680740356
-0.314868301153182983 0.306843489408493042 0.284132570028305054
-0.254469156265258789 -0.132312819361686707 -0.0732175484299659729
-0.386474251747131348 -0.0597867332398891449 0.106410376727581024
0.453050881624221802 -0.072551533579826355 -0.116839282214641571
0.315719157457351685 -0.332837492227554321 0.195587694644927979
0.297630220651626587 0.0384026467800140381 0.04972849041223526
0.475785344839096069 -0.330775231122970581 0.136081680655479431
0.439691603183746338 -0.267327994108200073 -0.282588273286819458
0.461334735155105591 -0.272872596979141235 0.1376304030418396
0.5039711594581604 -0.346208542585372925 0.0171147789806127548
0.518891572952270508 -0.26938822865486145 -0.0874958708882331848
0.498603969812393188 -0.0879004821181297302 0.161413416266441345
0.542222380638122559 -0.215082630515098572 0.110464513301849365
-0.577032208442687988 0.327256441116333008 0.0804336443543434143
0.246531307697296143 0.111581392586231232 -0.05476422980427742
0.0335033535957336426 0.0687045156955718994 0.272350728511810303
-0.562004029750823975 0.2756328284740448 0.0239433534443378448
-0.613923609256744385 0.272402107715606689 0.0385444797575473785
0.535581052303314209 -0.239057257771492004 0.102504357695579529
-0.576005339622497559 0.213085874915122986 -0.1167149618268013
-0.425011992454528809 0.0310602094978094101 -0.188542276620864868
0.304368883371353149 -0.126193404197692871 -0.108662523329257965
-0.385089486837387085 -0.0553020387887954712 0.100649774074554443
-0.603225886821746826 0.259939759969711304 0.0174423810094594955
-0.460670381784439087 0.306723624467849731 0.0812109857797622681
0.504837572574615479 -0.263756006956100464 -0.109610326588153839
0.534574806690216064 -0.192175164818763733 0.0282976012676954269
-0.616158902645111084 0.210855379700660706 -0.0561283975839614868
0.452493876218795776 -0.123404473066329956 0.0889757350087165833
0.0335360877215862274 -0.279136121273040771 -0.0359530113637447357
0.401879161596298218 -0.31857001781463623 0.13062053918838501
-0.0939182192087173462 0.0743942931294441223 0.293111890554428101
0.243101984262466431 -0.136505171656608582 0.0108225299045443535
0.16125623881816864 -0.271193236112594604 0.0436857789754867554
-0.590547084808349609 0.369523942470550537 0.0902293622493743896
0.0269629508256912231 -0.011372116394340992 0.0277526602149009705
0.195656076073646545 0.0343000143766403198 0.177880838513374329
-0.306133419275283813 -0.0909813195466995239 0.305474340915679932
0.493646413087844849 -0.366626888513565063 0.0195008926093578339
0.521555721759796143 -0.311194628477096558 0.0457017719745635986
0.502574563026428223 -0.153294697403907776 0.118590503931045532
0.0807600915431976318 -0.271686851978302002 -0.0596933178603649139
-0.325408488512039185 -0.102815449237823486 0.0883968397974967957
-0.586158871650695801 0.335190474987030029 0.0185872223228216171
-0.073920324444770813 -0.235331177711486816 0.301597654819488525
0.194239944219589233 -0.339562892913818359 -0.0625460371375083923
-0.398856639862060547 0.27247205376625061 -0.0546204112470149994
-0.521689116954803467 0.0445121414959430695 -0.0577176250517368317
-0.257820039987564087 0.142634198069572449 0.0912566706538200378
-0.213543742895126343 -0.13534882664680481 -0.0633078441023826599
0.508447825908660889 -0.104469113051891327 0.143901214003562927
0.214026764035224915 -0.279335469007492065 -0.0095175793394446373
0.238006711006164551 -0.0757754221558570862 0.126598328351974487
-0.140466839075088501 0.296932786703109741 0.147750347852706909
-0.655939817428588867 0.171825781464576721 -0.112471252679824829
0.253204584121704102 -0.00916101224720478058 0.249670729041099548
0.250124067068099976 -0.178513705730438232 0.302477627992630005
-0.263044029474258423 -0.136601388454437256 -0.067696399986743927
-0.200827106833457947 0.314760833978652954 0.0989082977175712585
0.257644087076187134 -0.277701497077941895 0.322829246520996094
0.1787213534116745 -0.0537492968142032623 -0.0512549988925457001
-0.443245887756347656 -0.0662526041269302368 0.129094243049621582
-0.503732025623321533 0.030462801456451416 0.247188836336135864
-0.496976405382156372 0.0368968509137630463 -0.0116654857993125916
0.232529059052467346 0.0231368690729141235 0.313785851001739502
-0.371355026960372925 -0.0453468859195709229 0.143366158008575439
-0.348900198936462402 0.106975346803665161 0.0659649968147277832
0.307457238435745239 -0.198500677943229675 0.242647930979728699
0.30825534462928772 -0.0052399742417037487 0.219251185655593872
-0.442748814821243286 0.266987919807434082 -0.0372591167688369751
0.517048418521881104 -0.326321542263031006 -0.0816310867667198181
-0.538709163665771484 0.138830408453941345 -0.0971617549657821655
0.465674430131912231 -0.124192170798778534 0.00160910584963858128
-0.385320544242858887 0.255751162767410278 0.0327623635530471802
0.493840843439102173 -0.301664888858795166 0.120789043605327606
0.465212404727935791 -0.105937711894512177 0.0592031627893447876
0.203604966402053833 0.0155061483383178711 -0.0425038672983646393
-0.224579215049743652 0.296144813299179077 0.158653169870376587
-0.125146150588989258 -0.048583686351776123 0.010824243538081646
-0.231718495488166809 0.228789225220680237 0.348134279251098633
-0.380742371082305908 -0.0539063252508640289 0.145482510328292847
0.341076791286468506 -0.0734923854470252991 0.047358490526676178
-0.435874074697494507 -0.0118294581770896912 0.0340712293982505798
0.20525069534778595 0.0169307254254817963 0.0701361820101737976
0.0561362467706203461 -0.0855899080634117126 0.239169210195541382
-0.383827537298202515 -0.0590970851480960846 0.116590000689029694
-0.136764675378799438 -0.264384418725967407 -0.00121967121958732605
-0.243744581937789917 0.0639824271202087402 0.244820147752761841
-0.542036116123199463 0.21123059093952179 0.162777915596961975
-0.590642392635345459 0.287512511014938354 -0.00724706007167696953
0.306823372840881348 0.0179054420441389084 0.0425538718700408936
0.478417903184890747 -0.314532309770584106 -0.305662959814071655
0.503693044185638428 -0.345273315906524658 -0.0640361383557319641
0.471573948860168457 -0.304877191781997681 0.114808410406112671
0.527067840099334717 -0.302648752927780151 -0.10963013768196106
-0.402816802263259888 0.3118857741355896 0.134726852178573608
0.51786649227142334 -0.251044809818267822 -0.307668596506118774
0.507540047168731689 -0.328816920518875122 -0.315019786357879639
0.518768429756164551 -0.331090062856674194 0.0913517773151397705
0.47730371356010437 -0.304004281759262085 -0.303304105997085571
0.527526319026947021 -0.285391569137573242 -0.10824943333864212
-0.55981820821762085 0.267542779445648193 0.365650057792663574
-0.640046060085296631 0.289904952049255371 0.0852197632193565369
0.371314972639083862 -0.400872886180877686 -0.217733845114707947
-0.4496593177318573 -0.000620003324002027512 0.175141453742980957
0.176320537924766541 0.0732759162783622742 0.00639938795939087868
-0.4534454345703125 0.135064885020256042 -0.213619276881217957
0.403029948472976685 -0.335571974515914917 0.128764808177947998
-0.598792374134063721 0.207734748721122742 0.0008546598837710917
0.247455567121505737 -0.114218443632125854 -0.0710398778319358826
-0.483043909072875977 0.183101385831832886 -0.210023462772369385
-0.375999689102172852 -0.0626458227634429932 0.091719992458820343
0.522879123687744141 -0.320691972970962524 0.0356361083686351776
0.542364895343780518 -0.217148482799530029 0.107991725206375122
0.525690436363220215 -0.273268729448318481 0.0550633110105991364
0.111110851168632507 0.0844077393412590027 0.317133873701095581
-0.350769668817520142 -0.0474566780030727386 0.0450175926089286804
0.105025269091129303 0.0725554376840591431 0.29537510871887207
-0.165268674492835999 0.13342931866645813 0.151314496994018555
0.502738595008850098 -0.256230175495147705 -0.102728985249996185
0.428866207599639893 -0.303574860095977783 0.135724350810050964
-0.355582177639007568 -0.100959010422229767 0.159078419208526611
0.498592466115951538 -0.201374217867851257 -0.108208633959293365
-0.578309535980224609 0.34841039776802063 0.152198225259780884
0.104973927140235901 -0.0111740101128816605 0.021009715273976326
-0.341074466705322266 -0.122898116707801819 0.104618988931179047
-0.120650440454483032 -0.275142014026641846 0.17406444251537323
-0.161104872822761536 0.167684063315391541 0.325165480375289917
0.514986097812652588 -0.358317315578460693 0.0265745744109153748
0.521033406257629395 -0.287316501140594482 -0.0119211860001087189
0.478827625513076782 -0.139721021056175232 0.107363924384117126
-0.180787831544876099 0.0297120455652475357 0.0258862487971782684
-0.341790229082107544 -0.121119901537895203 0.103762000799179077
-0.60000687837600708 0.377108544111251831 0.188461363315582275
-0.1196446493268013 -0.266257613897323608 0.218322455883026123
0.523443937301635742 -0.308562338352203369 -0.0750225856900215149
0.516312003135681152 -0.251858532428741455 -0.309791862964630127
0.454952210187911987 -0.307949930429458618 -0.294711381196975708
0.240517139434814453 -0.0956571996212005615 0.158471956849098206
-0.620012104511260986 0.27258831262588501 0.0372350290417671204
-0.429743260145187378 -0.00335817900486290455 0.177376419305801392
-0.250254154205322266 -0.136376053094863892 -0.0710805729031562805
0.317247509956359863 -0.318646222352981567 0.122387848794460297
0.539294779300689697 -0.249459311366081238 0.106385365128517151
0.45267099142074585 -0.139519482851028442 0.0151684395968914032
0.429303139448165894 -0.320721089839935303 0.123514175415039062
0.413258939981460571 -0.330513626337051392 -0.210019156336784363
0.473763257265090942 -0.128298953175544739 0.10924655944108963
-0.54876333475112915 0.378919690847396851 0.172672584652900696
0.190493181347846985 -0.339406013488769531 -0.0134283034130930901
-0.201561614871025085 -0.13490884006023407 -0.0684333890676498413
-0.185470983386039734 0.31247672438621521 0.11789683997631073
0.103259190917015076 0.108094945549964905 0.174338310956954956
-0.444094330072402954 -0.0538251958787441254 0.0919045358896255493
-0.489130496978759766 0.0305320005863904953 0.0169172883033752441
0.231302455067634583 0.0113420989364385605 0.314866036176681519
-0.024705132469534874 0.113578997552394867 0.312432914972305298
0.243159741163253784 -0.0383001081645488739 0.204492032527923584
-0.384668290615081787 0.245768904685974121 0.0343527160584926605
-0.653829514980316162 0.217105448246002197 -0.0391667671501636505
0.482955008745193481 -0.115973949432373047 0.0231759492307901382
0.122112877666950226 0.079880349338054657 0.13843892514705658
-0.381700456142425537 -0.0720770657062530518 0.0956686362624168396
0.319608241319656372 -0.0720481052994728088 0.0621966049075126648
-0.440411895513534546 -0.0111569864675402641 0.00691985059529542923
-0.50195765495300293 0.234106108546257019 -0.0710257738828659058
-0.547008693218231201 0.203854933381080627 -0.0684279575943946838
0.0885187461972236633 0.0920754373073577881 0.0799238458275794983
-0.519646584987640381 0.204969748854637146 -0.047083534300327301
-0.168144345283508301 0.0728525295853614807 0.232519418001174927
-0.0572586208581924438 -0.186333596706390381 0.0268062930554151535
-0.21240215003490448 0.291182786226272583 0.109152287244796753
0.249551728367805481 -0.00507984822615981102 0.0221640877425670624
-0.555569767951965332 0.204759314656257629 0.118431679904460907
-0.457113474607467651 0.216871216893196106 0.0246055684983730316
-0.46240660548210144 0.266902714967727661 -0.00264786486513912678
-0.57519906759262085 0.247978493571281433 -0.0763507485389709473
-0.389151424169540405 0.27556920051574707 -0.0840434134006500244
0.343719899654388428 -0.134365737438201904 0.318646252155303955
-0.498375415802001953 0.207262143492698669 -0.0115327546373009682
-0.345806807279586792 0.293265998363494873 -0.0500660575926303864
0.525988638401031494 -0.360743254423141479 0.0414774641394615173
-0.539735019207000732 0.215520903468132019 0.201147794723510742
-0.569067537784576416 0.294737428426742554 -0.00305889174342155457
0.316498041152954102 0.0240264683961868286 0.0485334917902946472
0.48203924298286438 -0.306679308414459229 -0.303973078727722168
0.47968214750289917 -0.325990855693817139 0.125091686844825745
0.523214399814605713 -0.306699693202972412 -0.0990164130926132202
0.490394115447998047 -0.310447841882705688 -0.307733476161956787
0.51621246337890625 -0.324720382690429688 0.119547091424465179
0.444555014371871948 -0.299868255853652954 -0.290948390960693359
0.523231327533721924 -0.304251044988632202 -0.097679533064365387
0.134188652038574219 0.116704404354095459 0.336965203285217285
-0.642175137996673584 0.242957994341850281 -0.00935665145516395569
-0.292428731918334961 -0.113354973495006561 -0.105649016797542572
0.539233624935150146 -0.255196303129196167 0.0918836668133735657
0.129049375653266907 0.0979233533143997192 0.317243099212646484
-0.235061571002006531 -0.143017634749412537 -0.071315281093120575
0.252363353967666626 0.0303855147212743759 -0.0861452445387840271
0.53097003698348999 -0.322837650775909424 0.00652175210416316986
-0.599149584770202637 0.30768883228302002 0.104579821228981018
0.532086670398712158 -0.244371667504310608 0.0862350538372993469
-0.373886376619338989 -0.0603430531919002533 0.0923796370625495911
0.526581108570098877 -0.275019824504852295 -0.12356354296207428
-0.500966846942901611 0.149120837450027466 0.353116303682327271
0.385112762451171875 -0.297311782836914062 0.131585121154785156
0.132726475596427917 -0.331545799970626831 -0.10054682195186615
0.522770166397094727 -0.354554891586303711 -0.0152388885617256165
-0.436276495456695557 0.150959238409996033 -0.0849327147006988525
0.515759468078613281 -0.299806952476501465 0.0644013583660125732
0.393079459667205811 -0.367545217275619507 -0.213961228728294373
0.500497400760650635 -0.171193495392799377 0.129726499319076538
0.533238410949707031 -0.333703756332397461 0.0280825775116682053
-0.579715728759765625 0.349199056625366211 0.0403860695660114288
0.519993484020233154 -0.24061901867389679 -0.309037536382675171
-0.600819408893585205 0.370958268642425537 0.104751020669937134
-0.500468194484710693 0.147492453455924988 0.355320930480957031
0.233922213315963745 -0.277471840381622314 0.317237943410873413
-0.181216984987258911 -0.13653680682182312 -0.0555986464023590088
-0.228228092193603516 -0.137480869889259338 -0.0534848310053348541
-0.20421186089515686 0.298781275749206543 0.126735031604766846
0.262476027011871338 -0.289291530847549438 0.323514997959136963
-0.36211887001991272 -0.0300543643534183502 0.11959771066904068
-0.499907046556472778 0.0198710076510906219 0.0319549925625324249
0.242785617709159851 0.000416683818912133574 0.32210192084312439
0.141316697001457214 -0.289997875690460205 0.311635822057723999
0.308035492897033691 -0.207212984561920166 0.247987419366836548
-0.385978907346725464 0.255291074514389038 0.0344070941209793091
0.531102418899536133 -0.261983156204223633 0.102613575756549835
0.223998770117759705 0.0230641867965459824 0.305267244577407837
0.530597567558288574 -0.147097557783126831 -0.308582872152328491
-0.64468228816986084 0.231748417019844055 -0.047399323433637619
0.541284143924713135 -0.310640096664428711 -0.0447602793574333191
0.507829666137695312 -0.267434656620025635 -0.311812847852706909
0.514317095279693604 -0.315779209136962891 -0.295399516820907593
0.458854198455810547 -0.290550917387008667 -0.296888977289199829
-0.542910516262054443 0.268549501895904541 -0.189252749085426331
-0.621253073215484619 0.28933146595954895 0.0667533352971076965
0.363442480564117432 -0.383865654468536377 -0.206363081932067871
-0.092472568154335022 0.267648369073867798 0.189324408769607544
-0.448261260986328125 0.131782293319702148 -0.208724915981292725
-0.575253188610076904 0.204201400279998779 -0.127001240849494934
-0.629888296127319336 0.192115157842636108 -0.0398271344602108002
-0.469560891389846802 0.139420747756958008 -0.231027781963348389
0.257593095302581787 -0.0166976265609264374 -0.0723395198583602905
0.230444923043251038 0.0542412586510181427 -0.0453996695578098297
0.113005898892879486 0.110133975744247437 0.301516622304916382
-0.583907604217529297 0.218812465667724609 -0.221366360783576965
-0.598034799098968506 0.235637784004211426 -0.0107020577415823936
-0.366851925849914551 -0.0912020951509475708 0.122849978506565094
-0.329851269721984863 -0.124819472432136536 0.137293025851249695
-0.634419083595275879 0.200030580163002014 -0.0382434651255607605
-0.425510883331298828 -0.0543924011290073395 0.0992638468742370605
-0.477881342172622681 0.02064494788646698 -0.0364994816482067108
0.208585500717163086 0.00894586369395256042 0.300655841827392578
-0.634004771709442139 0.248486235737800598 -0.0059285089373588562
-0.128021880984306335 0.270319640636444092 0.132207974791526794
0.271010875701904297 -0.32986113429069519 0.17990894615650177
0.533044815063476562 -0.209793299436569214 -0.0992007777094841003
-0.126391217112541199 -0.112124025821685791 -0.0548336133360862732
0.454154998064041138 -0.338511675596237183 -0.298398524522781372
-0.2125110924243927 0.0367560051381587982 -0.0596934296190738678
-0.553022623062133789 0.176223158836364746 0.012855013832449913
-0.198459923267364502 0.140131041407585144 0.0211192555725574493
-0.0125373890623450279 -0.102017037570476532 -0.0430340580642223358
0.264681547880172729 -0.274488151073455811 0.202255845069885254
0.348637312650680542 -0.3206939697265625 -0.000300499668810516596
-0.155891165137290955 0.0702964738011360168 0.0274949986487627029
-0.249110355973243713 0.131312638521194458 -0.0344447903335094452
0.199043557047843933 0.00207619788125157356 0.0188515689224004745
0.0762988999485969543 0.0813200473785400391 0.0237967148423194885
-0.283346503973007202 0.288779705762863159 -0.00592248421162366867
0.476936995983123779 -0.289441436529159546 -0.302055627107620239
-0.556715607643127441 0.266194790601730347 -0.0171896815299987793
-0.237298905849456787 0.0981618836522102356 -0.0324640721082687378
0.137811169028282166 -0.280355632305145264 0.149937495589256287
0.296318233013153076 -0.296958267688751221 0.0566845797002315521
-0.285949796438217163 0.257760405540466309 0.000559024978429079056
-0.021075887605547905 -0.0398662164807319641 0.0889052450656890869
0.204412847757339478 0.0431620478630065918 0.065474286675453186
-0.14367125928401947 -0.0846510827541351318 0.0916702300310134888
0.372438341379165649 -0.0730146393179893494 0.0312422104179859161
0.521341860294342041 -0.198732122778892517 -0.0988935977220535278
0.487080276012420654 -0.297441214323043823 -0.305709719657897949
0.480404853820800781 -0.314455121755599976 0.121984794735908508
0.513589620590209961 -0.306810259819030762 -0.102764353156089783
0.496003627777099609 -0.309071600437164307 -0.31007540225982666
0.506143808364868164 -0.327442407608032227 -0.00447516888380050659
0.511712491512298584 -0.324156194925308228 0.118011325597763062
0.465863734483718872 -0.288341164588928223 -0.296909183263778687
0.437952309846878052 -0.263034909963607788 -0.194633603096008301
0.134995847940444946 0.117351323366165161 0.33688044548034668
0.396487414836883545 -0.243956804275512695 0.318485349416732788
-0.601488590240478516 0.354729056358337402 0.0656295046210289001
-0.505100011825561523 0.357636690139770508 0.178383693099021912
0.542613089084625244 -0.282142668962478638 0.0975560322403907776
0.256304800510406494 0.0373431593179702759 -0.0723482817411422729
-0.23313082754611969 0.156501084566116333 -0.00530325667932629585
0.506134152412414551 -0.331609010696411133 -0.00289730611257255077
0.444758564233779907 -0.249622642993927002 -0.228359490633010864
-0.63901817798614502 0.25496363639831543 0.054638788104057312
0.532581865787506104 -0.2623177170753479 0.0928720682859420776
-0.393061131238937378 -0.0587170422077178955 0.100442767143249512
0.523891866207122803 -0.289278507232666016 -0.0924643650650978088
0.027971336618065834 -0.273619323968887329 -0.0354134812951087952
0.385078281164169312 -0.305645525455474854 0.11850941926240921
-0.58217698335647583 0.367267847061157227 0.131811574101448059
0.240072339773178101 0.00335528934374451637 0.180878117680549622
-0.113090083003044128 0.165981829166412354 0.3474864661693573
0.482151985168457031 -0.36797022819519043 -0.0224127937108278275
0.412183821201324463 -0.320757299661636353 -0.21135576069355011
0.507220447063446045 -0.155158847570419312 0.123637452721595764
0.528790414333343506 -0.334336847066879272 0.012455143965780735
-0.584116041660308838 0.336881756782531738 0.0342078171670436859
-0.590750575065612793 0.382363647222518921 0.131372451782226562
0.526288211345672607 -0.243978053331375122 -0.311012506484985352
0.474406838417053223 -0.290362775325775146 -0.299807906150817871
-0.597218632698059082 0.35414084792137146 0.169768437743186951
-0.587340414524078369 0.37190130352973938 0.101218819618225098
-0.21205119788646698 -0.128997147083282471 -0.0577132292091846466
0.234252944588661194 -0.292561054229736328 0.31480833888053894
0.237892180681228638 0.0675503462553024292 0.319846808910369873
0.541840732097625732 -0.313478469848632812 -0.0584809370338916779
-0.444650709629058838 -0.0478548444807529449 0.127105399966239929
0.359481513500213623 -0.387940198183059692 -0.209304898977279663
-0.556534469127655029 0.211667627096176147 -0.113573186099529266
0.520800471305847168 -0.27918320894241333 -0.177480399608612061
0.241754695773124695 0.0351951867341995239 0.314324945211410522
0.242609903216362 0.00090837973402813077 0.0233978033065795898
0.38053441047668457 0.0392962098121643066 0.0115558747202157974
0.526758790016174316 -0.230277299880981445 -0.310521990060806274
0.326830059289932251 0.0966753512620925903 -0.0362294428050518036
-0.374185860157012939 -0.0596989616751670837 -0.132886409759521484
0.512849330902099609 -0.167159244418144226 0.135531947016716003
-0.574493110179901123 0.322486460208892822 0.0495725274085998535
-0.559000492095947266 0.283848881721496582 0.364189386367797852
0.224284499883651733 0.0324538201093673706 -0.0584480613470077515
-0.574294209480285645 0.215131878852844238 -0.221001997590065002
-0.0444220975041389465 0.157123848795890808 0.0811192989349365234
0.11392085999250412 0.110585585236549377 0.0252714548259973526
0.342657029628753662 -0.246554955840110779 -0.0971795246005058289
-0.285135090351104736 0.300978690385818481 -0.00280958786606788635
0.153153955936431885 -0.00386582524515688419 -0.00377174443565309048
0.0688913241028785706 0.139372169971466064 0.0755126252770423889
-0.270130157470703125 0.280731499195098877 0.0017081808764487505
0.503334343433380127 -0.292228847742080688 -0.159714862704277039
0.136827185750007629 -0.0252889115363359451 0.0129285091534256935
-0.339025527238845825 -0.0314280986785888672 0.0228014029562473297
0.37325441837310791 -0.0914102122187614441 0.0439568944275379181
0.199737384915351868 0.101765722036361694 -0.00206560618244111538
-0.297281563282012939 -0.024462549015879631 0.0359288863837718964
0.131635680794715881 -0.0172767937183380127 -0.0262758750468492508
0.101233161985874176 0.0165785867720842361 0.0910557657480239868
0.175492227077484131 0.119880080223083496 0.0378121696412563324
-0.230542942881584167 -0.0631008148193359375 0.104632087051868439
0.486064493656158447 -0.296304434537887573 -0.303938686847686768
-0.603191971778869629 0.289958655834197998 0.185213983058929443
0.467122405767440796 -0.308333367109298706 0.119744420051574707
0.378104537725448608 -0.0140253482386469841 0.00603956170380115509
0.51433861255645752 -0.294945716857910156 -0.103858165442943573
0.518826127052307129 -0.239367082715034485 -0.308019459247589111
0.477896302938461304 -0.309368520975112915 -0.300688385963439941
0.483367592096328735 -0.274156898260116577 -0.300324946641921997
0.117050975561141968 0.11925661563873291 0.297458231449127197
-0.58419334888458252 0.356797933578491211 0.0658490806818008423
0.383630812168121338 -0.336924552917480469 0.125208169221878052
-0.574462413787841797 0.318156450986862183 -0.0265198107808828354
-0.604421079158782959 0.217616260051727295 -0.0868711993098258972
0.267576634883880615 0.0397393293678760529 -0.0865518972277641296
-0.356373369693756104 -0.0216092150658369064 -0.131178244948387146
-0.564274311065673828 0.314788669347763062 -0.00787846744060516357
0.190565943717956543 -0.340337932109832764 -0.0749791935086250305
0.404109090566635132 -0.357241660356521606 -0.224402934312820435
-0.500216841697692871 0.146077021956443787 0.354664772748947144
0.509522736072540283 -0.151119634509086609 0.114607781171798706
0.496830910444259644 -0.263566464185714722 -0.304808050394058228
0.457942843437194824 -0.280513793230056763 -0.290154874324798584
0.440894544124603271 -0.264591366052627563 -0.284102588891983032
-0.588009178638458252 0.35790175199508667 0.0617630556225776672
0.505119740962982178 -0.126439809799194336 0.124025866389274597
-0.206311210989952087 0.312944471836090088 0.108721889555454254
0.268063724040985107 -0.283608764410018921 0.318968862295150757
0.232383608818054199 0.00396083714440464973 0.317632585763931274
0.513225436210632324 -0.175313442945480347 -0.28219228982925415
-0.115288712084293365 0.0104282116517424583 0.00582688674330711365
0.403840780258178711 -0.359270274639129639 -0.225026100873947144
0.417521268129348755 -0.312873303890228271 0.143448397517204285
-0.555489540100097656 0.376908093690872192 0.186835899949073792
-0.175739943981170654 0.309612900018692017 0.11839371919631958
-0.389747381210327148 0.276540994644165039 -0.0850442275404930115
0.365090221166610718 0.0522359833121299744 0.0242689996957778931
0.129021897912025452 0.116145335137844086 0.318680524826049805
-0.286465764045715332 -0.100019007921218872 -0.0921040624380111694
0.257948338985443115 0.10136818140745163 -0.0623184852302074432
-0.361201763153076172 -0.0592561550438404083 -0.144151508808135986
0.133974656462669373 0.114103317260742188 0.337624728679656982
-0.563060402870178223 0.199793487787246704 -0.228981897234916687
-0.276460528373718262 0.288505107164382935 -0.000921820872463285923
0.454852163791656494 -0.246085494756698608 -0.288698673248291016
0.460206568241119385 -0.275045812129974365 -0.291223347187042236
-0.634845256805419922 0.308580100536346436 0.170422479510307312
0.512456417083740234 -0.317108005285263062 -0.0389480516314506531
0.468912571668624878 -0.26544564962387085 -0.298354685306549072
0.478134185075759888 -0.294663786888122559 -0.30063176155090332
0.458110421895980835 -0.245869621634483337 -0.290271490812301636
0.381068199872970581 -0.360600441694259644 -0.214205265045166016
-0.479353725910186768 -0.0120333321392536163 0.185869887471199036
-0.516469597816467285 0.366206228733062744 0.174088075757026672
-0.618501365184783936 0.202508300542831421 -0.0871337577700614929
-0.237292110919952393 0.0193589832633733749 -0.0725864246487617493
-0.382522404193878174 -0.0584885664284229279 0.0236931946128606796
0.474824965000152588 -0.367962956428527832 0.0214615203440189362
-0.649232983589172363 0.237209871411323547 0.0322661884129047394
0.412537544965744019 -0.346342474222183228 -0.222003981471061707
0.526029825210571289 -0.336777091026306152 0.0797101408243179321
0.506016850471496582 -0.238666728138923645 -0.308478713035583496
0.249419644474983215 -0.2817840576171875 0.318036943674087524
0.239046260714530945 0.066980406641960144 0.314390391111373901
0.539561569690704346 -0.301476269960403442 -0.0940411016345024109
-0.447806060314178467 -0.0408594794571399689 0.126538798213005066
-0.043951328843832016 0.104959823191165924 0.317726582288742065
0.247811898589134216 0.0214375928044319153 0.321951836347579956
-0.284790664911270142 -0.0991525799036026001 -0.0991211161017417908
-0.137785434722900391 -0.0145639106631278992 -0.0488780885934829712
-0.277916878461837769 0.338349372148513794 0.0469888336956501007
-0.254756331443786621 0.29040256142616272 -0.00325125362724065781
-0.21896730363368988 0.322369605302810669 0.0698250383138656616
-0.573201477527618408 0.152756258845329285 -0.0744545310735702515
-0.289985686540603638 0.293205022811889648 0.0160304680466651917
0.525604367256164551 -0.320293039083480835 0.026816442608833313
0.345979154109954834 -0.0300937928259372711 -0.0348063521087169647
0.522215545177459717 -0.362533777952194214 0.0890498533844947815
-0.0833573117852210999 -0.111298792064189911 0.0783931314945220947
-0.403987705707550049 0.32652011513710022 0.121235691010951996
0.50473397970199585 -0.36669650673866272 -0.00484082987532019615
-0.118805088102817535 0.266573101282119751 0.120891459286212921
