ply
format ascii 1.0
element vertex 737
property float x
property float y
property float z
end_header
-0.391493052244186401 -0.059353947639465332 0.100529849529266357
-0.545050621032714844 0.262234658002853394 -0.165007844567298889
0.313653618097305298 -0.334649443626403809 0.197647497057914734
-0.0596728548407554626 0.0934003889560699463 0.320968657732009888
-0.101431697607040405 0.143196731805801392 0.093230031430721283
0.499740153551101685 -0.363308966159820557 0.0762606561183929443
0.348981022834777832 -0.283313632011413574 -0.135140702128410339
-0.412065088748931885 0.197473585605621338 0.0360743999481201172
-0.344840675592422485 0.251113384962081909 -0.0137728005647659302
-0.267216891050338745 0.0783057063817977905 -0.0149359749630093575
-0.180546432733535767 0.0179926622658967972 0.0393375977873802185
-0.553065180778503418 0.212061852216720581 -0.0476979911327362061
0.407838881015777588 -0.401292473077774048 -0.215725541114807129
0.517652988433837891 -0.285605043172836304 -0.100341498851776123
0.395293384790420532 -0.264848411083221436 -0.193792372941970825
0.497919350862503052 -0.274675965309143066 -0.300800412893295288
0.434530943632125854 -0.257699698209762573 -0.0019499179907143116
-0.154352471232414246 -0.244792073965072632 0.148684129118919373
-0.629804432392120361 0.19384436309337616 -0.0479880198836326599
-0.354711323976516724 -0.000275870203040540218 -0.151412352919578552
-0.500885725021362305 0.145680665969848633 0.345972001552581787
-0.331339776515960693 0.299192607402801514 0.190768316388130188
-0.334355562925338745 -0.0322828702628612518 -0.132552042603492737
0.113337934017181396 0.0949630886316299438 0.0290451124310493469
0.470084190368652344 -0.135377123951911926 0.0993681773543357849
0.398960322141647339 -0.305410057306289673 0.14510779082775116
-0.456939846277236938 0.166998237371444702 0.116525806486606598
-0.535948336124420166 0.286758691072463989 0.0418245047330856323
-0.276123166084289551 -0.12833857536315918 0.081712678074836731
-0.482655465602874756 0.248545050621032715 -0.10320938378572464
0.171220451593399048 -0.27254021167755127 0.036477409303188324
-0.344354242086410522 0.102824032306671143 0.00628397753462195396
-0.36562994122505188 0.282375186681747437 0.0867363885045051575
0.386591285467147827 -0.230385616421699524 -0.121816813945770264
-0.352831363677978516 0.00176987319719046354 0.0350527390837669373
-0.517708241939544678 0.201406776905059814 0.0489057004451751709
-0.384630829095840454 0.182206287980079651 0.0919034704566001892
-0.571407020092010498 0.327629923820495605 -0.0118872802704572678
-0.338851183652877808 -0.0884463340044021606 -0.0541642680764198303
-0.136830180883407593 -0.269681215286254883 0.130211517214775085
0.275097578763961792 -0.166267246007919312 0.0549066327512264252
0.313201814889907837 -0.303012162446975708 -0.12842126190662384
-0.380953043699264526 0.249746084213256836 0.233174771070480347
0.310732334852218628 -0.217587247490882874 0.201157018542289734
0.496388822793960571 -0.255338013172149658 -0.105461679399013519
-0.118766471743583679 0.072023339569568634 0.173423856496810913
0.512543022632598877 -0.362386703491210938 -0.0307154860347509384
-0.50877833366394043 0.268464863300323486 -0.00517326174303889275
-0.594822585582733154 0.24336475133895874 -0.00292076659388840199
-0.585985660552978516 0.250455141067504883 0.19408552348613739
-0.547434389591217041 0.12066785991191864 -0.134355545043945312
-0.244765430688858032 0.182227879762649536 0.356776833534240723
0.462519824504852295 -0.264602899551391602 -0.29036104679107666
0.456222653388977051 -0.256342679262161255 -0.18690788745880127
0.519428491592407227 -0.303258597850799561 0.0445187166333198547
-0.625342011451721191 0.19967256486415863 0.0447348654270172119
-0.255552291870117188 -0.00531208282336592674 -0.0623397566378116608
0.245709359645843506 0.0986341908574104309 -0.0690917894244194031
0.504979312419891357 -0.160385563969612122 0.130844295024871826
0.343236416578292847 -0.0704447850584983826 0.162005588412284851
0.399891138076782227 -0.237549185752868652 0.130325108766555786
-0.359471321105957031 -0.119526758790016174 0.116372600197792053
-0.478704273700714111 0.188992276787757874 0.0637810826301574707
-0.574298322200775146 0.341464757919311523 0.0250996705144643784
-0.358809411525726318 -0.0640579462051391602 0.0907337814569473267
-0.342506140470504761 0.0109528442844748497 -0.114557072520256042
0.303042054176330566 -0.296344101428985596 0.162071928381919861
-0.504326522350311279 0.220360174775123596 0.141729429364204407
-0.48490479588508606 0.0277415215969085693 -0.0470371954143047333
0.0334596931934356689 0.0874318554997444153 0.0876618474721908569
-0.231176853179931641 0.346699059009552002 0.14862629771232605
0.0321467779576778412 0.00996163394302129745 0.0419017188251018524
-0.365489095449447632 -0.0374437794089317322 -0.0328852534294128418
-0.0481304004788398743 -0.234842821955680847 0.301646173000335693
0.185971245169639587 -0.293382585048675537 0.00362285133451223373
0.234824001789093018 -0.0120701640844345093 0.230167582631111145
-0.526163101196289062 0.140033915638923645 0.0678706169128417969
-0.519957780838012695 0.200823172926902771 -0.06752004474401474
-0.551904976367950439 0.285162150859832764 0.107359156012535095
0.143903553485870361 0.00727991573512554169 0.307677358388900757
0.0680529922246932983 -0.286773800849914551 -0.0815651416778564453
-0.361724495887756348 0.0345918275415897369 -0.161295726895332336
0.307421714067459106 -0.29416048526763916 0.0295210350304841995
-0.338972389698028564 0.2128266841173172 0.159055903553962708
-0.187974527478218079 0.199555531144142151 0.367641657590866089
-0.539714217185974121 0.254305601119995117 -0.0842425450682640076
0.522663652896881104 -0.200128018856048584 -0.0926731377840042114
-0.518749535083770752 0.184720546007156372 0.136349648237228394
-0.543316960334777832 0.269422233104705811 -0.00256600719876587391
0.471121162176132202 -0.326790422201156616 0.0446047261357307434
0.289052307605743408 0.0305426083505153656 0.0536600537598133087
0.433339685201644897 -0.306590884923934937 -0.285048574209213257
-0.518337607383728027 0.0893884003162384033 -0.13519585132598877
-0.600295782089233398 0.284767180681228638 0.183833286166191101
0.4676341712474823 -0.321727335453033447 0.127385452389717102
0.467683643102645874 -0.261112689971923828 -0.293625056743621826
-0.403708577156066895 0.299967467784881592 0.142684131860733032
-0.453960597515106201 0.118820182979106903 -0.224009409546852112
0.481598943471908569 -0.312408894300460815 -0.302431434392929077
0.468210846185684204 -0.331264078617095947 -0.00299416715279221535
0.457332253456115723 -0.305841565132141113 -0.292373627424240112
0.524291455745697021 -0.262496203184127808 -0.102035470306873322
-0.408470273017883301 0.318082988262176514 0.162546470761299133
-0.560584366321563721 0.267018020153045654 0.365103423595428467
-0.575852036476135254 0.209999561309814453 -0.200882881879806519
0.44746774435043335 -0.297140508890151978 -0.223015040159225464
0.310502856969833374 -0.0767710953950881958 0.14875638484954834
0.534660279750823975 -0.248842164874076843 0.101152881979942322
-0.562319815158843994 0.119173258543014526 -0.233331188559532166
-0.4079437255859375 0.0760138183832168579 -0.116662457585334778
-0.57938462495803833 0.355845838785171509 0.0824953317642211914
0.0415285117924213409 0.113966330885887146 0.312149852514266968
-0.456487357616424561 0.00817450322210788727 0.181541711091995239
0.409416139125823975 -0.344522476196289062 0.159913003444671631
-0.554414093494415283 0.287949323654174805 -0.0493535622954368591
0.543160021305084229 -0.256503164768218994 0.113590791821479797
0.0240035150200128555 -0.250456273555755615 0.204927250742912292
0.19573858380317688 0.129569277167320251 0.0347072556614875793
0.31555601954460144 -0.371068835258483887 -0.157017067074775696
0.110702566802501678 0.0590027570724487305 0.318881630897521973
-0.314695507287979126 0.305923789739608765 0.283998042345046997
-0.254362195730209351 -0.133426383137702942 -0.0732963532209396362
-0.386385172605514526 -0.0609367452561855316 0.106308713555335999
0.453252702951431274 -0.0732065439224243164 -0.116489909589290619
0.315828889608383179 -0.333681434392929077 0.195778533816337585
0.297900855541229248 0.0376919656991958618 0.0499651283025741577
0.475880533456802368 -0.331546872854232788 0.136360839009284973
0.439879745244979858 -0.268023043870925903 -0.28224298357963562
0.461438447237014771 -0.273631244897842407 0.137908414006233215
0.504081010818481445 -0.346952587366104126 0.0174204017966985703
0.51901930570602417 -0.270089119672775269 -0.0871681347489356995
0.4987373948097229 -0.0886048823595046997 0.161724403500556946
0.542318880558013916 -0.215806379914283752 0.110769405961036682
-0.576814830303192139 0.326350808143615723 0.0803025960922241211
0.246852278709411621 0.110879518091678619 -0.0545435212552547455
0.0337108410894870758 0.0678099840879440308 0.272338002920150757
-0.561782360076904297 0.274704605340957642 0.0238166972994804382
-0.613718152046203613 0.271492063999176025 0.0384255349636077881
0.535677075386047363 -0.239786863327026367 0.102806940674781799
-0.575800478458404541 0.212153449654579163 -0.116823785006999969
-0.42485964298248291 0.029986625537276268 -0.188637346029281616
0.304593324661254883 -0.12691168487071991 -0.108411259949207306
-0.384996861219406128 -0.0564500056207180023 0.100548021495342255
-0.60301816463470459 0.259022027254104614 0.0173239503055810928
-0.460430383682250977 0.305750399827957153 0.0810736194252967834
0.504974365234375 -0.264453619718551636 -0.109280087053775787
0.534691274166107178 -0.192877009510993958 0.0286174416542053223
-0.615963101387023926 0.209928169846534729 -0.0562364831566810608
0.452644854784011841 -0.124109894037246704 0.0892784222960472107
0.0336940772831439972 -0.280135750770568848 -0.0359527282416820526
0.401997476816177368 -0.319358170032501221 0.130872815847396851
-0.0937576889991760254 0.0734359920024871826 0.293029189109802246
0.24331626296043396 -0.137291029095649719 0.0109995491802692413
0.161425173282623291 -0.272099077701568604 0.0437749177217483521
-0.590327322483062744 0.368642240762710571 0.0900970771908760071
0.0272228606045246124 -0.0122808143496513367 0.0277678463608026505
0.195914208889007568 0.0335062406957149506 0.178013548254966736
-0.306119531393051147 -0.0921064838767051697 0.305383801460266113
0.493757754564285278 -0.367377191781997681 0.0198061894625425339
0.521657228469848633 -0.31193387508392334 0.0460061840713024139
0.502695381641387939 -0.154006853699684143 0.118896938860416412
0.0809324458241462708 -0.272640854120254517 -0.0596567839384078979
-0.325327754020690918 -0.103967033326625824 0.088305741548538208
-0.58593285083770752 0.334296822547912598 0.0184655953198671341
-0.073904871940612793 -0.236409485340118408 0.30151483416557312
0.19441203773021698 -0.340435206890106201 -0.062415342777967453
-0.398592561483383179 0.271489530801773071 -0.0547468438744544983
-0.521548271179199219 0.0434566214680671692 -0.0578400418162345886
-0.257599979639053345 0.141608759760856628 0.0911556482315063477
-0.213424831628799438 -0.136444658041000366 -0.06338462233543396
0.508576095104217529 -0.105173006653785706 0.144213557243347168
0.214201003313064575 -0.280184626579284668 -0.00937770772725343704
0.238226950168609619 -0.0765712261199951172 0.126762732863426208
-0.140176862478256226 0.29604792594909668 0.147651195526123047
-0.655759334564208984 0.170906201004981995 -0.112565509974956512
0.253404319286346436 -0.00993838254362344742 0.249835461378097534
0.250221669673919678 -0.179358035326004028 0.302605628967285156
-0.262942522764205933 -0.137721255421638489 -0.0677761659026145935
-0.200533196330070496 0.313851654529571533 0.0987950712442398071
0.257708638906478882 -0.278573721647262573 0.322956830263137817
0.178984671831130981 -0.0545440688729286194 -0.0511122904717922211
-0.443170845508575439 -0.0674032121896743774 0.128983274102210999
-0.503656685352325439 0.0293804481625556946 0.24706132709980011
-0.496838659048080444 0.0358171798288822174 -0.0117904692888259888
0.232711955904960632 0.022356836125254631 0.313926577568054199
-0.371269196271896362 -0.0464857742190361023 0.14326883852481842
-0.348714649677276611 0.10589955747127533 0.0658556818962097168
0.307574361562728882 -0.199315980076789856 0.242827579379081726
0.308464407920837402 -0.00598435802385210991 0.219463735818862915
-0.442499220371246338 0.266007035970687866 -0.0373877845704555511
0.517172515392303467 -0.327038109302520752 -0.0813087448477745056
-0.53852766752243042 0.137837082147598267 -0.0972776040434837341
0.465833157300949097 -0.124874390661716461 0.00192843587137758732
-0.385070770978927612 0.254747718572616577 0.0326328277587890625
0.493935644626617432 -0.302420735359191895 0.121078170835971832
0.46536862850189209 -0.106629140675067902 0.0595172792673110962
0.203897416591644287 0.0147492876276373863 -0.042331550270318985
-0.224320024251937866 0.295220613479614258 0.158532068133354187
-0.124956123530864716 -0.0496048778295516968 0.0107628600671887398
-0.231572777032852173 0.227863535284996033 0.34801909327507019
-0.380662083625793457 -0.0550496689975261688 0.14538399875164032
0.341290742158889771 -0.0742117762565612793 0.0476120039820671082
-0.435756564140319824 -0.0129538364708423615 0.0339552424848079681
0.205530241131782532 0.0161552261561155319 0.0702946633100509644
0.0562882237136363983 -0.0865328386425971985 0.239165976643562317
-0.383740723133087158 -0.0602456219494342804 0.116489320993423462
-0.136675640940666199 -0.265498101711273193 -0.00128473062068223953
-0.243620023131370544 0.0629391893744468689 0.244725197553634644
-0.54185938835144043 0.210247769951820374 0.1626405268907547
-0.590419650077819824 0.286608457565307617 -0.00736639741808176041
0.307084947824478149 0.0171954985707998276 0.0427961088716983795
0.478595584630966187 -0.315230578184127808 -0.305308908224105835
0.503817975521087646 -0.345999330282211304 -0.0637191087007522583
0.471675574779510498 -0.305636465549468994 0.115093998610973358
0.527194201946258545 -0.303353697061538696 -0.109300650656223297
-0.402581900358200073 0.310913801193237305 0.13458724319934845
0.518039584159851074 -0.251724123954772949 -0.307302534580230713
0.507712364196777344 -0.329514235258102417 -0.314663559198379517
0.51886141300201416 -0.331844925880432129 0.0916474536061286926
0.477479815483093262 -0.304700136184692383 -0.302947282791137695
0.527653038501739502 -0.286092281341552734 -0.107918716967105865
-0.559700727462768555 0.26663362979888916 0.365489691495895386
-0.639847397804260254 0.289014518260955811 0.0850998535752296448
0.371511071920394897 -0.401618301868438721 -0.217437028884887695
-0.449570924043655396 -0.00174380512908101082 0.175028890371322632
0.176635012030601501 0.0725108236074447632 0.00654648756608366966
-0.453250139951705933 0.134054213762283325 -0.213715121150016785
0.403147399425506592 -0.336364001035690308 0.129017546772956848
-0.598597407341003418 0.206791415810585022 0.000736642279662191868
0.24768868088722229 -0.114976540207862854 -0.0708413571119308472
-0.482834011316299438 0.182121217250823975 -0.210121452808380127
-0.375907003879547119 -0.0637964755296707153 0.0916194021701812744
0.522981464862823486 -0.321431457996368408 0.0359418056905269623
0.54246145486831665 -0.217872321605682373 0.108296766877174377
0.525792419910430908 -0.273999243974685669 0.0553693249821662903
0.111316211521625519 0.0835681706666946411 0.317174255847930908
-0.350658535957336426 -0.048590734601020813 0.0449187643826007843
0.1052364781498909 0.0717057958245277405 0.295413732528686523
-0.165041327476501465 0.132450789213180542 0.151232749223709106
0.502876102924346924 -0.256927192211151123 -0.102399587631225586
0.428976893424987793 -0.304351300001144409 0.135988250374794006
-0.355524808168411255 -0.102115608751773834 0.158986553549766541
0.49874413013458252 -0.202055394649505615 -0.107869602739810944
-0.57810664176940918 0.347511112689971924 0.152054831385612488
0.105249658226966858 -0.012025018222630024 0.0210814327001571655
-0.341008901596069336 -0.124061115086078644 0.104526937007904053
-0.120599791407585144 -0.276273965835571289 0.174001291394233704
-0.160943731665611267 0.16674506664276123 0.325066685676574707
0.515091240406036377 -0.359065353870391846 0.0268795900046825409
0.5211448073387146 -0.288036495447158813 -0.0116054685786366463
0.478961586952209473 -0.140430167317390442 0.107669301331043243
-0.180584520101547241 0.0286854393780231476 0.0258098617196083069
-0.34172368049621582 -0.122282609343528748 0.103669717907905579
-0.599814355373382568 0.376230627298355103 0.188309729099273682
-0.119610093533992767 -0.267382949590682983 0.218252792954444885
0.523565232753753662 -0.309274941682815552 -0.0746994689106941223
0.516485989093780518 -0.252538144588470459 -0.309425890445709229
0.455134183168411255 -0.308650732040405273 -0.294363021850585938
0.24071916937828064 -0.0964642390608787537 0.158629938960075378
-0.619807600975036621 0.271681129932403564 0.0371173806488513947
-0.429655700922012329 -0.00448195589706301689 0.177268266677856445
-0.250147879123687744 -0.137489438056945801 -0.0711590945720672607
0.31738358736038208 -0.319469213485717773 0.122590184211730957
0.539387166500091553 -0.250192195177078247 0.106686882674694061
0.452828735113143921 -0.140213444828987122 0.015476948581635952
0.429415404796600342 -0.321499228477478027 0.123779654502868652
0.413438349962234497 -0.3312339186668396 -0.209703311324119568
0.473901659250259399 -0.129005715250968933 0.109553113579750061
-0.548556864261627197 0.378021657466888428 0.17252013087272644
0.190660387277603149 -0.340292990207672119 -0.0133084142580628395
-0.201437443494796753 -0.135997340083122253 -0.0685089379549026489
-0.185180097818374634 0.31157490611076355 0.117785856127738953
0.103553548455238342 0.107257157564163208 0.174392044544219971
-0.444005578756332397 -0.0549707673490047455 0.0917916670441627502
-0.488997370004653931 0.029441390186548233 0.0167919900268316269
0.231479734182357788 0.0105570908635854721 0.315004706382751465
-0.024511728435754776 0.112673871219158173 0.312379240989685059
0.243369176983833313 -0.0390913188457489014 0.204652741551399231
-0.384422481060028076 0.244761005043983459 0.0342244431376457214
-0.653638601303100586 0.216192692518234253 -0.039269663393497467
0.483106553554534912 -0.116656042635440826 0.0234990045428276062
0.12240155041217804 0.0790546312928199768 0.138517290353775024
-0.38161274790763855 -0.0732356980443000793 0.0955672338604927063
0.31982719898223877 -0.0727806016802787781 0.062434125691652298
-0.440291702747344971 -0.0122794583439826965 0.00680110277608036995
-0.501731157302856445 0.233136504888534546 -0.0711469054222106934
-0.546802520751953125 0.202894240617752075 -0.0685456991195678711
0.0888340026140213013 0.0912380963563919067 0.0799869000911712646
-0.519435763359069824 0.203990191221237183 -0.0472053773701190948
-0.167983964085578918 0.0718494132161140442 0.232433408498764038
-0.0571099370718002319 -0.187372416257858276 0.0267589222639799118
-0.212118849158287048 0.290257662534713745 0.109039269387722015
0.249820977449417114 -0.00582344457507133484 0.0223625171929597855
-0.555385053157806396 0.203780665993690491 0.118300601840019226
-0.456891238689422607 0.215858533978462219 0.024475734680891037
-0.462160229682922363 0.265917450189590454 -0.00278402003459632397
-0.574983179569244385 0.247056499123573303 -0.0764646679162979126
-0.388874530792236328 0.274586886167526245 -0.0841732025146484375
0.34381788969039917 -0.135144501924514771 0.318839907646179199
-0.498160302639007568 0.206263795495033264 -0.0116605032235383987
-0.345524102449417114 0.292297333478927612 -0.0501899942755699158
0.526088297367095947 -0.361494213342666626 0.0417808666825294495
-0.539568066596984863 0.214540943503379822 0.201005816459655762
-0.568830549716949463 0.293835312128067017 -0.00318588246591389179
0.316757738590240479 0.0233212355524301529 0.0487823151051998138
0.482214629650115967 -0.307375222444534302 -0.30361640453338623
0.479778915643692017 -0.326757758855819702 0.125374332070350647
0.523339807987213135 -0.307407587766647339 -0.0986893028020858765
0.490568846464157104 -0.311143547296524048 -0.307376891374588013
0.516300499439239502 -0.325479507446289062 0.119837895035743713
0.444739967584609985 -0.300569236278533936 -0.290603399276733398
0.52335655689239502 -0.304958522319793701 -0.097352445125579834
0.134400397539138794 0.115892902016639709 0.337020814418792725
-0.641977131366729736 0.2420511394739151 -0.009464276023209095
-0.292322725057601929 -0.114474870264530182 -0.105728402733802795
0.539327681064605713 -0.255928009748458862 0.092187143862247467
0.129262253642082214 0.0971010029315948486 0.317297965288162231
-0.234953105449676514 -0.144126176834106445 -0.0713925212621688843
0.252658724784851074 0.0296710319817066193 -0.0859192162752151489
0.531074225902557373 -0.323570400476455688 0.00683326274156570435
-0.598944127559661865 0.306784361600875854 0.104448579251766205
0.532185733318328857 -0.245099946856498718 0.0865392982959747314
-0.3737926185131073 -0.0614920482039451599 0.0922794193029403687
0.526712715625762939 -0.275716513395309448 -0.123229533433914185
-0.500879406929016113 0.148114338517189026 0.352979183197021484
0.385237187147140503 -0.29809984564781189 0.131830126047134399
0.132899671792984009 -0.332465499639511108 -0.100462406873703003
0.522880434989929199 -0.355291783809661865 -0.0149262538179755211
-0.436070054769515991 0.149926647543907166 -0.0850485190749168396
0.515860021114349365 -0.300547748804092407 0.0647028610110282898
0.393267512321472168 -0.368276536464691162 -0.213651850819587708
0.500611960887908936 -0.171913117170333862 0.130027666687965393
0.533338785171508789 -0.334444016218185425 0.0283901076763868332
-0.57948988676071167 0.348305284976959229 0.0402606651186943054
0.520168125629425049 -0.241295620799064636 -0.308669507503509521
-0.600606262683868408 0.370078831911087036 0.10461822897195816
-0.500382125377655029 0.146485373377799988 0.355184048414230347
0.233988627791404724 -0.278358221054077148 0.317348092794418335
-0.181087180972099304 -0.137616559863090515 -0.0556723661720752716
-0.228116720914840698 -0.13858659565448761 -0.0535631366074085236
-0.203932419419288635 0.297864764928817749 0.126621052622795105
0.262538552284240723 -0.290164202451705933 0.323646366596221924
-0.362017065286636353 -0.0311889108270406723 0.119500294327735901
-0.499781429767608643 0.0187796838581562042 0.0318299978971481323
0.242953553795814514 -0.00036525583709590137 0.322247058153152466
0.141372963786125183 -0.29095083475112915 0.311675906181335449
0.308147430419921875 -0.208031415939331055 0.248165786266326904
-0.385729819536209106 0.254287511110305786 0.0342775620520114899
0.531195580959320068 -0.262719631195068359 0.102913789451122284
0.224186509847640991 0.022278953343629837 0.305402815341949463
0.530786514282226562 -0.147749572992324829 -0.308192521333694458
-0.644485592842102051 0.230840444564819336 -0.0475028827786445618
0.541395246982574463 -0.311357766389846802 -0.0444398596882820129
0.50800400972366333 -0.26811864972114563 -0.311449408531188965
0.514482498168945312 -0.316473871469497681 -0.295042484998703003
0.459033608436584473 -0.291246503591537476 -0.296533823013305664
-0.54268258810043335 0.267645895481109619 -0.189355209469795227
-0.621049404144287109 0.28843003511428833 0.0666317716240882874
0.363636493682861328 -0.38460966944694519 -0.206069648265838623
-0.0921792015433311462 0.266775578260421753 0.189237847924232483
-0.448066204786300659 0.130767405033111572 -0.208821132779121399
-0.575051605701446533 0.203265830874443054 -0.127108842134475708
-0.629701137542724609 0.191182434558868408 -0.0399343110620975494
-0.469367533922195435 0.138421341776847839 -0.231121987104415894
0.257867932319641113 -0.0174222569912672043 -0.072118021547794342
0.230748042464256287 0.0535126999020576477 -0.0451995506882667542
0.113231956958770752 0.109303206205368042 0.301559925079345703
-0.583704769611358643 0.217906534671783447 -0.221459433436393738
-0.597830593585968018 0.234708845615386963 -0.0108183911070227623
-0.366778850555419922 -0.0923623070120811462 0.122753210365772247
-0.329794168472290039 -0.125978142023086548 0.137204080820083618
-0.634230077266693115 0.199103280901908875 -0.038349740207195282
-0.425422251224517822 -0.0555393584072589874 0.0991547554731369019
-0.477747440338134766 0.0195535793900489807 -0.0366227366030216217
0.208771124482154846 0.00814634095877408981 0.300780653953552246
-0.633804082870483398 0.247578784823417664 -0.00603796588256955147
-0.12772621214389801 0.269428521394729614 0.132120892405509949
0.271129339933395386 -0.330726295709609985 0.180070117115974426
0.53317946195602417 -0.210475727915763855 -0.0988621562719345093
-0.126226097345352173 -0.11315976083278656 -0.0548973120748996735
0.454339802265167236 -0.339219242334365845 -0.2980538010597229
-0.212306514382362366 0.0357261747121810913 -0.0597743764519691467
-0.552831530570983887 0.175240427255630493 0.012729221023619175
-0.198205962777137756 0.139141693711280823 0.0210300739854574203
-0.0123245939612388611 -0.102976128458976746 -0.043052971363067627
0.264800757169723511 -0.275345444679260254 0.202410280704498291
0.348792701959609985 -0.321469366550445557 -5.65276895940769464e-05
-0.155656203627586365 0.0693017914891242981 0.0274238400161266327
-0.248870804905891418 0.130297809839248657 -0.0345399938523769379
0.199328154325485229 0.00130497990176081657 0.0190102588385343552
0.0766102224588394165 0.0804801583290100098 0.0238532386720180511
-0.283041507005691528 0.287807822227478027 -0.00605287868529558182
0.477110534906387329 -0.290133446455001831 -0.301693171262741089
-0.556491672992706299 0.265264034271240234 -0.0173128768801689148
-0.237072750926017761 0.0971383899450302124 -0.0325550809502601624
0.137947306036949158 -0.28130379319190979 0.14999668300151825
0.29647490382194519 -0.297769427299499512 0.0568825528025627136
-0.285668730735778809 0.256784528493881226 0.000440519099356606603
-0.0208554808050394058 -0.0408287905156612396 0.0888852179050445557
0.204701647162437439 0.0423947460949420929 0.0656335502862930298
-0.14352397620677948 -0.0857111886143684387 0.0916034653782844543
0.372644335031509399 -0.0737154409289360046 0.0315175652503967285
0.521483302116394043 -0.199412733316421509 -0.0985542014241218567
0.48725438117980957 -0.298134267330169678 -0.305350333452224731
0.480502486228942871 -0.315217673778533936 0.122269317507743835
0.513718724250793457 -0.307518601417541504 -0.102437674999237061
0.496177524328231812 -0.309766232967376709 -0.309718042612075806
0.506256997585296631 -0.328176409006118774 -0.00416533090174198151
0.511802136898040771 -0.324915528297424316 0.118301771581172943
0.46603819727897644 -0.289034456014633179 -0.296547859907150269
0.43812483549118042 -0.263734549283981323 -0.194305106997489929
0.135207965970039368 0.116540588438510895 0.336936682462692261
0.39655110239982605 -0.244753256440162659 0.318702757358551025
-0.601270914077758789 0.353844821453094482 0.065504021942615509
-0.504889726638793945 0.35670885443687439 0.178233802318572998
0.542699456214904785 -0.282882541418075562 0.0978577509522438049
0.256600230932235718 0.0366305224597454071 -0.0721216350793838501
-0.232876956462860107 0.155502453446388245 -0.00540042854845523834
0.506247043609619141 -0.332344502210617065 -0.00258788559585809708
0.44493788480758667 -0.250315755605697632 -0.228020697832107544
-0.638824105262756348 0.254053473472595215 0.0545217730104923248
0.532676339149475098 -0.263052225112915039 0.0931740626692771912
-0.392970949411392212 -0.0598670057952404022 0.10033966600894928
0.524016439914703369 -0.289982855319976807 -0.0921368524432182312
0.0281291157007217407 -0.274621427059173584 -0.0354170836508274078
0.385205566883087158 -0.306431859731674194 0.118756853044033051
-0.58196723461151123 0.366377800703048706 0.131671428680419922
0.240311369299888611 0.00257938704453408718 0.181046009063720703
-0.112921305000782013 0.165066614747047424 0.347395360469818115
0.482274025678634644 -0.36871260404586792 -0.0221025962382555008
0.412363499402999878 -0.321475446224212646 -0.211039647459983826
0.507338523864746094 -0.155872121453285217 0.123943500220775604
0.528894364833831787 -0.33507421612739563 0.0127648040652275085
-0.583891868591308594 0.335985869169235229 0.0340839438140392303
-0.590541541576385498 0.381482183933258057 0.131232887506484985
0.526460528373718262 -0.244654655456542969 -0.310644596815109253
0.47457924485206604 -0.291055172681808472 -0.29944455623626709
-0.597023129463195801 0.353251665830612183 0.169622853398323059
-0.587120771408081055 0.371019929647445679 0.101083740592002869
-0.211929380893707275 -0.130090594291687012 -0.0577905774116516113
0.234317854046821594 -0.293451398611068726 0.314919382333755493
0.23809070885181427 0.066789478063583374 0.319993644952774048
0.541953921318054199 -0.314193874597549438 -0.0581587664783000946
-0.444567501544952393 -0.0489969328045845032 0.12699359655380249
0.359676539897918701 -0.388687640428543091 -0.209015324711799622
-0.556326568126678467 0.210724532604217529 -0.113684825599193573
0.520942747592926025 -0.279875695705413818 -0.177137225866317749
0.241941943764686584 0.0344250798225402832 0.314473718404769897
0.242882519960403442 0.000161575459060259163 0.0235909763723611832
0.380780279636383057 0.038628704845905304 0.0118539482355117798
0.526933193206787109 -0.230950593948364258 -0.310151487588882446
0.327121496200561523 0.0960075706243515015 -0.0359500385820865631
-0.374069005250930786 -0.0608177930116653442 -0.132977724075317383
0.512960135936737061 -0.167877614498138428 0.135834887623786926
-0.574271202087402344 0.321579068899154663 0.0494453161954879761
-0.558878958225250244 0.282951205968856812 0.364026308059692383
0.22458203136920929 0.0317175202071666718 -0.0582528486847877502
-0.574091136455535889 0.214220196008682251 -0.221096426248550415
-0.044118441641330719 0.156228825449943542 0.0810904577374458313
0.114245489239692688 0.109782002866268158 0.0253591015934944153
0.342837095260620117 -0.247292608022689819 -0.0969198867678642273
-0.284837245941162109 0.30002102255821228 -0.00293453899212181568
0.153436556458473206 -0.00467173522338271141 -0.00365251977927982807
0.0692127719521522522 0.138540998101234436 0.0755587145686149597
-0.269833564758300781 0.279769092798233032 0.00158615282271057367
0.503477990627288818 -0.292928069829940796 -0.159378424286842346
0.137096449732780457 -0.0261187776923179626 0.013028312474489212
-0.338901668787002563 -0.032551594078540802 0.0227026641368865967
0.373452037572860718 -0.0921190083026885986 0.044229213148355484
0.200071603059768677 0.101032339036464691 -0.00188948179129511118
-0.297148019075393677 -0.0255709569901227951 0.0358355604112148285
0.131913319230079651 -0.018100835382938385 -0.0261753760278224945
0.101514272391796112 0.0157200712710618973 0.0911263749003410339
0.175815492868423462 0.11912267655134201 0.037953302264213562
-0.23042355477809906 -0.0641992837190628052 0.104551628232002258
0.486237972974777222 -0.296997249126434326 -0.303578674793243408
-0.603009402751922607 0.289046376943588257 0.185070276260375977
0.46722450852394104 -0.309096336364746094 0.120026431977748871
0.378336012363433838 -0.0146970516070723534 0.00633391458541154861
0.514467954635620117 -0.295650690793991089 -0.103530213236808777
0.519001126289367676 -0.240043565630912781 -0.307651311159133911
0.478072047233581543 -0.310065716505050659 -0.300332903861999512
0.483542084693908691 -0.274845093488693237 -0.29996153712272644
0.11728302389383316 0.118432052433490753 0.297504454851150513
-0.583971202373504639 0.355907529592514038 0.0657206326723098755
0.383753776550292969 -0.337722897529602051 0.12545207142829895
-0.574231386184692383 0.317257016897201538 -0.0266385674476623535
-0.604220092296600342 0.216692894697189331 -0.0869782865047454834
0.267872631549835205 0.0390364266932010651 -0.0863116905093193054
-0.356234848499298096 -0.0227112267166376114 -0.131268039345741272
-0.564042210578918457 0.313881546258926392 -0.00800156779587268829
0.190738990902900696 -0.341210782527923584 -0.0748497471213340759
0.404295116662979126 -0.357968449592590332 -0.224088653922080994
-0.500131130218505859 0.145069003105163574 0.354528099298477173
0.50964277982711792 -0.151829585433006287 0.11491665244102478
0.497007101774215698 -0.264251112937927246 -0.304444968700408936
0.458121031522750854 -0.281207382678985596 -0.289798349142074585
0.441083043813705444 -0.265285491943359375 -0.283756375312805176
-0.587787389755249023 0.357013523578643799 0.0616358742117881775
0.505246281623840332 -0.127145513892173767 0.124336995184421539
-0.206023037433624268 0.312032222747802734 0.108606897294521332
0.268128871917724609 -0.284476697444915771 0.319105088710784912
0.232556059956550598 0.003173797857016325 0.317770868539810181
0.513408958911895752 -0.175975590944290161 -0.281811445951461792
-0.115060687065124512 0.00943719781935214996 0.00577081367373466492
0.40402713418006897 -0.359997451305389404 -0.224711805582046509
0.417632400989532471 -0.313657969236373901 0.14370572566986084
-0.555284261703491211 0.376017779111862183 0.186676234006881714
-0.175446808338165283 0.30871465802192688 0.118285752832889557
-0.389469742774963379 0.27555885910987854 -0.0851745158433914185
0.365344971418380737 0.0515632666647434235 0.0245568808168172836
0.12924213707447052 0.115329258143901825 0.318734049797058105
-0.28636544942855835 -0.101143382489681244 -0.0921816304326057434
0.258265167474746704 0.100672014057636261 -0.062086101621389389
-0.361081302165985107 -0.0603711307048797607 -0.144238799810409546
0.134184926748275757 0.113290853798389435 0.337680339813232422
-0.562861144542694092 0.198870688676834106 -0.229076564311981201
-0.276156157255172729 0.287536889314651489 -0.00105049298144876957
0.455041170120239258 -0.246772855520248413 -0.288344532251358032
0.460385322570800781 -0.275737851858139038 -0.290865808725357056
-0.634662091732025146 0.307686716318130493 0.170284166932106018
0.512574672698974609 -0.31783139705657959 -0.0386322550475597382
0.469093650579452515 -0.266134351491928101 -0.29799535870552063
0.478307068347930908 -0.295356929302215576 -0.300270229578018188
0.458298802375793457 -0.246556341648101807 -0.289915978908538818
0.3812580406665802 -0.361334353685379028 -0.213902324438095093
-0.479275524616241455 -0.0131682399660348892 0.185752838850021362
-0.516259729862213135 0.36528661847114563 0.173938095569610596
-0.618307352066040039 0.201583713293075562 -0.0872378870844841003
-0.237105056643486023 0.0183104593306779861 -0.0726700574159622192
-0.382418453693389893 -0.0596320927143096924 0.0235891472548246384
0.474940657615661621 -0.368716537952423096 0.0217639822512865067
-0.649042248725891113 0.236296787858009338 0.0321538485586643219
0.412720143795013428 -0.347065389156341553 -0.221686691045761108
0.526122927665710449 -0.337530225515365601 0.0800083205103874207
0.506196498870849609 -0.239344537258148193 -0.308111310005187988
0.249485433101654053 -0.282662242650985718 0.3181590735912323
0.239247128367424011 0.0662201046943664551 0.31453898549079895
0.539679765701293945 -0.302181392908096313 -0.0937127470970153809
-0.44771990180015564 -0.0419982746243476868 0.126426160335540771
-0.0437713339924812317 0.10404282808303833 0.317663222551345825
0.247988998889923096 0.0206662286072969437 0.322103053331375122
-0.284687787294387817 -0.100274242460727692 -0.099198073148727417
-0.137576773762702942 -0.0155701376497745514 -0.0489396452903747559
-0.27762603759765625 0.3374137282371521 0.0468623042106628418
-0.254456579685211182 0.289457082748413086 -0.00336801726371049881
-0.218669816851615906 0.321454226970672607 0.0697089061141014099
-0.573019206523895264 0.151784077286720276 -0.0745692774653434753
-0.289695650339126587 0.292241305112838745 0.0159050580114126205
0.5257071852684021 -0.321030139923095703 0.0271240454167127609
0.346219450235366821 -0.0307830218225717545 -0.0345306769013404846
0.522306740283966064 -0.36329612135887146 0.0893454253673553467
-0.0831908136606216431 -0.112332776188850403 0.0783396363258361816
-0.403746128082275391 0.325553745031356812 0.121095679700374603
0.504846751689910889 -0.367439955472946167 -0.00453037023544311523
-0.118501968681812286 0.265685409307479858 0.120810337364673615
0.518801093101501465 -0.343327522277832031 0.0357952862977981567
0.130221724510192871 -0.33512231707572937 0.30114707350730896
0.466686606407165527 -0.311430364847183228 0.0724095404148101807
0.482936203479766846 -0.374382078647613525 0.0522828251123428345
0.421171277761459351 -0.0263625085353851318 0.0648037716746330261
0.494242936372756958 -0.363897562026977539 -0.0155776059255003929
-0.232732132077217102 0.286703318357467651 0.0839953720569610596
0.531312227249145508 -0.332121461629867554 -0.00727355899289250374
-0.271727681159973145 0.314937591552734375 0.113821320235729218
0.308345615863800049 0.0022801477462053299 0.0462324842810630798
0.467575192451477051 -0.263742536306381226 -0.296067208051681519
0.473871350288391113 -0.304715782403945923 0.114179767668247223
0.511290490627288818 -0.313982754945755005 -0.104425728321075439
0.509344637393951416 -0.245693355798721313 -0.30843016505241394
0.448100835084915161 -0.292840629816055298 -0.292755931615829468
0.466540813446044922 -0.283603936433792114 -0.297271877527236938
0.138416871428489685 0.112410478293895721 0.336621284484863281
-0.651888787746429443 0.285275489091873169 0.0979458242654800415
-0.638058304786682129 0.244389906525611877 -0.0382609479129314423
0.136380001902580261 0.068884044885635376 0.337745636701583862
-0.576827466487884521 0.30338248610496521 -0.055632028728723526
0.262646108865737915 0.0302079934626817703 -0.073525063693523407
0.542015552520751953 -0.217105045914649963 0.111493960022926331
-0.359869420528411865 -0.0363550521433353424 -0.134446263313293457
-0.574470758438110352 0.327065467834472656 -0.0296446364372968674
-0.361594170331954956 -0.0715523511171340942 -0.0341193079948425293
-0.130510449409484863 -0.268172919750213623 0.118941500782966614
0.49520912766456604 -0.366196185350418091 -0.00041525356937199831
0.373947054147720337 -0.35973280668258667 -0.210069626569747925
-0.378237456083297729 -0.10757407546043396 0.101177364587783813
-0.0671355202794075012 -0.264605075120925903 0.296324372291564941
0.520025432109832764 -0.243646591901779175 -0.309450387954711914
0.509537100791931152 -0.330932170152664185 0.0152211952954530716
-0.593111515045166016 0.368554055690765381 0.12049371749162674
-0.655118882656097412 0.175237163901329041 -0.103065304458141327
-0.222877144813537598 -0.144735127687454224 -0.0538694150745868683
-0.191014304757118225 0.316221892833709717 0.100563004612922668
0.256588011980056763 -0.283951938152313232 0.319594085216522217
0.239204421639442444 0.0318539701402187347 0.319009393453598022
-0.119956828653812408 -0.0466067790985107422 0.00716094812378287315
-0.641326487064361572 0.308211356401443481 0.101794883608818054
0.364832252264022827 -0.374279260635375977 -0.206984296441078186
0.537787914276123047 -0.218137159943580627 0.161773025989532471
-0.552504062652587891 0.382026463747024536 0.157868653535842896
-0.122284367680549622 0.258899569511413574 0.114944048225879669
0.119596108794212341 0.102111928164958954 0.0893223583698272705
-0.375142902135848999 0.265403151512145996 -0.0897120162844657898
0.516935825347900391 -0.349447548389434814 0.0987097099423408508
-0.293354064226150513 -0.107751406729221344 -0.10944010317325592
0.275174617767333984 0.102729395031929016 -0.0577230826020240784
-0.5748252272605896 0.219129070639610291 -0.2126912921667099
-0.115344323217868805 0.268181413412094116 0.17961806058883667
0.23594309389591217 -0.288435846567153931 0.314278721809387207
0.310144692659378052 -0.187760055065155029 0.240926966071128845
0.541847288608551025 -0.326202869415283203 -0.0209695827215909958
0.0789126306772232056 -0.338237851858139038 0.282087892293930054
-0.00629918184131383896 -0.172350972890853882 0.00409543700516223907
-0.281991630792617798 0.261290073394775391 0.00687718996778130531
0.513278841972351074 -0.237416014075279236 -0.309446126222610474
-0.646688342094421387 0.277830749750137329 0.0794719085097312927
-0.646050333976745605 0.182748034596443176 -0.0909176468849182129
0.514170527458190918 -0.322892963886260986 0.024230150505900383
-0.406787723302841187 -0.0642663612961769104 0.113385424017906189
0.516906559467315674 -0.356074333190917969 -0.0206716377288103104
-0.566318154335021973 0.373900324106216431 0.152379438281059265
0.235965833067893982 0.042669389396905899 0.313556879758834839
-0.664565384387969971 0.226695403456687927 0.023041851818561554
-0.447927504777908325 -0.0390993654727935791 0.126935094594955444
0.503123283386230469 -0.302608579397201538 -0.178902745246887207
-0.588849782943725586 0.360617607831954956 0.0860001891851425171
-0.193857491016387939 0.314493834972381592 0.104679897427558899
0.246973335742950439 0.0235704816877841949 0.323696702718734741
0.531006276607513428 -0.324158787727355957 -0.0581276267766952515
-0.182618573307991028 0.30659562349319458 0.128290608525276184
0.247214004397392273 0.00664026103913784027 0.323828190565109253
0.0587362535297870636 0.139272406697273254 0.345557302236557007
-0.505554497241973877 0.148871466517448425 0.356729179620742798
0.270642191171646118 -0.311697393655776978 0.326143950223922729
-0.253533989191055298 0.0230428893119096756 -0.0708827227354049683
0.240988880395889282 -0.295748382806777954 0.322382658720016479
0.249016717076301575 0.0434583239257335663 0.314287155866622925
0.468449681997299194 -0.102283872663974762 0.0345392785966396332
-0.124558359384536743 0.194684997200965881 0.115217484533786774
0.239880487322807312 -0.327069252729415894 0.317838847637176514
0.500295877456665039 -0.366987764835357666 0.0745887830853462219
0.523500621318817139 -0.325097650289535522 0.0261480752378702164
0.444579809904098511 -0.253697812557220459 0.332254111766815186
0.321610718965530396 -0.131753340363502502 -0.106740377843379974
0.0633783861994743347 -0.0111915655434131622 0.321516364812850952
0.511358141899108887 -0.361281245946884155 0.0474515296518802643
0.135790318250656128 -0.101093068718910217 0.0403857491910457611
0.0496998727321624756 0.0111482841894030571 0.0295582134276628494
0.0209697633981704712 0.0478331297636032104 0.0424169115722179413
0.0881352722644805908 -0.066518828272819519 0.289460331201553345
-0.162059679627418518 -0.266276150941848755 0.147835224866867065
0.2650604248046875 -0.0205031782388687134 0.0614285245537757874
-0.0288923606276512146 -0.0295119564980268478 0.295361965894699097
0.502346575260162354 -0.240661323070526123 -0.302030473947525024
0.476109981536865234 -0.315299332141876221 -0.301967531442642212
-0.630641400814056396 0.305835872888565063 0.167267993092536926
0.475511133670806885 -0.321233987808227539 0.120944537222385406
0.509201467037200928 -0.301206648349761963 -0.10558859258890152
0.528394162654876709 -0.275245338678359985 -0.317207425832748413
0.493725627660751343 -0.332770347595214844 -0.310718417167663574
0.503563940525054932 -0.320547223091125488 0.097941279411315918
0.474355638027191162 -0.30613139271736145 -0.298120498657226562
-0.559118330478668213 0.267598718404769897 0.364353984594345093
0.125109061598777771 0.116459712386131287 0.314034640789031982
-0.633270263671875 0.281801879405975342 0.0542047582566738129
-0.587040543556213379 0.362368911504745483 0.102335169911384583
0.371673077344894409 -0.37443077564239502 -0.212759539484977722
0.438494175672531128 -0.348420798778533936 0.154270797967910767
0.0582250989973545074 0.120894275605678558 0.320937126874923706
-0.574283421039581299 0.36836889386177063 0.21542300283908844
0.264898329973220825 0.0243102405220270157 -0.0587315522134304047
0.368830412626266479 -0.337246298789978027 0.160546392202377319
0.510646283626556396 -0.301925539970397949 -0.112036004662513733
0.133790120482444763 -0.321085631847381592 -0.0978842005133628845
0.516684412956237793 -0.349198698997497559 -0.0203289613127708435
0.389464914798736572 -0.347154349088668823 -0.214118883013725281
-0.576693713665008545 0.318642616271972656 0.0407034233212471008
0.536211371421813965 -0.278216809034347534 -0.32061120867729187
0.46806710958480835 -0.311268389225006104 -0.299257069826126099
0.507292509078979492 -0.347546249628067017 0.0178858432918787003
-0.555598080158233643 0.309266746044158936 0.102151691913604736
0.194044187664985657 -0.339830368757247925 -0.059260588139295578
0.0702884718775749207 -0.282751381397247314 -0.0780281797051429749
0.252463728189468384 -0.250805556774139404 0.320052146911621094
0.239999085664749146 0.0304962005466222763 0.316787660121917725
-0.120818771421909332 -0.0484066717326641083 0.00801508873701095581
0.178937196731567383 -0.100613966584205627 -0.0149109456688165665
0.532575845718383789 -0.332726716995239258 -0.0132115185260772705
0.37053641676902771 -0.349881887435913086 -0.208901375532150269
0.535036981105804443 -0.246305733919143677 0.177187591791152954
0.561342716217041016 -0.316178679466247559 -0.330942153930664062
0.554626405239105225 -0.212175101041793823 0.133842512965202332
-0.542968809604644775 0.380324572324752808 0.164403930306434631
0.123086176812648773 0.116766065359115601 0.132990702986717224
-0.581922233104705811 0.351486444473266602 0.0977247953414916992
-0.481232613325119019 0.185445889830589294 -0.0916277691721916199
0.515740871429443359 -0.339625030755996704 0.0387875996530056
0.253468424081802368 -0.279727846384048462 0.321877270936965942
0.278691858053207397 -0.356407880783081055 -0.126109033823013306
0.508118510246276855 -0.28702843189239502 -0.313679039478302002
-0.431918621063232422 -0.0579444020986557007 0.116612732410430908
0.202130213379859924 0.090059913694858551 0.223243609070777893
0.244524851441383362 0.104219324886798859 -0.0572991706430912018
-0.195532724261283875 0.201028734445571899 0.349129289388656616
0.250555366277694702 0.0244588833302259445 0.32322162389755249
0.239913791418075562 0.0185467805713415146 0.320911914110183716
-0.0312851443886756897 0.162222966551780701 0.382480770349502563
-0.482273012399673462 -0.016375761479139328 0.180105656385421753
0.483936488628387451 -0.369548380374908447 0.0460372641682624817
-0.643209636211395264 0.286645501852035522 0.0861868783831596375
0.276138931512832642 -0.166255518794059753 -0.0705563947558403015
-0.411575764417648315 -0.0576118491590023041 0.0788232907652854919
-0.642710387706756592 0.175204992294311523 -0.0820078551769256592
-0.22571370005607605 -0.134628206491470337 -0.0523287504911422729
0.254972994327545166 -0.266138911247253418 0.321037113666534424
-0.345041006803512573 0.0166586674749851227 -0.117002092301845551
-0.286870807409286499 -0.0922549664974212646 -0.106608062982559204
-0.584726512432098389 0.209339886903762817 -0.217994868755340576
0.267629086971282959 -0.297595590353012085 0.315121978521347046
-0.0253894384950399399 -0.187900081276893616 -0.0435942932963371277
-0.617745399475097656 0.276441782712936401 0.0313801802694797516
-0.608530282974243164 0.297754079103469849 0.0924435034394264221
-0.397334247827529907 -0.0636177510023117065 0.118805050849914551
-0.451460897922515869 -0.0389287658035755157 0.119418993592262268
0.431156128644943237 -0.272329330444335938 0.329132735729217529
-0.0521689876914024353 0.140285760164260864 0.0915842801332473755
-0.502820134162902832 0.150495976209640503 0.355344176292419434
0.240840181708335876 -0.319893747568130493 0.322735726833343506
0.497313052415847778 -0.371372342109680176 0.0573536530137062073
0.399349391460418701 -0.257452875375747681 0.322407126426696777
-0.158225908875465393 -0.264263570308685303 0.181469276547431946
-0.498927980661392212 0.0132961096242070198 0.15802958607673645
0.417633861303329468 -0.297959238290786743 0.328685969114303589
0.535502314567565918 -0.340716779232025146 -0.0184400919824838638
0.344502389430999756 -0.26789546012878418 -0.127866506576538086
-0.496231824159622192 0.0712779611349105835 0.203921034932136536
0.443699270486831665 -0.272772789001464844 0.333359688520431519
