ply
format ascii 1.0
element vertex 737
property float x
property float y
property float z
end_header
0.437971383333206177 -0.249731332063674927 0.0914243683218955994
-0.362849593162536621 0.246975153684616089 -0.015641702339053154
0.442618697881698608 -0.235097154974937439 -0.227144494652748108
0.134152472019195557 0.121388286352157593 0.337116152048110962
0.285069197416305542 -0.0810351893305778503 0.190328896045684814
0.541152656078338623 -0.220809638500213623 0.112046994268894196
0.159606218338012695 0.0947042554616928101 0.124211080372333527
-0.0489067249000072479 -0.0627057254314422607 0.0489730760455131531
-0.588917195796966553 0.271477252244949341 -0.00725352484732866287
-0.609954476356506348 0.237131074070930481 -0.0561117380857467651
-0.343161880970001221 0.167423084378242493 0.0331502184271812439
-0.581193685531616211 0.19124370813369751 0.0907495617866516113
-0.436116963624954224 0.052774917334318161 -0.148634046316146851
-0.0907738059759140015 0.266729146242141724 0.177415132522583008
0.249363824725151062 0.104440644383430481 -0.0592733100056648254
0.11132185161113739 0.0960993841290473938 -0.0145299872383475304
0.386090517044067383 -0.264150410890579224 0.196093097329139709
-0.015435720793902874 0.00370111851952970028 0.2226581871509552
-0.437640666961669922 -0.013312922790646553 -0.0320936255156993866
-0.136218652129173279 -0.0368807986378669739 0.0951951369643211365
0.0254501104354858398 0.143133163452148438 0.294488757848739624
-0.554758369922637939 0.151364251971244812 -0.113290682435035706
0.0427920110523700714 -0.0579232946038246155 0.153678849339485168
-0.155787006020545959 -0.00181245501153171062 0.156156137585639954
0.0369018875062465668 0.139701634645462036 0.0899546295404434204
-0.461998313665390015 0.00814530253410339355 0.166746184229850769
-0.286819577217102051 -0.0534571185708045959 0.135387212038040161
0.207557007670402527 -0.153079062700271606 0.212525695562362671
0.0319594666361808777 0.118852287530899048 0.0910571441054344177
0.32123100757598877 -0.171728149056434631 0.010433604009449482
0.301135659217834473 -0.123828686773777008 -0.0416851863265037537
-0.377193033695220947 -0.00736058736220002174 -0.0300998464226722717
0.448255985975265503 -0.272440463304519653 0.0941772386431694031
0.317539125680923462 -0.117115475237369537 0.0134406359866261482
0.157553791999816895 -0.0909520834684371948 0.212632834911346436
-0.162445098161697388 0.146881744265556335 0.0703548640012741089
0.456222891807556152 -0.108318917453289032 -0.231565564870834351
-0.577524840831756592 0.244767725467681885 -0.119884364306926727
-0.571559369564056396 0.295055121183395386 -0.0640652105212211609
0.517910480499267578 -0.242120161652565002 -0.158939346671104431
-0.36973649263381958 0.099022991955280304 -0.0740302279591560364
-0.61393052339553833 0.263994574546813965 0.0385728403925895691
0.34285581111907959 -0.328671187162399292 -0.106449902057647705
0.340345650911331177 -0.189069598913192749 0.160205543041229248
0.532218217849731445 -0.247176587581634521 0.0925007835030555725
0.143330499529838562 0.078943304717540741 0.0920459181070327759
-0.57229083776473999 0.305392026901245117 -0.0513179339468479156
0.271068811416625977 0.00552077032625675201 0.0706810876727104187
-0.625150442123413086 0.19345267117023468 -0.0882665887475013733
-0.461303025484085083 0.292231500148773193 -0.0617620348930358887
-0.152716398239135742 0.180475637316703796 0.0908004343509674072
-0.549104809761047363 0.174483835697174072 -0.044030897319316864
-0.543831408023834229 0.278089672327041626 0.171696871519088745
0.40097162127494812 -0.233613550662994385 -0.0237439237534999847
0.286524057388305664 -0.0622686445713043213 -0.0971654653549194336
0.221432939171791077 0.0403138399124145508 -0.070458926260471344
0.103029638528823853 -0.138183176517486572 0.210649669170379639
0.115091055631637573 0.0727662593126296997 0.316296309232711792
-0.370562911033630371 0.118771448731422424 0.236886069178581238
-0.0233026910573244095 -0.0571661069989204407 0.137358143925666809
0.221605405211448669 -0.235774904489517212 0.0973614081740379333
0.075446784496307373 0.0651640221476554871 0.0340125821530818939
-0.383864462375640869 -0.0577043779194355011 0.104180693626403809
0.103964395821094513 0.0793832167983055115 0.125927209854125977
0.251924037933349609 0.0289243198931217194 -0.0660684183239936829
-0.37240302562713623 0.269791513681411743 0.113579869270324707
0.0321558043360710144 -0.0553331859409809113 0.302070021629333496
-0.0152009651064872742 0.138023361563682556 0.091980859637260437
-0.501563906669616699 0.0959581062197685242 -0.127879902720451355
-0.345813065767288208 0.0127630205824971199 0.150565430521965027
0.52661430835723877 -0.0544748827815055847 -0.309582054615020752
-0.500182151794433594 0.136180281639099121 -0.240889370441436768
0.472862005233764648 -0.268819689750671387 0.112943440675735474
0.37684863805770874 -0.133745595812797546 -0.0481614731252193451
0.234583184123039246 0.093141801655292511 -0.0406174622476100922
0.137162819504737854 0.0131286438554525375 0.284507632255554199
0.520601332187652588 -0.204382225871086121 -0.0885940119624137878
-0.536408126354217529 0.125058531761169434 -0.105783842504024506
-0.57932591438293457 0.292936801910400391 -0.00107071595266461372
0.482578426599502563 -0.324885636568069458 0.0998722314834594727
0.499337822198867798 -0.269385874271392822 0.0356400161981582642
0.492973238229751587 -0.329896718263626099 -0.0632712915539741516
-0.483499467372894287 0.120605193078517914 -0.0455459654331207275
-0.591598451137542725 0.301727741956710815 0.17564024031162262
0.483358889818191528 -0.322775125503540039 0.134220391511917114
0.505751907825469971 -0.303328186273574829 -0.104261323809623718
-0.381212711334228516 0.317279726266860962 0.158682152628898621
-0.546412765979766846 0.334621787071228027 0.134240925312042236
0.460370808839797974 -0.259230643510818481 0.114678904414176941
0.533832311630249023 -0.207140430808067322 -0.0882285833358764648
0.51329272985458374 -0.231556534767150879 -0.30519518256187439
-0.554048657417297363 0.259824782609939575 -0.0208864454180002213
0.461270391941070557 -0.304422944784164429 0.10872332751750946
-0.451965421438217163 0.112982355058193207 -0.224944069981575012
0.486234128475189209 -0.313963502645492554 -0.303838849067687988
-0.559453070163726807 0.317798465490341187 0.354626893997192383
0.179226323962211609 -0.103950515389442444 -0.0163674447685480118
0.30614006519317627 0.0183239411562681198 -0.111967258155345917
0.506274878978729248 -0.337681055068969727 0.0246423259377479553
0.404620558023452759 0.0228279717266559601 0.00789163913577795029
0.475152671337127686 -0.287999987602233887 -0.30032464861869812
0.0104764141142368317 0.154338672757148743 0.0573463626205921173
0.523110926151275635 -0.30024564266204834 -0.09819832444190979
-0.380873441696166992 0.334200531244277954 0.204942986369132996
-0.551018595695495605 0.337680518627166748 0.124679036438465118
0.418435335159301758 -0.252469569444656372 0.0977376475930213928
-0.580095469951629639 0.208532243967056274 -0.214879706501960754
0.278290480375289917 -0.0849918797612190247 0.190304189920425415
-0.129809364676475525 0.224735990166664124 0.126481175422668457
-0.382203489542007446 0.104321449995040894 -0.0632682666182518005
0.551432669162750244 -0.219975009560585022 0.113982580602169037
0.383574008941650391 -0.242336481809616089 0.313658475875854492
-0.552712380886077881 0.163385137915611267 0.0798700898885726929
-0.134484022855758667 0.201661959290504456 0.168390914797782898
0.24221096932888031 0.110125832259654999 -0.0492304787039756775
0.11643034964799881 0.0399709604680538177 0.328073650598526001
-0.559127330780029297 0.278237223625183105 0.00254869763739407063
0.319816023111343384 -0.132592394948005676 -0.0800001770257949829
-0.574941813945770264 0.200562387704849243 -0.225826054811477661
0.207782119512557983 0.118146508932113647 0.0449858345091342926
0.463689237833023071 -0.308075815439224243 0.134501874446868896
-0.585292220115661621 0.31995275616645813 -0.0247474964708089828
0.530402183532714844 -0.253285735845565796 0.097943134605884552
-0.309731334447860718 0.082827448844909668 -0.0722247734665870667
-0.449427664279937744 0.00879114121198654175 -0.140058979392051697
-0.301136553287506104 0.29097980260848999 0.146390676498413086
-0.526358246803283691 0.181868270039558411 -0.21513696014881134
-0.391556471586227417 -0.0582974925637245178 0.100862413644790649
-0.545261383056640625 0.263018190860748291 -0.16458931565284729
0.313605278730392456 -0.333898335695266724 0.197583064436912537
-0.0598048754036426544 0.0941803604364395142 0.321223020553588867
-0.101665914058685303 0.144009143114089966 0.0935198590159416199
0.499722093343734741 -0.362625598907470703 0.0761044248938560486
0.348874211311340332 -0.282645851373672485 -0.135216176509857178
-0.412268519401550293 0.198384940624237061 0.0364665910601615906
-0.345083683729171753 0.251984506845474243 -0.0133832814171910286
-0.267388403415679932 0.0792554020881652832 -0.0145842526108026505
-0.180702731013298035 0.018921390175819397 0.0396496467292308807
-0.553259193897247314 0.212889939546585083 -0.0472773052752017975
0.407723426818847656 -0.400615781545639038 -0.215855732560157776
0.517609179019927979 -0.284974068403244019 -0.100504063069820404
0.395185172557830811 -0.264206200838088989 -0.193910554051399231
0.497823506593704224 -0.274047434329986572 -0.300979048013687134
0.434469550848007202 -0.257051527500152588 -0.00206893263384699821
-0.154365107417106628 -0.243754550814628601 0.148918494582176208
-0.629977822303771973 0.194643318653106689 -0.0475782826542854309
-0.354826986789703369 0.000734092725906521082 -0.151048570871353149
-0.500953793525695801 0.146534144878387451 0.346331357955932617
-0.331541508436203003 0.300004154443740845 0.191131949424743652
-0.334456562995910645 -0.0312621034681797028 -0.132196590304374695
0.11307942122220993 0.0956652015447616577 0.0291900578886270523
0.470025211572647095 -0.134762376546859741 0.0992248430848121643
0.398915380239486694 -0.304709166288375854 0.144994497299194336
-0.4571075439453125 0.167916849255561829 0.11690889298915863
-0.536163926124572754 0.287560373544692993 0.0422477163374423981
-0.27616727352142334 -0.127281919121742249 0.0820054560899734497
-0.482878953218460083 0.249385163187980652 -0.102786868810653687
0.171105489134788513 -0.271728187799453735 0.0365580171346664429
-0.344523102045059204 0.103792250156402588 0.00665106205269694328
-0.365872323513031006 0.28324425220489502 0.087122306227684021
0.386489689350128174 -0.229749158024787903 -0.121913120150566101
-0.352939248085021973 0.00279294140636920929 0.0354035980999469757
-0.517895221710205078 0.2022724449634552 0.0493179783225059509
-0.384835928678512573 0.183171123266220093 0.0922739803791046143
-0.571632504463195801 0.328386038541793823 -0.011461249552667141
-0.33891865611076355 -0.0873906910419464111 -0.0538177862763404846
-0.136846467852592468 -0.268639892339706421 0.130444228649139404
0.274972230195999146 -0.165572285652160645 0.0548973418772220612
0.3130912184715271 -0.302321285009384155 -0.128470942378044128
-0.381116300821304321 0.250586599111557007 0.233530715107917786
0.310664564371109009 -0.216872423887252808 0.201104894280433655
0.496331244707107544 -0.254713922739028931 -0.105616539716720581
-0.118939146399497986 0.0728773027658462524 0.173700422048568726
0.512511730194091797 -0.36172330379486084 -0.0308713670819997787
-0.509001612663269043 0.26929175853729248 -0.00474569480866193771
-0.595018506050109863 0.244155079126358032 -0.00250228820368647575
-0.586145222187042236 0.251240402460098267 0.194500237703323364
-0.547586143016815186 0.121544934809207916 -0.133937448263168335
-0.244862362742424011 0.183025240898132324 0.357071876525878906
0.462412983179092407 -0.263971716165542603 -0.290528595447540283
0.456134051084518433 -0.255714237689971924 -0.187058478593826294
0.519410073757171631 -0.302600711584091187 0.0443599075078964233
-0.625510275363922119 0.200476899743080139 0.0451461970806121826
-0.255679905414581299 -0.00433408701792359352 -0.061997435986995697
0.24546600878238678 0.0992341786623001099 -0.0690736696124076843
0.504945337772369385 -0.159763172268867493 0.130686670541763306
0.343112468719482422 -0.0698044970631599426 0.161940127611160278
0.399834156036376953 -0.236873924732208252 0.130216881632804871
-0.359503686428070068 -0.118449099361896515 0.116678632795810699
-0.478891551494598389 0.189891383051872253 0.0641832053661346436
-0.574520885944366455 0.342215895652770996 0.0255255084484815598
-0.358875244855880737 -0.0630028173327445984 0.0910572931170463562
-0.342628389596939087 0.0119556980207562447 -0.114192180335521698
0.302975267171859741 -0.295600652694702148 0.162019893527030945
-0.504502296447753906 0.221217721700668335 0.142127841711044312
-0.48501819372177124 0.0287257693707942963 -0.0466256439685821533
0.0332128703594207764 0.0881966352462768555 0.0878651589155197144
-0.231413200497627258 0.347451329231262207 0.148992106318473816
0.0319288857281208038 0.0107580944895744324 0.0421087667346000671
-0.365579873323440552 -0.0364035218954086304 -0.032522737979888916
-0.0481270775198936462 -0.233907699584960938 0.301849782466888428
0.185859769582748413 -0.2925892174243927 0.00369113567285239697
0.234670147299766541 -0.0113953668624162674 0.23018278181552887
-0.526318192481994629 0.140932753682136536 0.0682757720351219177
-0.5201529860496521 0.201676428318023682 -0.0670996680855751038
-0.552107930183410645 0.285948127508163452 0.107782721519470215
0.143772587180137634 0.00799546390771865845 0.307773560285568237
0.0679427310824394226 -0.285880863666534424 -0.0813765674829483032
-0.361858755350112915 0.0355818606913089752 -0.160927072167396545
0.307329535484313965 -0.293445020914077759 0.0294804032891988754
-0.339159160852432251 0.213708043098449707 0.159408703446388245
-0.188083857297897339 0.200308561325073242 0.367934048175811768
-0.539927661418914795 0.2551097571849823 -0.0838185548782348633
0.522608160972595215 -0.199522107839584351 -0.0928377509117126465
-0.518910586833953857 0.1855936199426651 0.136747494339942932
-0.543534696102142334 0.270224243402481079 -0.00213905097916722298
0.471085876226425171 -0.326119035482406616 0.0444630049169063568
0.28885611891746521 0.0311606265604496002 0.0536430440843105316
0.433225393295288086 -0.305943459272384644 -0.285196900367736816
-0.518477380275726318 0.0903041139245033264 -0.134778439998626709
-0.600465893745422363 0.285526096820831299 0.184253543615341187
0.46761283278465271 -0.321044594049453735 0.127239227294921875
0.467576712369918823 -0.260483294725418091 -0.293794184923171997
-0.403923928737640381 0.300804227590560913 0.14307132363319397
-0.454123109579086304 0.119739025831222534 -0.223611623048782349
0.481498837471008301 -0.311768084764480591 -0.302602887153625488
0.468167692422866821 -0.330599784851074219 -0.00313302432186901569
0.457226455211639404 -0.305198460817337036 -0.292537182569503784
0.524246513843536377 -0.261872231960296631 -0.102200232446193695
-0.408681750297546387 0.318903684616088867 0.162934646010398865
-0.560690701007843018 0.267754852771759033 0.365508168935775757
-0.576035618782043457 0.210791110992431641 -0.200468286871910095
0.44737166166305542 -0.296498239040374756 -0.223165169358253479
0.31036674976348877 -0.0761135220527648926 0.148713350296020508
0.534650027751922607 -0.248195633292198181 0.100987575948238373
-0.562466859817504883 0.120028883218765259 -0.232916444540023804
-0.408093094825744629 0.0769843980669975281 -0.11627119779586792
-0.579599320888519287 0.356586158275604248 0.0829227492213249207
0.041356842964887619 0.114698052406311035 0.312347233295440674
-0.456553220748901367 0.00918038655072450638 0.181890115141868591
0.409380614757537842 -0.343811273574829102 0.159792184829711914
-0.554635405540466309 0.288730442523956299 -0.04892759770154953
0.543156802654266357 -0.25585368275642395 0.113422870635986328
0.0239417944103479385 -0.249529451131820679 0.205094307661056519
0.195484057068824768 0.130200669169425964 0.0347737520933151245
0.315436482429504395 -0.370360195636749268 -0.157075107097625732
0.110553346574306488 0.0597178451716899872 0.319013237953186035
-0.314847201108932495 0.306683987379074097 0.284341901540756226
-0.254420846700668335 -0.132387325167655945 -0.0729752928018569946
-0.386447012424468994 -0.0598803311586380005 0.106637202203273773
0.453135102987289429 -0.0726346969604492188 -0.116629749536514282
0.315780192613601685 -0.332931727170944214 0.195712864398956299
0.297705560922622681 0.0383024364709854126 0.0499416850507259369
0.475864887237548828 -0.330861985683441162 0.136211469769477844
0.439765810966491699 -0.267387330532073975 -0.282395601272583008
0.461412817239761353 -0.272961705923080444 0.137765169143676758
0.504054903984069824 -0.346284657716751099 0.0172671414911746979
0.518976390361785889 -0.269461333751678467 -0.0873298272490501404
0.498686105012893677 -0.0880020037293434143 0.161566317081451416
0.542307376861572266 -0.215170413255691528 0.110601536929607391
-0.577023804187774658 0.32710796594619751 0.08072672039270401
0.246607929468154907 0.111476905643939972 -0.0545252151787281036
0.0335420779883861542 0.0685728266835212708 0.272534281015396118
-0.561995863914489746 0.275493502616882324 0.0242427382618188858
-0.613912701606750488 0.27225959300994873 0.0388422869145870209
0.535665810108184814 -0.239143311977386475 0.102641500532627106
-0.57599031925201416 0.212957620620727539 -0.116405554115772247
-0.424981057643890381 0.0309755131602287292 -0.188249498605728149
0.304444611072540283 -0.126277819275856018 -0.108443833887577057
-0.385062187910079956 -0.0553954318165779114 0.100878484547138214
-0.603215336799621582 0.259800225496292114 0.0177420470863580704
-0.460660159587860107 0.306585818529129028 0.0814839377999305725
0.504920780658721924 -0.263828009366989136 -0.109438732266426086
0.534659326076507568 -0.192257508635520935 0.0284537356346845627
-0.616144776344299316 0.210723325610160828 -0.0558238662779331207
0.452574193477630615 -0.123496949672698975 0.0891447663307189941
0.0335918702185153961 -0.279212981462478638 -0.0357407741248607635
0.401951104402542114 -0.31865614652633667 0.130758479237556458
-0.0938809961080551147 0.0742473378777503967 0.293296903371810913
0.243169084191322327 -0.136594563722610474 0.0110228713601827621
0.16131022572517395 -0.271276980638504028 0.0438637174665927887
-0.590540707111358643 0.369370102882385254 0.0905254706740379333
0.0270136594772338867 -0.0114719504490494728 0.0279809664934873581
0.195711210370063782 0.0341921150684356689 0.178064078092575073
-0.306102663278579712 -0.091108173131942749 0.305634260177612305
0.493729561567306519 -0.366702795028686523 0.0196550022810697556
0.521640360355377197 -0.31127321720123291 0.0458467975258827209
0.502656817436218262 -0.153387591242790222 0.118740066885948181
0.0808173641562461853 -0.271762609481811523 -0.0594804473221302032
-0.325376510620117188 -0.102903351187705994 0.0886128917336463928
-0.586152195930480957 0.335044980049133301 0.0188895110040903091
-0.0738927945494651794 -0.235459059476852417 0.301727384328842163
0.194299072027206421 -0.339636445045471191 -0.0623559430241584778
-0.398839235305786133 0.272347927093505859 -0.0543386340141296387
-0.521666526794433594 0.0444083660840988159 -0.0574233829975128174
-0.25778961181640625 0.142514452338218689 0.0914892479777336121
-0.213492825627326965 -0.135426506400108337 -0.0630689486861228943
0.508530974388122559 -0.104567274451255798 0.144053190946578979
0.214087739586830139 -0.279415726661682129 -0.00933419167995452881
0.238066792488098145 -0.0758734792470932007 0.126777902245521545
-0.140424132347106934 0.296783804893493652 0.147984907031059265
-0.655921876430511475 0.171697452664375305 -0.112161979079246521
0.253263235092163086 -0.00927898567169904709 0.24983622133731842
0.250179052352905273 -0.178633153438568115 0.302600651979446411
-0.262996315956115723 -0.136675447225570679 -0.0674552544951438904
-0.200789332389831543 0.314615041017532349 0.099152691662311554
0.25769960880279541 -0.277819395065307617 0.322934567928314209
0.178786396980285645 -0.053842104971408844 -0.051026608794927597
-0.443220227956771851 -0.0663520768284797668 0.12932819128036499
-0.503706753253936768 0.0303294993937015533 0.247418999671936035
-0.496954411268234253 0.036794755607843399 -0.0113796470686793327
0.232585713267326355 0.0230074767023324966 0.313947319984436035
-0.371327519416809082 -0.0454477816820144653 0.143581897020339966
-0.348874956369400024 0.10686560720205307 0.0662099123001098633
0.307519614696502686 -0.198608919978141785 0.242779210209846497
0.30831986665725708 -0.00535319186747074127 0.219423264265060425
-0.442734628915786743 0.266860812902450562 -0.0369694717228412628
0.517133414745330811 -0.326392471790313721 -0.0814688131213188171
-0.53869020938873291 0.138713762164115906 -0.0968588441610336304
0.465758204460144043 -0.12427867203950882 0.00179481192026287317
-0.385302931070327759 0.255624890327453613 0.03302764892578125
0.493922322988510132 -0.301750361919403076 0.120921395719051361
0.465294808149337769 -0.106028594076633453 0.0593794919550418854
0.203673601150512695 0.0154086034744977951 -0.0422704480588436127
-0.224546536803245544 0.295996665954589844 0.158882409334182739
-0.125101044774055481 -0.0486790500581264496 0.0110580176115036011
-0.231689795851707458 0.228623896837234497 0.348327100276947021
-0.380715072154998779 -0.0540067143738269806 0.145698472857475281
0.341152429580688477 -0.0735854580998420715 0.0475562550127506256
-0.435848861932754517 -0.0119237042963504791 0.0343340002000331879
0.205314427614212036 0.0168317202478647232 0.0703432857990264893
0.0561718940734863281 -0.0857076495885848999 0.239330977201461792
-0.383800208568572998 -0.059192318469285965 0.116813682019710541
-0.136707454919815063 -0.264463275671005249 -0.00100938358809798956
-0.243712484836578369 0.063848346471786499 0.245012253522872925
-0.542020559310913086 0.21108756959438324 0.163044452667236328
-0.590635120868682861 0.287371993064880371 -0.00694121234118938446
0.306899130344390869 0.0178070329129695892 0.0427667535841464996
0.478493213653564453 -0.314588606357574463 -0.305478274822235107
0.503776967525482178 -0.345344632863998413 -0.0638733953237533569
0.471653074026107788 -0.304961651563644409 0.114943623542785645
0.527153432369232178 -0.302718967199325562 -0.109466932713985443
-0.402802526950836182 0.311745643615722656 0.134977102279663086
0.517944276332855225 -0.251104652881622314 -0.307483643293380737
0.50761723518371582 -0.328873395919799805 -0.314838230609893799
0.518852829933166504 -0.331171423196792603 0.0914866328239440918
0.477378994226455688 -0.304060608148574829 -0.303119629621505737
0.527611970901489258 -0.285462647676467896 -0.108085446059703827
-0.559806883335113525 0.267371118068695068 0.365894019603729248
-0.640033245086669922 0.289755731821060181 0.0855153948068618774
0.371384978294372559 -0.400930821895599365 -0.217546343803405762
-0.449634820222854614 -0.000733644992578774691 0.17537371814250946
0.176387518644332886 0.0731720998883247375 0.00663018273189663887
-0.453420966863632202 0.134964689612388611 -0.213316932320594788
0.403101712465286255 -0.335657447576522827 0.128902062773704529
-0.598779976367950439 0.207601726055145264 0.00115335348527878523
0.247526347637176514 -0.114306226372718811 -0.0708209499716758728
-0.483022570610046387 0.182992443442344666 -0.209716424345970154
-0.375971853733062744 -0.0627367869019508362 0.0919483527541160583
0.522964060306549072 -0.320769578218460083 0.0357824787497520447
0.542449891567230225 -0.217235878109931946 0.108128972351551056
0.525774836540222168 -0.273349344730377197 0.0552081428468227386
0.111153766512870789 0.084274686872959137 0.317307829856872559
-0.350739330053329468 -0.0475457571446895599 0.0452574118971824646
0.105067163705825806 0.0724260509014129639 0.295550763607025146
-0.165232136845588684 0.133301034569740295 0.151533544063568115
0.502821743488311768 -0.25630304217338562 -0.102556623518466949
0.42894098162651062 -0.303662478923797607 0.135860234498977661
-0.355552971363067627 -0.101056627929210663 0.159279406070709229
0.498675435781478882 -0.201449498534202576 -0.108027175068855286
-0.578300774097442627 0.348253905773162842 0.152479544281959534
0.105030126869678497 -0.0112721594050526619 0.0212347898632287979
-0.341042399406433105 -0.122986286878585815 0.104830116033554077
-0.120609357953071594 -0.275242507457733154 0.174219697713851929
-0.161071091890335083 0.167525768280029297 0.325358211994171143
0.515070974826812744 -0.358393311500549316 0.0267228223383426666
0.521118223667144775 -0.287392705678939819 -0.0117646288126707077
0.478908628225326538 -0.139813914895057678 0.107521787285804749
-0.180748403072357178 0.0296082198619842529 0.0261262878775596619
-0.341758310794830322 -0.121208027005195618 0.103973716497421265
-0.599999070167541504 0.376944810152053833 0.188740253448486328
-0.119607388973236084 -0.266366839408874512 0.218468040227890015
0.523529529571533203 -0.308634430170059204 -0.0748614221811294556
0.516389548778533936 -0.251918256282806396 -0.309606492519378662
0.455026477575302124 -0.308006584644317627 -0.294524163007736206
0.240574508905410767 -0.095757409930229187 0.158640161156654358
-0.620000958442687988 0.272445559501647949 0.037533096969127655
-0.429717987775802612 -0.00347066158428788185 0.177601531147956848
-0.250205308198928833 -0.136450693011283875 -0.0708395317196846008
0.317310988903045654 -0.318731546401977539 0.122532039880752563
0.539380013942718506 -0.249545052647590637 0.106520220637321472
0.45275309681892395 -0.139606311917304993 0.0153504824265837669
0.429377973079681396 -0.320806682109832764 0.123651579022407532
0.413332998752593994 -0.330574870109558105 -0.209833681583404541
0.473844170570373535 -0.128392681479454041 0.109407141804695129
-0.548756539821624756 0.378760069608688354 0.172948956489562988
0.190549954771995544 -0.339482486248016357 -0.0132468240335583687
-0.201509565114974976 -0.134986862540245056 -0.0681938081979751587
-0.185431927442550659 0.31232905387878418 0.11813751608133316
0.103307448327541351 0.107980936765670776 0.17453397810459137
-0.444068819284439087 -0.0539210401475429535 0.0921502187848091125
-0.489108771085739136 0.0304299723356962204 0.0171971675008535385
0.231358736753463745 0.0112128015607595444 0.315025597810745239
-0.0246684812009334564 0.113433972001075745 0.312620222568511963
0.243216753005981445 -0.0384089387953281403 0.204660281538963318
-0.384650170803070068 0.245643571019172668 0.0346169434487819672
-0.653815209865570068 0.216970488429069519 -0.0388634800910949707
0.483039319515228271 -0.116061672568321228 0.0233556181192398071
0.122165925800800323 0.0797703340649604797 0.138640224933624268
-0.381673157215118408 -0.0721663236618041992 0.0958952009677886963
0.319681227207183838 -0.0721417739987373352 0.0623916499316692352
-0.440386652946472168 -0.0112487068399786949 0.00719064008444547653
-0.501943469047546387 0.233979880809783936 -0.0707248672842979431
-0.546994447708129883 0.203727930784225464 -0.068124815821647644
0.0885729566216468811 0.0919689536094665527 0.080140724778175354
-0.519632160663604736 0.204844549298286438 -0.0467848740518093109
-0.168109521269798279 0.0727170482277870178 0.232715919613838196
-0.057208329439163208 -0.186421170830726624 0.0270176399499177933
-0.212366342544555664 0.291039764881134033 0.109391510486602783
0.249622225761413574 -0.0051763877272605896 0.0223809853196144104
-0.555554211139678955 0.204620003700256348 0.118710681796073914
-0.457098722457885742 0.216745823621749878 0.0248860865831375122
-0.462396025657653809 0.26677238941192627 -0.00235444121062755585
-0.575187087059020996 0.247845649719238281 -0.0760435909032821655
-0.389133661985397339 0.275448352098464966 -0.0837619826197624207
0.343784809112548828 -0.134491264820098877 0.318778932094573975
-0.498361796140670776 0.207136675715446472 -0.011238710954785347
-0.34578549861907959 0.293139159679412842 -0.0497923307120800018
0.526074469089508057 -0.360819846391677856 0.0416208840906620026
-0.539719343185424805 0.215373396873474121 0.201407060027122498
-0.5690651535987854 0.294596374034881592 -0.0027473915833979845
0.316574543714523315 0.0239273067563772202 0.0487451143562793732
0.482114821672439575 -0.306735783815383911 -0.303789079189300537
0.479762136936187744 -0.326076269149780273 0.12522357702255249
0.523299813270568848 -0.306770414113998413 -0.0988533198833465576
0.490470230579376221 -0.310504496097564697 -0.307550013065338135
0.516296625137329102 -0.324805021286010742 0.119676768779754639
0.444628894329071045 -0.299925446510314941 -0.29075920581817627
0.523316800594329834 -0.304321974515914917 -0.0975164324045181274
0.134234696626663208 0.11656855046749115 0.337138921022415161
-0.642162561416625977 0.242819666862487793 -0.00905495788902044296
-0.292383402585983276 -0.113425359129905701 -0.10539601743221283
0.53931879997253418 -0.255280196666717529 0.0920205935835838318
0.129094794392585754 0.0977906659245491028 0.317417055368423462
-0.235010907053947449 -0.143092691898345947 -0.07107582688331604
0.252437740564346313 0.0302887298166751862 -0.08590659499168396
0.531055986881256104 -0.322913169860839844 0.00667155813425779343
-0.599139213562011719 0.307538837194442749 0.104870416224002838
0.532171130180358887 -0.24445594847202301 0.0863752439618110657
-0.373858422040939331 -0.0604345053434371948 0.0926077738404273987
0.526665985584259033 -0.275090217590332031 -0.12339705228805542
-0.500946342945098877 0.148964270949363708 0.353338003158569336
0.385183513164520264 -0.297398269176483154 0.131725296378135681
0.13278476893901825 -0.331615805625915527 -0.10034063458442688
0.52285611629486084 -0.354628264904022217 -0.0150853404775261879
-0.436254739761352539 0.150849029421806335 -0.0846438929438591003
0.51584327220916748 -0.299887269735336304 0.0645437613129615784
0.393151015043258667 -0.36760413646697998 -0.213776037096977234
0.500579178333282471 -0.171286731958389282 0.129871174693107605
0.533324539661407471 -0.333780139684677124 0.0282281059771776199
-0.579709410667419434 0.349051475524902344 0.0406855829060077667
0.520071089267730713 -0.240679174661636353 -0.308851540088653564
-0.600812017917633057 0.370802849531173706 0.105043917894363403
-0.500447511672973633 0.147335782647132874 0.355542123317718506
0.233974233269691467 -0.277589529752731323 0.317344069480895996
-0.181164741516113281 -0.1366167813539505 -0.0553617402911186218
-0.228178724646568298 -0.137558251619338989 -0.0532474517822265625
-0.204175621271133423 0.298635303974151611 0.126971721649169922
0.262532293796539307 -0.289409071207046509 0.323618829250335693
-0.362091392278671265 -0.030152907595038414 0.119819782674312592
-0.499885112047195435 0.0197678208351135254 0.0322324000298976898
0.242842957377433777 0.000286492664599791169 0.322259336709976196
0.141356185078620911 -0.290116488933563232 0.311743170022964478
0.308098018169403076 -0.207321897149085999 0.248116269707679749
-0.385961323976516724 0.255164742469787598 0.0346721448004245758
0.531187176704406738 -0.262068003416061401 0.102748818695545197
0.224054515361785889 0.0229361411184072495 0.305429369211196899
0.530675411224365234 -0.147161275148391724 -0.308386117219924927
-0.644668638706207275 0.231612816452980042 -0.0470947884023189545
0.541371166706085205 -0.310713350772857666 -0.0446054078638553619
0.507906675338745117 -0.26749342679977417 -0.311627805233001709
0.514395833015441895 -0.315837085247039795 -0.295220673084259033
0.458928585052490234 -0.2906075119972229 -0.296702116727828979
-0.54289478063583374 0.268421769142150879 -0.188937276601791382
-0.621241867542266846 0.289185047149658203 0.0670489594340324402
0.363511741161346436 -0.383924245834350586 -0.206176549196243286
-0.0924269556999206543 0.267499566078186035 0.18954816460609436
-0.448236316442489624 0.131682530045509338 -0.208423808217048645
-0.57523733377456665 0.204074859619140625 -0.126691475510597229
-0.629873394966125488 0.191983714699745178 -0.0395246073603630066
-0.469537585973739624 0.13932017982006073 -0.230721607804298401
0.25766676664352417 -0.0167913120239973068 -0.0721070989966392517
0.230517476797103882 0.054141070693731308 -0.0451645776629447937
0.113049529492855072 0.110002912580966949 0.301695376634597778
-0.583890795707702637 0.218690022826194763 -0.221048802137374878
-0.598023176193237305 0.235502481460571289 -0.0104010589420795441
-0.366823345422744751 -0.0912940502166748047 0.123064130544662476
-0.329819232225418091 -0.124913051724433899 0.137493088841438293
-0.634404420852661133 0.199897974729537964 -0.0379407517611980438
-0.425484806299209595 -0.0544880032539367676 0.0995026901364326477
-0.477857351303100586 0.0205484535545110703 -0.0362132042646408081
0.208639234304428101 0.00881867203861474991 0.300815671682357788
-0.633992671966552734 0.248347580432891846 -0.00562687870115041733
-0.127977609634399414 0.270175844430923462 0.132443517446517944
0.27106669545173645 -0.329953163862228394 0.180038556456565857
0.533129632472991943 -0.209867775440216064 -0.0990307256579399109
-0.126338839530944824 -0.11220850795507431 -0.0545943565666675568
0.454228967428207397 -0.338567286729812622 -0.298211932182312012
-0.212470173835754395 0.0366568043828010559 -0.0594373643398284912
-0.553009688854217529 0.17609618604183197 0.0131486356258392334
-0.198422476649284363 0.140013426542282104 0.0213670916855335236
-0.012483593076467514 -0.102105386555194855 -0.0427986942231655121
0.264737933874130249 -0.274584949016571045 0.20238378643989563
0.348708420991897583 -0.320771664381027222 -0.000126571496366523206
-0.155850380659103394 0.0701866894960403442 0.0277373865246772766
-0.249076128005981445 0.131200939416885376 -0.0341869033873081207
0.19910942018032074 0.00197927304543554783 0.0190737470984458923
0.0763559192419052124 0.0812127068638801575 0.0240310709923505783
-0.283320367336273193 0.2886466383934021 -0.00565955694764852524
0.477012157440185547 -0.289497554302215576 -0.301871776580810547
-0.556706726551055908 0.266058951616287231 -0.0168865881860256195
-0.237262874841690063 0.0980541184544563293 -0.0322074703872203827
0.137854874134063721 -0.280447989702224731 0.150086298584938049
0.296383261680603027 -0.29703947901725769 0.0568482056260108948
-0.28592216968536377 0.257631957530975342 0.000818408560007810593
-0.0210319012403488159 -0.0399690829217433929 0.0891188457608222961
0.204477846622467041 0.0430606380105018616 0.0656854286789894104
-0.143631145358085632 -0.0847508013248443604 0.0918810442090034485
0.37251734733581543 -0.0731067731976509094 0.0314422249794006348
0.521425962448120117 -0.198807403445243835 -0.0987190082669258118
0.487156122922897339 -0.297497957944869995 -0.305525928735733032
0.480484932661056519 -0.314540445804595947 0.122117653489112854
0.513674020767211914 -0.306880772113800049 -0.102598734200000763
0.496080070734024048 -0.309128463268280029 -0.309892207384109497
0.506227731704711914 -0.327517867088317871 -0.00431889621540904045
0.511796116828918457 -0.324240714311599731 0.118141748011112213
0.465938419103622437 -0.288397043943405151 -0.29672473669052124
0.438029050827026367 -0.263100475072860718 -0.194446548819541931
0.135042011737823486 0.11721549928188324 0.337054163217544556
0.396561145782470703 -0.244078949093818665 0.318600058555603027
-0.601481139659881592 0.354578107595443726 0.0659265220165252686
-0.50509190559387207 0.357482045888900757 0.178649231791496277
0.542699158191680908 -0.282224953174591064 0.0976881161332130432
0.256379634141921997 0.0372454822063446045 -0.0721112340688705444
-0.233096271753311157 0.15638384222984314 -0.0050500994548201561
0.506218135356903076 -0.33168444037437439 -0.00274146394804120064
0.44483494758605957 -0.249686554074287415 -0.228169366717338562
-0.639005184173583984 0.254820495843887329 0.0549344420433044434
0.532666683197021484 -0.262401491403579712 0.0930089429020881653
-0.393034040927886963 -0.0588102415204048157 0.100672811269760132
0.523977398872375488 -0.289350509643554688 -0.0923009812831878662
0.0280271917581558228 -0.273696452379226685 -0.0352003462612628937
0.385149300098419189 -0.305729955434799194 0.118651755154132843
-0.58216935396194458 0.367111444473266602 0.132098034024238586
0.240131035447120667 0.00324831926263868809 0.181057348847389221
-0.113055884838104248 0.165821686387062073 0.34767758846282959
0.482234418392181396 -0.368043869733810425 -0.0222495235502719879
0.412257969379425049 -0.320818901062011719 -0.211169347167015076
0.507302999496459961 -0.155252128839492798 0.12378508597612381
0.528876364231109619 -0.334412366151809692 0.0126040177419781685
-0.584109127521514893 0.336735367774963379 0.0345078073441982269
-0.59074324369430542 0.38220563530921936 0.131659865379333496
0.526366293430328369 -0.244038194417953491 -0.310827642679214478
0.474481940269470215 -0.290418565273284912 -0.299624592065811157
-0.597209692001342773 0.353981137275695801 0.170048803091049194
-0.587334275245666504 0.371746480464935303 0.101514242589473724
-0.212001174688339233 -0.129075929522514343 -0.0574743412435054779
0.234304964542388916 -0.292677849531173706 0.314913064241409302
0.237950190901756287 0.0674191415309906006 0.320013254880905151
0.541927933692932129 -0.313551008701324463 -0.0583251304924488068
-0.44462546706199646 -0.0479562319815158844 0.127342447638511658
0.359550714492797852 -0.387998819351196289 -0.209117233753204346
-0.556519389152526855 0.211540728807449341 -0.113265044987201691
0.520883440971374512 -0.279249280691146851 -0.177310287952423096
0.241812646389007568 0.0350653789937496185 0.314488261938095093
0.242679789662361145 0.000811294594313949347 0.0236150957643985748
0.380618035793304443 0.0391979292035102844 0.0117726884782314301
0.526836574077606201 -0.230337783694267273 -0.310335695743560791
0.32691308856010437 0.0965731069445610046 -0.0359967537224292755
-0.374148935079574585 -0.0597725547850131989 -0.132615074515342712
0.512932121753692627 -0.167253181338310242 0.135674625635147095
-0.574485301971435547 0.322340816259384155 0.0498692803084850311
-0.558990418910980225 0.283675342798233032 0.364435583353042603
0.224355891346931458 0.0323555432260036469 -0.0582121498882770538
-0.574277162551879883 0.215010523796081543 -0.220685005187988281
-0.044373195618391037 0.157001495361328125 0.0813540220260620117
0.113982357084751129 0.110476464033126831 0.0255043599754571915
0.3427315354347229 -0.246631622314453125 -0.0969842001795768738
-0.285108029842376709 0.300844877958297729 -0.00254602218046784401
0.15321601927280426 -0.00396321248263120651 -0.00354436459019780159
0.0689477697014808655 0.139257475733757019 0.0757382661104202271
-0.270101279020309448 0.280598908662796021 0.00196886458434164524
0.503416180610656738 -0.292295396327972412 -0.159543648362159729
0.136886373162269592 -0.0253856033086776733 0.0131503939628601074
-0.338994324207305908 -0.0315172299742698669 0.0230473969131708145
0.373332470655441284 -0.091501966118812561 0.0441513210535049438
0.199809372425079346 0.101659953594207764 -0.00182906817644834518
-0.297248810529708862 -0.0245547760277986526 0.036167435348033905
0.131696358323097229 -0.0173730626702308655 -0.0260443557053804398
0.101284801959991455 0.0164765939116477966 0.0912682414054870605
0.175559744238853455 0.119771659374237061 0.0380375497043132782
-0.230507716536521912 -0.0632001906633377075 0.104843229055404663
0.486140310764312744 -0.296361088752746582 -0.30375516414642334
-0.603179275989532471 0.289801955223083496 0.185490608215332031
0.467201113700866699 -0.308418601751327515 0.119879253208637238
0.378187477588653564 -0.0141178769990801811 0.00625670328736305237
0.514423012733459473 -0.295016705989837646 -0.103691868484020233
0.518903672695159912 -0.239427298307418823 -0.307833224534988403
0.477971732616424561 -0.309424906969070435 -0.300504356622695923
0.483443319797515869 -0.274214237928390503 -0.300140053033828735
0.117095902562141418 0.119125694036483765 0.297637999057769775
-0.584186553955078125 0.356647610664367676 0.0661458522081375122
0.383700579404830933 -0.33700937032699585 0.125347301363945007
-0.574454963207244873 0.318015247583389282 -0.0262136217206716537
-0.604406833648681641 0.217484980821609497 -0.0865636169910430908
0.267652750015258789 0.0396421104669570923 -0.0863130092620849609
-0.356337428092956543 -0.0216884352266788483 -0.130904808640480042
-0.56426769495010376 0.314647406339645386 -0.00757384579628705978
0.190625101327896118 -0.340410590171813965 -0.0747869908809661865
0.40418165922164917 -0.357300639152526855 -0.224217072129249573
-0.50019603967666626 0.145920515060424805 0.354885876178741455
0.509605586528778076 -0.151212066411972046 0.114757455885410309
0.496907413005828857 -0.263625204563140869 -0.304621994495391846
0.458017408847808838 -0.280570864677429199 -0.28996807336807251
0.440968751907348633 -0.264650791883468628 -0.283909648656845093
-0.588002443313598633 0.35775148868560791 0.0620604120194911957
0.505202591419219971 -0.126534625887870789 0.124178662896156311
-0.206274539232254028 0.312798380851745605 0.10896388441324234
0.268120914697647095 -0.283725649118423462 0.319073706865310669
0.232439830899238586 0.0038312920369207859 0.317790716886520386
0.513303101062774658 -0.175376787781715393 -0.281999945640563965
-0.115244418382644653 0.0103271454572677612 0.00606839684769511223
0.403913319110870361 -0.359329134225845337 -0.224840268492698669
0.417594641447067261 -0.312961429357528687 0.143582805991172791
-0.555483818054199219 0.376745760440826416 0.18711407482624054
-0.175699755549430847 0.309465289115905762 0.118634343147277832
-0.389729738235473633 0.27642020583152771 -0.0847626402974128723
0.365172863006591797 0.0521357432007789612 0.0244857016950845718
0.129067808389663696 0.116011850535869598 0.31885644793510437
-0.286423027515411377 -0.100084803998470306 -0.0918430984020233154
0.25802573561668396 0.101264901459217072 -0.0620787180960178375
-0.36116364598274231 -0.059329010546207428 -0.143881231546401978
0.134020626544952393 0.113967433571815491 0.337798148393630981
-0.563042759895324707 0.199675559997558594 -0.228665441274642944
-0.276433378458023071 0.288371562957763672 -0.000659885408822447062
0.454926848411560059 -0.246145620942115784 -0.28850516676902771
0.460281252861022949 -0.275103181600570679 -0.291036099195480347
-0.634832978248596191 0.308422505855560303 0.170703813433647156
0.512540936470031738 -0.317181825637817383 -0.0387882068753242493
0.468987554311752319 -0.265503734350204468 -0.298166066408157349
0.478209525346755981 -0.294719845056533813 -0.300448447465896606
0.458185166120529175 -0.24592965841293335 -0.29007837176322937
0.381139099597930908 -0.360659688711166382 -0.214018374681472778
-0.479330241680145264 -0.0121486866846680641 0.186109527945518494
-0.516461849212646484 0.366050362586975098 0.174356967210769653
-0.61848604679107666 0.202377811074256897 -0.0868263691663742065
-0.237251758575439453 0.0192642360925674438 -0.0723286047577857971
-0.382492780685424805 -0.0585739649832248688 0.0239431317895650864
0.474906384944915771 -0.368039339780807495 0.0216187387704849243
-0.649219512939453125 0.237069502472877502 0.0325633659958839417
0.4126109778881073 -0.346402168273925781 -0.221818611025810242
0.526115119457244873 -0.336857110261917114 0.079846404492855072
0.50609356164932251 -0.238726675510406494 -0.308290362358093262
0.24947395920753479 -0.281901240348815918 0.318142443895339966
0.239104434847831726 0.0668500065803527832 0.314557343721389771
0.53964918851852417 -0.30154767632484436 -0.0938826724886894226
-0.447781026363372803 -0.0409617647528648376 0.12677764892578125
-0.0439151860773563385 0.104812614619731903 0.317911982536315918
0.247870251536369324 0.0213068537414073944 0.322112739086151123
-0.284747451543807983 -0.0992186591029167175 -0.0988600030541419983
-0.137738615274429321 -0.0146591365337371826 -0.0486295484006404877
-0.277889043092727661 0.338209062814712524 0.0472458787262439728
-0.254724621772766113 0.290268391370773315 -0.00298910820856690407
-0.218931376934051514 0.322225868701934814 0.0700761377811431885
-0.573184549808502197 0.152633696794509888 -0.0741512998938560486
-0.28995928168296814 0.293071597814559937 0.0162905231118202209
0.525689661502838135 -0.32037004828453064 0.0269640013575553894
0.346058934926986694 -0.0301859807223081589 -0.0345872007310390472
0.522300779819488525 -0.362613707780838013 0.0891836285591125488
-0.0833141431212425232 -0.111395835876464844 0.0786029621958732605
-0.403974145650863647 0.326379835605621338 0.121490001678466797
0.504818379878997803 -0.366770744323730469 -0.00468465965241193771
-0.118759162724018097 0.266430795192718506 0.121129624545574188
0.518782973289489746 -0.342658698558807373 0.0356373749673366547
0.130208477377891541 -0.334264516830444336 0.301218390464782715
0.46665385365486145 -0.310758292675018311 0.0722657367587089539
0.482907533645629883 -0.373697608709335327 0.0521347746253013611
0.421052873134613037 -0.025775497779250145 0.0646942406892776489
0.494208723306655884 -0.363230198621749878 -0.0157284960150718689
-0.232981756329536438 0.287501901388168335 0.0843548327684402466
0.531291842460632324 -0.331463903188705444 -0.00743518862873315811
-0.271969705820083618 0.315736681222915649 0.114189103245735168
0.308165520429611206 0.00289662065915763378 0.0462018698453903198
0.467468351125717163 -0.263112366199493408 -0.296236723661422729
0.473849624395370483 -0.304041922092437744 0.114028044044971466
0.511244475841522217 -0.313342809677124023 -0.104586005210876465
0.509244263172149658 -0.245074242353439331 -0.308609515428543091
0.447990715503692627 -0.292199462652206421 -0.292914897203445435
0.466440260410308838 -0.282968044281005859 -0.297448605298995972
0.138252735137939453 0.1130848228931427 0.336734950542449951
-0.65207219123840332 0.285996735095977783 0.0983609631657600403
-0.638246655464172363 0.245157524943351746 -0.0378512181341648102
0.136235669255256653 0.0695753097534179688 0.337855011224746704
-0.577048003673553467 0.304142266511917114 -0.0552084557712078094
0.262428998947143555 0.0308210086077451706 -0.0735198706388473511
0.542004287242889404 -0.21646861732006073 0.111326240003108978
-0.35996440052986145 -0.035325121134519577 -0.13408428430557251
-0.574696004390716553 0.327818930149078369 -0.0292199794203042984
-0.36166757345199585 -0.0704958215355873108 -0.0337641797959804535
-0.130532607436180115 -0.267134368419647217 0.119176805019378662
0.495178967714309692 -0.3655262291431427 -0.000567605718970298767
0.373827219009399414 -0.359056055545806885 -0.210180625319480896
-0.378285080194473267 -0.106472805142402649 0.10149538516998291
-0.0671186447143554688 -0.263643264770507812 0.296530574560165405
0.519928634166717529 -0.24302951991558075 -0.309632182121276855
0.509512186050415039 -0.330269813537597656 0.0150664085522294044
-0.593314647674560547 0.369281888008117676 0.120920062065124512
-0.655284106731414795 0.176021158695220947 -0.102663554251194
-0.222937136888504028 -0.143706828355789185 -0.0535553954541683197
-0.191271796822547913 0.316978693008422852 0.100919149816036224
0.256578356027603149 -0.283194780349731445 0.319571793079376221
0.239077910780906677 0.0324963070452213287 0.319026172161102295
-0.120105825364589691 -0.045685984194278717 0.00745536666363477707
-0.641512274742126465 0.308945357799530029 0.102211520075798035
0.364708751440048218 -0.373596519231796265 -0.207091599702835083
0.537787675857543945 -0.217497959733009338 0.161605417728424072
-0.552706301212310791 0.382764875888824463 0.158296138048171997
-0.122540786862373352 0.259651601314544678 0.115263283252716064
0.119339212775230408 0.102816209197044373 0.0894509032368659973
-0.375400006771087646 0.266267746686935425 -0.0893067866563796997
0.516928911209106445 -0.348767608404159546 0.0985489487648010254
-0.293418139219284058 -0.106704249978065491 -0.109106048941612244
0.274940401315689087 0.103312745690345764 -0.0577302426099777222
-0.57501298189163208 0.219916746020317078 -0.212279066443443298
-0.115584589540958405 0.268916964530944824 0.179935261607170105
0.235929325222969055 -0.287664681673049927 0.314271777868270874
0.310085952281951904 -0.18705865740776062 0.240877866744995117
