ply
format ascii 1.0
element vertex 738
property float x
property float y
property float z
end_header
0.503848850727081299 -0.292596757411956787 -0.158948108553886414
0.137397021055221558 -0.025841468945145607 0.0135462936013936996
-0.339217901229858398 -0.0322036780416965485 0.0230139121413230896
0.373961657285690308 -0.0918077453970909119 0.04477696493268013
0.200439214706420898 0.10129837691783905 -0.00130557350348681211
-0.297421872615814209 -0.0252297017723321915 0.0361650437116622925
0.132188990712165833 -0.0178267117589712143 -0.0256593246012926102
0.101794354617595673 0.0160134583711624146 0.0916393399238586426
0.176137074828147888 0.119400560855865479 0.0385182835161685944
-0.230576738715171814 -0.0638841316103935242 0.104886762797832489
0.486551374197006226 -0.296655476093292236 -0.303192377090454102
-0.603535175323486328 0.289388686418533325 0.185326531529426575
0.467743366956710815 -0.308786600828170776 0.120506532490253448
0.378848165273666382 -0.0143808284774422646 0.00689850235357880592
0.514860212802886963 -0.295321762561798096 -0.103085882961750031
0.519301354885101318 -0.23968842625617981 -0.307249009609222412
0.478388220071792603 -0.309727787971496582 -0.299950182437896729
0.483860909938812256 -0.274503350257873535 -0.299564272165298462
0.11759127676486969 0.118706092238426208 0.298019468784332275
-0.584541380405426025 0.356251925230026245 0.0659958347678184509
0.384295910596847534 -0.337443828582763672 0.125914305448532104
-0.574807643890380859 0.317598521709442139 -0.0263492967933416367
-0.604761064052581787 0.21703764796257019 -0.0867099910974502563
0.268264055252075195 0.0393110662698745728 -0.0857624337077140808
-0.356601089239120483 -0.0223469510674476624 -0.130982175469398499
-0.56461864709854126 0.314221799373626709 -0.00770636880770325661
0.191106542944908142 -0.340973556041717529 -0.0744369998574256897
0.40466606616973877 -0.357666492462158203 -0.223697483539581299
-0.500532090663909912 0.145373702049255371 0.354812502861022949
0.510142385959625244 -0.15147678554058075 0.115455098450183868
0.497316807508468628 -0.263904929161071777 -0.304047554731369019
0.458454400300979614 -0.280875235795974731 -0.289397239685058594
0.441422879695892334 -0.264960914850234985 -0.28334614634513855
-0.588356971740722656 0.357357889413833618 0.0619104504585266113
0.505752325057983398 -0.126790434122085571 0.124882936477661133
-0.206331372261047363 0.312330901622772217 0.109051086008548737
0.268715858459472656 -0.284227371215820312 0.319528132677078247
0.233052164316177368 0.00346711650490760803 0.318278342485427856
0.513730645179748535 -0.175621360540390015 -0.281375676393508911
-0.115146666765213013 0.00974536873400211334 0.00620027491822838783
0.404397666454315186 -0.359695613384246826 -0.224321678280830383
0.418173909187316895 -0.31336328387260437 0.144180193543434143
-0.555873870849609375 0.37636604905128479 0.186935096979141235
-0.175710901618003845 0.309005498886108398 0.118742227554321289
-0.390014618635177612 0.275896579027175903 -0.0848111510276794434
0.365830779075622559 0.0518735349178314209 0.0251305941492319107
0.129571989178657532 0.115606516599655151 0.319249838590621948
-0.286634445190429688 -0.10079636424779892 -0.0918603315949440002
0.258643239736557007 0.100945852696895599 -0.0615198090672492981
-0.361431717872619629 -0.0600023902952671051 -0.143973276019096375
0.134526804089546204 0.113569855690002441 0.338194936513900757
-0.563415110111236572 0.199239969253540039 -0.228834658861160278
-0.276605159044265747 0.287857145071029663 -0.000598279933910816908
0.455374836921691895 -0.246442615985870361 -0.287929385900497437
0.460717469453811646 -0.275404781103134155 -0.290463060140609741
-0.635183751583099365 0.30803525447845459 0.17053455114364624
0.51299750804901123 -0.317508161067962646 -0.0381794124841690063
0.46941828727722168 -0.265798002481460571 -0.297592252492904663
0.478627026081085205 -0.2950173020362854 -0.299880564212799072
0.458630681037902832 -0.246224761009216309 -0.289501547813415527
0.381641417741775513 -0.36104092001914978 -0.213508829474449158
-0.479691028594970703 -0.0128182023763656616 0.185978561639785767
-0.516819894313812256 0.365619510412216187 0.174229443073272705
-0.618839085102081299 0.201929107308387756 -0.0869763642549514771
-0.23736359179019928 0.0186431910842657089 -0.072301819920539856
-0.382760435342788696 -0.0592780113220214844 0.0238758306950330734
0.475411415100097656 -0.368412673473358154 0.0222159139811992645
-0.649559557437896729 0.236644089221954346 0.0324083194136619568
0.413090705871582031 -0.346760362386703491 -0.221290305256843567
0.526593565940856934 -0.337207943201065063 0.0804702937602996826
0.506501674652099609 -0.238994091749191284 -0.307706445455551147
0.250059574842453003 -0.282419472932815552 0.3185768723487854
0.239720910787582397 0.0665174201130867004 0.315069109201431274
0.54006427526473999 -0.301846772432327271 -0.093273945152759552
-0.448090285062789917 -0.041648566722869873 0.126674309372901917
-0.0436657629907131195 0.104293636977672577 0.318107068538665771
0.248491421341896057 0.0209651011973619461 0.32261967658996582
-0.284955352544784546 -0.0999268591403961182 -0.0988794341683387756
-0.137693434953689575 -0.0152586232870817184 -0.0485342107713222504
-0.278046011924743652 0.337733328342437744 0.047278180718421936
-0.254852592945098877 0.289772987365722656 -0.002933126175776124
-0.219008550047874451 0.321759730577468872 0.0701502040028572083
-0.573541164398193359 0.152129113674163818 -0.0742992013692855835
-0.2901325523853302 0.292562633752822876 0.0163302719593048096
0.526155650615692139 -0.320704013109207153 0.027586745098233223
0.346684664487838745 -0.0304859112948179245 -0.03398137167096138
0.522780358791351318 -0.362980484962463379 0.0897984877228736877
-0.0831489339470863342 -0.112045034766197205 0.0787457823753356934
-0.404255956411361694 0.325880765914916992 0.121444791555404663
0.505286753177642822 -0.36712607741355896 -0.00408647721633315086
-0.118664607405662537 0.265964508056640625 0.121288269758224487
0.519254207611083984 -0.34300723671913147 0.0362513028085231781
0.130699262022972107 -0.334921807050704956 0.301505059003829956
0.467186659574508667 -0.311120837926864624 0.0728872045874595642
0.483411401510238647 -0.374078363180160522 0.0527330115437507629
0.42168387770652771 -0.026030050590634346 0.0653667449951171875
0.494684219360351562 -0.363585948944091797 -0.0151329105719923973
-0.233069971203804016 0.287009894847869873 0.0844296738505363464
0.53173983097076416 -0.331794559955596924 -0.00682206172496080399
-0.272113621234893799 0.315250635147094727 0.114232935011386871
0.308824211359024048 0.0025830164086073637 0.0467926487326622009
0.467901229858398438 -0.263406902551651001 -0.295662432909011841
0.474388003349304199 -0.304402858018875122 0.114662684500217438
0.511681616306304932 -0.31365630030632019 -0.103988565504550934
0.509648025035858154 -0.24534200131893158 -0.308028578758239746
0.448432952165603638 -0.292513072490692139 -0.292360275983810425
0.466868579387664795 -0.283267706632614136 -0.296874552965164185
0.138764321804046631 0.112690053880214691 0.337137013673782349
-0.652412891387939453 0.285634011030197144 0.0981820002198219299
-0.638592720031738281 0.244735807180404663 -0.0379990041255950928
0.13675042986869812 0.0691612809896469116 0.338244110345840454
-0.577402412891387939 0.303724706172943115 -0.0553448721766471863
0.263039767742156982 0.0304833538830280304 -0.0729756951332092285
0.542495310306549072 -0.216751828789710999 0.112007193267345428
-0.360231101512908936 -0.035989079624414444 -0.134167894721031189
-0.575049877166748047 0.327407151460647583 -0.0293566565960645676
-0.361923277378082275 -0.0711984783411026001 -0.0338297225534915924
-0.130443081259727478 -0.267926961183547974 0.119255200028419495
0.495659887790679932 -0.365884840488433838 3.24410175380762666e-05
0.374333649873733521 -0.359441965818405151 -0.209674373269081116
-0.378541499376296997 -0.107215739786624908 0.101437889039516449
-0.0668830424547195435 -0.264375299215316772 0.296657085418701172
0.520324110984802246 -0.243291184306144714 -0.309050321578979492
0.509987175464630127 -0.33061257004737854 0.0156805142760276794
-0.593673467636108398 0.368900150060653687 0.120759777724742889
-0.65563279390335083 0.175580874085426331 -0.102818757295608521
-0.223026782274246216 -0.1444215327501297 -0.0535546019673347473
-0.191308483481407166 0.316518783569335938 0.101015128195285797
0.257167398929595947 -0.283706724643707275 0.320013433694839478
0.239693835377693176 0.0321506671607494354 0.319527417421340942
-0.120019584894180298 -0.0463016554713249207 0.00756895123049616814
-0.64185720682144165 0.308562159538269043 0.102045848965644836
0.365221798419952393 -0.373992234468460083 -0.206594020128250122
0.538283765316009521 -0.217786788940429688 0.162286043167114258
-0.553070724010467529 0.382366687059402466 0.158145695924758911
-0.122450850903987885 0.259179800748825073 0.115420520305633545
0.119871221482753754 0.102394759654998779 0.0898645222187042236
-0.375670343637466431 0.265741229057312012 -0.0893457382917404175
0.517418026924133301 -0.349131494760513306 0.0991689637303352356
-0.293612152338027954 -0.10740593820810318 -0.109150804579257965
0.275569677352905273 0.103005848824977875 -0.0571535564959049225
-0.57538294792175293 0.219493627548217773 -0.212443575263023376
-0.115489684045314789 0.268450230360031128 0.180091962218284607
0.23650774359703064 -0.288200259208679199 0.314689576625823975
0.310707986354827881 -0.187469169497489929 0.24142119288444519
0.542263567447662354 -0.325871676206588745 -0.0205205474048852921
0.0793318897485733032 -0.338040828704833984 0.282431602478027344
-0.00616716500371694565 -0.172090590000152588 0.00452695973217487335
-0.282405644655227661 0.261610329151153564 0.00730134407058358192
0.513580679893493652 -0.237062782049179077 -0.309042185544967651
-0.647212505340576172 0.278182834386825562 0.0797197520732879639
-0.646567761898040771 0.183090642094612122 -0.090666353702545166
0.514623343944549561 -0.322570830583572388 0.0246933251619338989
-0.407120436429977417 -0.0639202520251274109 0.11364387720823288
0.517331302165985107 -0.355754762887954712 -0.0202297680079936981
-0.566882610321044922 0.374242722988128662 0.152651533484458923
0.236446499824523926 0.0429653152823448181 0.314078181982040405
-0.665076673030853271 0.227043241262435913 0.0232919342815876007
-0.44829946756362915 -0.0387496016919612885 0.127183780074119568
0.503484606742858887 -0.302275806665420532 -0.178482115268707275
-0.589420676231384277 0.360964328050613403 0.0862693265080451965
-0.194153279066085815 0.314790725708007812 0.105130419135093689
0.247473970055580139 0.0238692648708820343 0.324213802814483643
0.53140944242477417 -0.323830068111419678 -0.0576855950057506561
-0.182887628674507141 0.306886076927185059 0.128742381930351257
0.247722238302230835 0.00693835364654660225 0.324340373277664185
0.0589645281434059143 0.139541685581207275 0.346055954694747925
-0.505958437919616699 0.149177834391593933 0.357014358043670654
0.271231770515441895 -0.31145438551902771 0.326553672552108765
-0.253812640905380249 0.0233785752207040787 -0.0705199167132377625
0.241559416055679321 -0.295512169599533081 0.322790563106536865
0.24950803816318512 0.0437578931450843811 0.314812153577804565
0.46894422173500061 -0.101947896182537079 0.0350871197879314423
-0.124695844948291779 0.194964975118637085 0.115686021745204926
0.240449726581573486 -0.326842069625854492 0.318232595920562744
0.500776231288909912 -0.366678118705749512 0.0750426352024078369
0.523949265480041504 -0.324772864580154419 0.0266093146055936813
0.445162802934646606 -0.253379106521606445 0.332736879587173462
0.322039812803268433 -0.131475567817687988 -0.106230191886425018
0.0637004747986793518 -0.0109252454712986946 0.321969389915466309
0.511817872524261475 -0.360966622829437256 0.047903008759021759
0.13611525297164917 -0.100824460387229919 0.0408853627741336823
0.0498728565871715546 0.0114342756569385529 0.0300523117184638977
0.0210922304540872574 0.048119865357875824 0.0429086200892925262
0.0885019898414611816 -0.0662554651498794556 0.28991246223449707
-0.16201646625995636 -0.266030669212341309 0.148125141859054565
0.265519440174102783 -0.0202074944972991943 0.0619775988161563873
-0.0286865103989839554 -0.0292506925761699677 0.295777499675750732
0.502656459808349609 -0.240312740206718445 -0.30162358283996582
0.476424992084503174 -0.314962387084960938 -0.301587432622909546
-0.631164193153381348 0.306183725595474243 0.167519554495811462
0.476024985313415527 -0.320924937725067139 0.121418699622154236
0.509594559669494629 -0.30087965726852417 -0.105145938694477081
0.528683185577392578 -0.274887949228286743 -0.316824585199356079
0.494026392698287964 -0.332427889108657837 -0.310351133346557617
0.504056274890899658 -0.320229053497314453 0.0984137728810310364
0.474675595760345459 -0.305794388055801392 -0.297734707593917847
-0.5595894455909729 0.26793023943901062 0.364659786224365234
0.125431925058364868 0.116736054420471191 0.31454998254776001
-0.633803486824035645 0.28214949369430542 0.0544641502201557159
-0.587611615657806396 0.36271628737449646 0.102602452039718628
0.372058659791946411 -0.374141067266464233 -0.212371036410331726
0.439029604196548462 -0.348130702972412109 0.154730618000030518
0.0584583096206188202 0.12116134911775589 0.321430057287216187
-0.574838101863861084 0.368711352348327637 0.215690329670906067
0.265300542116165161 0.0245878696441650391 -0.0581806190311908722
0.369385063648223877 -0.336972624063491821 0.161002442240715027
0.511035442352294922 -0.301597625017166138 -0.111595980823040009
0.134090125560760498 -0.320844560861587524 -0.0974875837564468384
0.517110526561737061 -0.348878353834152222 -0.0198844708502292633
0.389845818281173706 -0.346857577562332153 -0.213719651103019714
-0.577257156372070312 0.318984627723693848 0.0409872196614742279
0.53649526834487915 -0.277856618165969849 -0.320232212543487549
0.46838727593421936 -0.310934066772460938 -0.298873335123062134
0.507743179798126221 -0.347229748964309692 0.018339548259973526
-0.556151330471038818 0.309607088565826416 0.102434098720550537
0.194419592618942261 -0.339593470096588135 -0.0588426254689693451
0.0705212727189064026 -0.282507896423339844 -0.0776321366429328918
0.25303533673286438 -0.250552207231521606 0.32048642635345459
0.240489274263381958 0.0307929664850234985 0.317305684089660645
-0.12088148295879364 -0.0481016337871551514 0.0084221474826335907
0.179299011826515198 -0.100352995097637177 -0.0143894301727414131
0.532999694347381592 -0.332399427890777588 -0.0127617362886667252
0.370922565460205078 -0.349591672420501709 -0.208502069115638733
0.535539805889129639 -0.245964542031288147 0.17768801748752594
0.561606943607330322 -0.315812736749649048 -0.33058619499206543
0.555106461048126221 -0.211817666888237 0.134356200695037842
-0.543534696102142334 0.380663037300109863 0.164684280753135681
0.123365506529808044 0.117048323154449463 0.133531332015991211
-0.582489609718322754 0.351832300424575806 0.0979956388473510742
-0.481798708438873291 0.185772061347961426 -0.0913058966398239136
0.516197502613067627 -0.339305192232131958 0.0392457954585552216
0.254045695066452026 -0.279482394456863403 0.322297334671020508
0.279099076986312866 -0.356152802705764771 -0.125697106122970581
0.508416891098022461 -0.286678820848464966 -0.313295900821685791
-0.432272285223007202 -0.0575957521796226501 0.11686406284570694
0.202538937330245972 0.0903503596782684326 0.223787814378738403
0.244889348745346069 0.104492396116256714 -0.0567333661019802094
-0.195677265524864197 0.201268091797828674 0.349537879228591919
0.251058399677276611 0.0247587058693170547 0.32374003529548645
0.240410223603248596 0.0188431907445192337 0.321425735950469971
-0.0311849471181631088 0.16247965395450592 0.382951438426971436
-0.482677161693572998 -0.0160280019044876099 0.18033406138420105
0.484408944845199585 -0.369243323802947998 0.0464885495603084564
-0.643736720085144043 0.286997884511947632 0.0864348337054252625
0.276563376188278198 -0.165991976857185364 -0.0700526535511016846
-0.411925792694091797 -0.0572589971125125885 0.0790899395942687988
-0.643225789070129395 0.175550356507301331 -0.0817569270730018616
-0.225872009992599487 -0.134311899542808533 -0.0520102716982364655
0.255549043416976929 -0.265888988971710205 0.321464478969573975
-0.34541657567024231 0.0170157160609960556 -0.116693019866943359
-0.287134647369384766 -0.0919083133339881897 -0.106303587555885315
-0.585280358791351318 0.20970587432384491 -0.217752546072006226
0.268215984106063843 -0.297350585460662842 0.315539121627807617
-0.0252888407558202744 -0.187635108828544617 -0.0431929975748062134
-0.618286192417144775 0.276786923408508301 0.0316484682261943817
-0.609069943428039551 0.298100084066390991 0.0927070975303649902
-0.397657930850982666 -0.0632741004228591919 0.119065426290035248
-0.451837897300720215 -0.0385764241218566895 0.119668304920196533
0.431745946407318115 -0.272020220756530762 0.329604655504226685
-0.0521785914897918701 0.140566229820251465 0.0920697376132011414
-0.503224492073059082 0.150801509618759155 0.355630546808242798
0.241411358118057251 -0.319663971662521362 0.323132306337356567
0.497783929109573364 -0.37106400728225708 0.0578041262924671173
0.399947315454483032 -0.257145345211029053 0.32288205623626709
-0.158160671591758728 -0.264024853706359863 0.181755706667900085
-0.499345988035202026 0.013645426370203495 0.158268138766288757
0.418230235576629639 -0.297662049531936646 0.329142928123474121
0.535920858383178711 -0.340389460325241089 -0.0179949942976236343
0.344927459955215454 -0.267617583274841309 -0.127409964799880981
-0.496662914752960205 0.07160910964012146 0.204170987010002136
0.444285154342651367 -0.272461265325546265 0.333832770586013794
0.522673249244689941 -0.335614800453186035 0.0332484617829322815
0.453955769538879395 -0.320076435804367065 -0.292616546154022217
0.474906980991363525 -0.311933815479278564 0.11716180294752121
0.517793238162994385 -0.278563082218170166 -0.312406599521636963
0.503232300281524658 -0.326108336448669434 -0.313917577266693115
0.518771827220916748 -0.327353030443191528 0.102371521294116974
0.479901522397994995 -0.311596125364303589 -0.301756858825683594
0.115021638572216034 0.118335112929344177 0.289408892393112183
-0.121808275580406189 0.268396735191345215 0.159110471606254578
-0.615035176277160645 0.265252113342285156 0.0523428879678249359
-0.479581356048583984 0.00264158495701849461 0.181510314345359802
0.42736855149269104 -0.355330228805541992 0.159007743000984192
-0.292306959629058838 -0.110992163419723511 -0.105575643479824066
0.130995124578475952 0.065234839916229248 0.321607768535614014
0.254357516765594482 0.0385139770805835724 -0.0772925391793251038
0.236108496785163879 0.0937100201845169067 -0.0525635592639446259
0.418315678834915161 -0.261748224496841431 -0.201895192265510559
0.522319018840789795 -0.354877352714538574 -0.0190129745751619339
-0.609127283096313477 0.380901098251342773 0.181465640664100647
0.518143713474273682 -0.279463648796081543 -0.314329952001571655
0.499770909547805786 -0.350245058536529541 0.0245324671268463135
-0.58809584379196167 0.36908915638923645 0.113285049796104431
0.506646096706390381 -0.104909941554069519 0.147789239883422852
-0.198017403483390808 0.311321109533309937 0.113244548439979553
0.2646617591381073 -0.286936104297637939 0.320128679275512695
0.237517938017845154 0.0619116351008415222 0.310977965593338013
-0.144352927803993225 -0.0438465215265750885 0.00447889883071184158
-0.657981038093566895 0.214459717273712158 -0.0459174886345863342
-0.288599461317062378 -0.076366722583770752 -0.0683979541063308716
0.227860167622566223 0.0419740192592144012 -0.0476566962897777557
0.552191019058227539 -0.144672676920890808 0.132524609565734863
0.520416676998138428 -0.295602619647979736 0.0753548368811607361
0.518188238143920898 -0.284242004156112671 -0.180743187665939331
-0.358152240514755249 -0.0174948032945394516 -0.0277247112244367599
0.0919657349586486816 0.0879591628909111023 0.0862077772617340088
0.467304229736328125 -0.362147212028503418 -0.0102140782400965691
-0.433094918727874756 0.157431691884994507 -0.0662272423505783081
0.524441838264465332 -0.335893362760543823 0.0693475529551506042
0.263521134853363037 -0.286305487155914307 0.318851888179779053
0.00970251765102148056 -0.0913172736763954163 -0.0257732141762971878
0.0329228416085243225 -0.130743235349655151 0.0222075507044792175
-0.630943715572357178 0.264772981405258179 0.0293101519346237183
0.242723152041435242 0.0740881785750389099 0.319250404834747314
0.240797057747840881 0.0293174274265766144 0.319318145513534546
-0.174779251217842102 0.300599724054336548 0.116630621254444122
0.305259734392166138 -0.151599779725074768 0.308211982250213623
0.262554317712783813 -0.291108489036560059 0.321334749460220337
-0.476381361484527588 -0.00862135924398899078 0.16639457643032074
0.243359416723251343 0.0815286338329315186 0.312612950801849365
0.520866274833679199 -0.351555734872817993 0.0823782831430435181
-0.0346121080219745636 -0.238062232732772827 0.124347180128097534
-0.638553917407989502 0.289774954319000244 0.0990590155124664307
-0.234195530414581299 -0.133284717798233032 -0.0577989481389522552
-0.379385828971862793 -0.10929957777261734 0.105703882873058319
-0.236403569579124451 -0.148316055536270142 -0.0576535798609256744
-0.658193469047546387 0.214151397347450256 -0.0336238108575344086
0.529500603675842285 -0.352885037660598755 0.0783190354704856873
-0.621392548084259033 0.270031452178955078 0.0527395084500312805
-0.4042816162109375 -0.0648167058825492859 0.112238891422748566
-0.446493953466415405 -0.0419664755463600159 0.122172631323337555
0.268626093864440918 -0.28599509596824646 0.323813885450363159
0.128115639090538025 -0.327078312635421753 0.312836021184921265
0.152796611189842224 -0.343559950590133667 0.318117141723632812
0.448285520076751709 -0.335841238498687744 -0.292595058679580688
0.516337156295776367 -0.303175896406173706 -0.107517540454864502
0.515766322612762451 -0.280435860157012939 -0.312425136566162109
0.485406994819641113 -0.327880591154098511 -0.30939599871635437
0.464892357587814331 -0.346100121736526489 -0.302272588014602661
0.550121188163757324 -0.210372865200042725 -0.315559506416320801
0.5246238112449646 -0.300224393606185913 -0.322087347507476807
0.518492758274078369 -0.301037520170211792 -0.31798139214515686
0.247448623180389404 0.0568039119243621826 0.316841214895248413
0.241926252841949463 0.0872834622859954834 0.313181281089782715
-0.291763752698898315 -0.100992456078529358 -0.101696155965328217
-0.453752487897872925 -0.0524505898356437683 0.117264352738857269
0.405417770147323608 -0.272570431232452393 0.322922319173812866
-0.502610146999359131 0.00333166401833295822 0.189301133155822754
0.401710450649261475 -0.287555843591690063 0.325231939554214478
0.399859070777893066 -0.273868322372436523 0.323716074228286743
0.342882543802261353 -0.259257107973098755 0.0905501320958137512
-0.0184934176504611969 -0.244853600859642029 0.128924548625946045
-0.464703261852264404 0.035544518381357193 0.189735278487205505
-0.194396898150444031 0.22127804160118103 0.172346815466880798
0.367470204830169678 -0.32954704761505127 -0.0230763107538223267
0.323996275663375854 -0.390377849340438843 -0.15848839282989502
0.536000847816467285 -0.323836654424667358 -0.0577879361808300018
-0.441941827535629272 -0.00518151512369513512 0.152886092662811279
-0.0188456643372774124 -0.0598823241889476776 0.142044991254806519
8.21924913907423615e-05 -0.236572816967964172 0.106662333011627197
0.52679365873336792 -0.201967984437942505 -0.0795598477125167847
0.450345128774642944 -0.308518707752227783 -0.292469650506973267
0.52735602855682373 -0.275591075420379639 -0.315278977155685425
0.500429332256317139 -0.325058847665786743 -0.312286019325256348
0.475755274295806885 -0.305223464965820312 -0.296986818313598633
-0.12737274169921875 0.246355950832366943 0.13929787278175354
-0.649255156517028809 0.281806588172912598 0.0944433584809303284
-0.198996946215629578 0.286357343196868896 0.336165487766265869
0.498633712530136108 -0.0869167223572731018 0.137164950370788574
0.201282978057861328 -0.359507888555526733 -0.0904681012034416199
0.505998611450195312 -0.367907553911209106 -0.0222712289541959763
0.527861595153808594 -0.242910236120223999 0.173395097255706787
-0.586257517337799072 0.379116058349609375 0.170851618051528931
0.445564210414886475 -0.315115511417388916 -0.287346035242080688
0.499210625886917114 -0.111282132565975189 0.112675532698631287
-0.656011402606964111 0.175265014171600342 -0.103516131639480591
-0.201994255185127258 0.308522015810012817 0.0894658714532852173
0.201865732669830322 -0.0138783436268568039 0.29565894603729248
0.1605386883020401 -0.0624122880399227142 -0.0436235293745994568
-0.579827249050140381 0.301998943090438843 0.368870198726654053
0.275675147771835327 0.0982335954904556274 -0.0285828057676553726
-0.435465782880783081 0.155139803886413574 -0.0857515707612037659
0.535030245780944824 -0.333261758089065552 0.013181174173951149
-0.568994522094726562 0.19715563952922821 -0.228844702243804932
-0.497842967510223389 0.0446913391351699829 -0.0866237059235572815
0.0317833162844181061 -0.104335471987724304 0.0333679020404815674
0.53460693359375 -0.264625608921051025 -0.315922468900680542
0.0100924791768193245 0.197455272078514099 0.0280064903199672699
0.302783191204071045 0.0387434400618076324 -0.0839491561055183411
-0.332236528396606445 -0.0163132417947053909 -0.107461549341678619
0.23706914484500885 0.0141968429088592529 0.322227656841278076
0.125537797808647156 0.0126968268305063248 0.299321353435516357
0.528117656707763672 -0.355400949716567993 0.0667663440108299255
0.467653542757034302 -0.310011744499206543 -0.232703924179077148
-0.652235567569732666 0.285147607326507568 0.104547187685966492
0.547192871570587158 -0.220171272754669189 0.163960292935371399
0.528627395629882812 -0.323578923940658569 -0.0156034436076879501
-0.383085966110229492 -0.0567951463162899017 0.0764313265681266785
0.457464069128036499 -0.310998529195785522 -0.292167991399765015
0.505501151084899902 -0.339982658624649048 -0.317529797554016113
0.479370683431625366 -0.314473003149032593 -0.299116313457489014
0.520899474620819092 -0.30144190788269043 -0.316946327686309814
-0.00193610682617872953 -0.140328541398048401 -0.0244724545627832413
0.398193299770355225 -0.273426800966262817 0.323890894651412964
0.401863217353820801 -0.271851897239685059 0.324197083711624146
0.506720900535583496 -0.332216739654541016 0.106299020349979401
-0.467698842287063599 0.0420893989503383636 0.170853957533836365
0.410705447196960449 -0.346152305603027344 0.157029420137405396
-0.360843092203140259 -0.0355933420360088348 -0.147872999310493469
-0.127974614500999451 -0.268164128065109253 0.112620390951633453
0.513214945793151855 -0.369246006011962891 -0.0142166828736662865
-0.213631749153137207 0.312320709228515625 0.0979897230863571167
0.251215070486068726 -0.287454903125762939 0.323268085718154907
0.209557235240936279 0.00924575608223676682 -0.0456058047711849213
0.0704287141561508179 -0.151836112141609192 -0.0168517045676708221
-0.169614031910896301 0.304554611444473267 0.119195416569709778
0.47176283597946167 -0.364567965269088745 0.0075117046944797039
-0.290883392095565796 -0.0997817963361740112 -0.102952718734741211
0.0368790030479431152 -0.150006607174873352 -0.0213365014642477036
0.232811138033866882 0.0560244470834732056 0.309658467769622803
0.254023641347885132 -0.289015501737594604 0.321051359176635742
-0.471801161766052246 0.000773246632888913155 0.168860018253326416
0.241636067628860474 0.0624870359897613525 0.313562989234924316
0.509604990482330322 -0.352246850728988647 0.0644204691052436829
0.228031933307647705 -0.315184921026229858 0.314934015274047852
-0.375386565923690796 -0.0935448557138442993 0.0863939672708511353
-0.0623675845563411713 -0.242086142301559448 0.302781552076339722
-0.222536295652389526 -0.128021001815795898 -0.0528519563376903534
-0.409900099039077759 -0.065827593207359314 0.0987339168787002563
-0.445036798715591431 -0.0450931601226329803 0.132943332195281982
0.239600569009780884 -0.294408529996871948 0.314818888902664185
0.154469966888427734 -0.324759989976882935 0.320435255765914917
0.425995379686355591 -0.256322592496871948 0.329051077365875244
0.438841402530670166 -0.343072086572647095 -0.292250514030456543
0.506919920444488525 -0.334683150053024292 -0.317673414945602417
0.445690631866455078 -0.352419465780258179 -0.286309182643890381
0.238900095224380493 0.0655501261353492737 0.312842041254043579
0.403937399387359619 -0.28778374195098877 0.326356261968612671
-0.494834214448928833 0.00636233668774366379 0.188585788011550903
0.486488908529281616 -0.0633441880345344543 0.132301568984985352
0.0129711665213108063 -0.171076282858848572 0.0102090546861290932
0.532201945781707764 -0.30776551365852356 -0.0617478452622890472
0.315486758947372437 -0.302471578121185303 -0.12636171281337738
0.446534514427185059 -0.291448801755905151 -0.285197198390960693
-0.336852163076400757 0.224425777792930603 0.126016303896903992
-0.400818765163421631 -0.0284985899925231934 -0.00165142747573554516
0.403848558664321899 -0.271994054317474365 0.324580669403076172
-0.133012562990188599 0.195529922842979431 0.168115541338920593
0.399898886680603027 -0.271932244300842285 0.324393332004547119
-0.446502983570098877 -0.0252731367945671082 0.0216613039374351501
-0.137707874178886414 0.244602948427200317 0.192063808441162109
-0.612807214260101318 0.293842673301696777 0.183983892202377319
0.125145137310028076 0.115867733955383301 0.317138075828552246
-0.120621256530284882 0.25035521388053894 0.162216082215309143
-0.583311140537261963 0.348001927137374878 0.0584287606179714203
0.427610576152801514 -0.348318666219711304 0.153515368700027466
-0.56673276424407959 0.294934928417205811 -0.0686638951301574707
0.252616643905639648 0.0266383253037929535 -0.0790223702788352966
0.248415231704711914 0.100337021052837372 -0.0477759651839733124
-0.357311993837356567 -0.0559543594717979431 -0.141615778207778931
0.19944019615650177 0.120131537318229675 0.036315087229013443
0.546324074268341064 -0.13160376250743866 0.112532585859298706
-0.581621348857879639 0.32162785530090332 -0.0225288253277540207
0.206891387701034546 0.0245224535465240479 0.177349910140037537
-0.595341086387634277 0.37499198317527771 0.172266691923141479
0.445583105087280273 -0.319383889436721802 0.127863183617591858
0.25582808256149292 -0.278976917266845703 0.316900968551635742
0.236285611987113953 0.0236375182867050171 0.317076593637466431
-0.362762540578842163 -0.050013955682516098 -0.0235105734318494797
-0.182355195283889771 0.117942154407501221 0.0426830686628818512
0.255541801452636719 -0.288418859243392944 0.319713234901428223
0.242724761366844177 0.0330197960138320923 0.322345912456512451
0.400676071643829346 0.0233208108693361282 0.115762867033481598
-0.340334147214889526 -0.066308043897151947 -0.147062376141548157
0.0763852968811988831 -0.333289206027984619 0.299264430999755859
-0.386612862348556519 -0.0610524043440818787 0.0940577611327171326
-0.448071807622909546 -0.04156450554728508 0.127954468131065369
0.44013822078704834 -0.279451221227645874 0.334116697311401367
0.0350289642810821533 -0.123044662177562714 -0.0252353698015213013
0.415110230445861816 -0.280912607908248901 0.327458500862121582
0.433813720941543579 -0.2962074875831604 0.333613753318786621
0.368693262338638306 -0.278737127780914307 -0.129804342985153198
-0.477353930473327637 0.00120134663302451372 0.18851664662361145
-0.291296899318695068 -0.0964890047907829285 -0.104283429682254791
0.242155089974403381 -0.313200533390045166 0.31006208062171936
0.473984241485595703 -0.354288756847381592 0.00751904910430312157
-0.296129763126373291 -0.0967374518513679504 -0.1067391037940979
0.2455119788646698 -0.288773775100708008 0.320460736751556396
0.062906801700592041 -0.329995661973953247 0.297344058752059937
0.158710464835166931 -0.267887681722640991 -0.105140171945095062
0.25093880295753479 0.0633021369576454163 0.315992802381515503
-0.482411414384841919 -0.00814179982990026474 0.178154468536376953
0.237069383263587952 0.0664655044674873352 0.315342485904693604
0.23949018120765686 -0.33201262354850769 0.32178083062171936
-0.382066130638122559 -0.0922117903828620911 0.0369676463305950165
-0.215791970491409302 -0.140260785818099976 -0.0540895499289035797
-0.382513105869293213 -0.0638586059212684631 0.0837757810950279236
0.15067581832408905 -0.331873506307601929 0.33221784234046936
0.446657359600067139 -0.279981255531311035 0.334040701389312744
0.408223897218704224 -0.280626356601715088 0.325570672750473022
-0.50192105770111084 0.00634684227406978607 0.188900679349899292
-0.321709156036376953 0.0970872938632965088 -0.0699437782168388367
0.533300399780273438 -0.20750783383846283 -0.0521388202905654907
0.451724410057067871 -0.293885320425033569 -0.290087491273880005
0.488166183233261108 -0.325231462717056274 -0.310525953769683838
0.447168439626693726 -0.309734702110290527 -0.290458828210830688
-0.577675342559814453 0.268990486860275269 0.366059958934783936
-0.461310535669326782 0.105701975524425507 -0.230737790465354919
0.375676602125167847 -0.318826764822006226 0.199535131454467773
-0.589703202247619629 0.366749852895736694 0.131502598524093628
0.393346667289733887 -0.353477597236633301 -0.217093333601951599
0.441866904497146606 -0.310279160737991333 -0.288668066263198853
-0.200376033782958984 0.305246829986572266 0.0953257307410240173
-0.155168205499649048 0.267723292112350464 0.152018651366233826
0.530600845813751221 -0.338523924350738525 0.0722616612911224365
0.464593112468719482 -0.266137927770614624 -0.217251256108283997
-0.633416593074798584 0.275534600019454956 0.107305020093917847
0.4391898512840271 -0.308572173118591309 -0.286837935447692871
0.516207218170166016 -0.277178347110748291 -0.316476225852966309
0.517318487167358398 -0.340335071086883545 -0.320414096117019653
0.455128014087677002 -0.307046473026275635 -0.292893528938293457
0.491712242364883423 -0.322019249200820923 0.0948345363140106201
0.0211921073496341705 -0.276049435138702393 -0.0182602759450674057
-0.653943955898284912 0.17180199921131134 -0.107800155878067017
-0.224440202116966248 0.31833687424659729 0.121700480580329895
0.466159611940383911 -0.364175558090209961 0.00634905463084578514
0.481882035732269287 -0.336897969245910645 0.0507210269570350647
0.512223303318023682 -0.339395701885223389 -0.319071531295776367
0.440947920083999634 -0.356571882963180542 -0.297266989946365356
-0.269793212413787842 0.321820229291915894 0.0422359146177768707
0.424916923046112061 -0.313299685716629028 -0.281532883644104004
0.416309744119644165 -0.295372873544692993 0.328899979591369629
-0.325875431299209595 -0.0756847336888313293 0.12371189147233963
-0.366693615913391113 -0.0670146122574806213 0.154905065894126892
-0.33810541033744812 0.214586600661277771 0.133149385452270508
0.0106379315257072449 0.119227968156337738 0.105579480528831482
0.542804718017578125 -0.309237629175186157 -0.0457813367247581482
0.0142144942656159401 -0.262051880359649658 0.0398261286318302155
-0.00298863719217479229 -0.236845880746841431 0.0945733934640884399
0.000773038831539452076 -0.219874218106269836 0.0818437039852142334
0.465738475322723389 -0.361040085554122925 0.0307465028017759323
-0.26911395788192749 -0.138347849249839783 0.177714243531227112
-0.344881057739257812 -0.0661820471286773682 0.141502663493156433
0.124163120985031128 -0.276945114135742188 0.129333555698394775
-0.133482784032821655 0.0785828903317451477 0.0906476229429244995
0.46432611346244812 -0.0544230490922927856 0.0181117169559001923
-0.0135809974744915962 -0.217189893126487732 0.0806783437728881836
-0.554682612419128418 0.391445457935333252 0.148017123341560364
0.497411966323852539 -0.366896629333496094 0.0056722443550825119
-0.610636413097381592 0.29383927583694458 0.186786860227584839
0.530735194683074951 -0.275239437818527222 -0.317316144704818726
0.371188074350357056 -0.264771312475204468 0.181975036859512329
0.421166837215423584 -0.344635248184204102 0.151282787322998047
0.252757519483566284 0.0391380302608013153 -0.0661507919430732727
0.5502205491065979 -0.150005802512168884 0.124711617827415466
-0.570483922958374023 0.283895403146743774 -0.00601444020867347717
0.501677751541137695 -0.362745463848114014 -0.000860106723848730326
0.208975568413734436 0.115601539611816406 -0.00991880334913730621
-0.288945257663726807 -0.0858783647418022156 -0.0661276131868362427
0.159920364618301392 -0.0833877027034759521 -0.0357134304940700531
-0.339737236499786377 -0.105767250061035156 0.141532063484191895
0.511750221252441406 -0.281408160924911499 -0.31282883882522583
-0.339067190885543823 -0.0799142718315124512 0.038883306086063385
-0.369218945503234863 0.280567735433578491 -0.0622196085751056671
0.510629594326019287 -0.341098099946975708 0.0655476078391075134
0.303064525127410889 -0.206120386719703674 0.248330920934677124
0.543541610240936279 -0.312120944261550903 -0.0603331886231899261
0.142173126339912415 0.0693077519536018372 0.336783677339553833
-0.59479135274887085 0.267360091209411621 0.0125226490199565887
0.222707539796829224 -0.0072679310105741024 0.296006590127944946
0.231562167406082153 0.0341714620590209961 0.313211888074874878
0.534262597560882568 -0.319742530584335327 -0.0123714637011289597
-0.389147013425827026 -0.064268261194229126 0.106018818914890289
-0.447414696216583252 -0.0404159948229789734 0.126806735992431641
0.496736764907836914 -0.0914316102862358093 0.154956147074699402
0.25160631537437439 0.0629794150590896606 0.317110687494277954
-0.291084259748458862 -0.0930972620844841003 0.307934671640396118
-0.366350084543228149 -0.115062333643436432 0.104302026331424713
-0.563319981098175049 0.127116531133651733 -0.0781071111559867859
-0.501385211944580078 0.023197568953037262 0.186952009797096252
0.51880347728729248 -0.297431439161300659 -0.313673108816146851
0.47327876091003418 -0.328348219394683838 -0.299525827169418335
-0.57420814037322998 0.268654882907867432 0.362986177206039429
-0.571120321750640869 0.354725867509841919 0.167342782020568848
-0.19144892692565918 0.304497718811035156 0.101688109338283539
-0.661971747875213623 0.239621654152870178 0.041997276246547699
-0.504798948764801025 0.144143268465995789 0.353615462779998779
0.50780797004699707 -0.347265869379043579 -0.317969769239425659
-0.200286269187927246 0.304828524589538574 0.102343864738941193
0.475883394479751587 -0.357815295457839966 0.00510547356680035591
0.5105171799659729 -0.330913245677947998 0.0668260976672172546
-0.610643744468688965 0.367444694042205811 0.0881223976612091064
-0.562428951263427734 0.288149833679199219 -0.0555680543184280396
0.220635786652565002 0.0100972475484013557 0.309535056352615356
0.241211995482444763 0.00493854517117142677 0.322002500295639038
-0.359364360570907593 -0.0571010783314704895 -0.137612015008926392
0.400030404329299927 -0.252996295690536499 0.322328686714172363
0.400332897901535034 -0.263371914625167847 0.325076788663864136
0.224750280380249023 -0.324476897716522217 0.321005016565322876
0.41181531548500061 -0.268110364675521851 0.325496852397918701
-0.509025633335113525 0.0491709001362323761 0.195548295974731445
-0.631115615367889404 0.15634407103061676 -0.0522874891757965088
-0.501771152019500732 0.14670872688293457 0.345589429140090942
0.521604835987091064 -0.350824296474456787 -0.322718530893325806
0.496052771806716919 -0.34853324294090271 0.000621207756921648979
-0.197585746645927429 0.0159248150885105133 -0.0496099255979061127
-0.55768287181854248 0.34163898229598999 -0.00535133713856339455
0.489271610975265503 -0.360679745674133301 0.0414414107799530029
0.449928700923919678 -0.0743530616164207458 0.00242745224386453629
-0.556215465068817139 0.385051429271697998 0.158132493495941162
0.375356137752532959 -0.0813136026263237 -0.119461856782436371
-0.389584332704544067 0.319374054670333862 0.169119894504547119
-0.384546428918838501 0.327933996915817261 0.197808682918548584
-0.364005446434020996 0.237831354141235352 -0.0831267163157463074
-0.4071635901927948 0.199289366602897644 0.0412394627928733826
-0.644364476203918457 0.286675900220870972 0.0939521640539169312
0.40933498740196228 -0.34750974178314209 0.136804386973381042
0.223059132695198059 0.0827549919486045837 -0.0330568030476570129
0.49931025505065918 -0.16146482527256012 0.12424953281879425
0.501072943210601807 -0.0930353477597236633 0.13518977165222168
0.216047316789627075 0.0016475312877446413 0.299864828586578369
-0.352947354316711426 -0.0684382468461990356 -0.00881215650588274002
-0.38526540994644165 0.265823185443878174 -0.0713113397359848022
0.507195115089416504 -0.34731900691986084 0.0552995689213275909
-0.356783241033554077 -0.056561395525932312 -0.145204007625579834
0.132793501019477844 0.0723646804690361023 0.322509050369262695
-0.0991630479693412781 -0.265950888395309448 0.00635401112958788872
0.243124023079872131 0.0230860840529203415 0.322314709424972534
-0.480277746915817261 -0.0120703820139169693 0.185532078146934509
0.243158534169197083 0.0480814836919307709 0.317504316568374634
-0.277967512607574463 0.33249393105506897 0.0410173647105693817
0.370581507682800293 -0.0310207623988389969 -0.0394901484251022339
0.520865321159362793 -0.348207801580429077 -0.0359568148851394653
0.294051945209503174 -0.0121557936072349548 0.0374639779329299927
-0.644051313400268555 0.284593820571899414 0.0927998200058937073
0.0362594947218894958 0.136468753218650818 0.085508689284324646
-0.397278547286987305 -0.057979196310043335 0.126113787293434143
-0.441269665956497192 -0.0385704785585403442 0.131549060344696045
0.524532556533813477 -0.317782431840896606 -0.0650970861315727234
0.423168420791625977 -0.280299931764602661 0.331558495759963989
0.510359287261962891 -0.345213472843170166 0.0574673153460025787
0.404587626457214355 -0.259173840284347534 0.323973923921585083
-0.480181694030761719 0.0176965780556201935 0.176933661103248596
0.236195921897888184 0.0682681053876876831 0.314904659986495972
-0.479332268238067627 -0.00871770549565553665 0.167575463652610779
0.239822983741760254 0.0672786831855773926 0.315307945013046265
0.388924479484558105 0.0257856901735067368 0.106448613107204437
0.22027173638343811 -0.316478252410888672 0.310664564371109009
0.383744120597839355 0.0427050106227397919 0.0694972127676010132
0.46343347430229187 0.0105212442576885223 0.175499841570854187
0.400212228298187256 -0.258966892957687378 0.327546447515487671
-0.499495834112167358 0.0207770615816116333 0.18115486204624176
-0.573399543762207031 0.265928357839584351 0.360208719968795776
-0.664434492588043213 0.229686051607131958 0.0221498366445302963
-0.148925930261611938 0.275090605020523071 0.0794066786766052246
0.522646844387054443 -0.335243970155715942 -0.322329223155975342
-0.220122575759887695 0.315391004085540771 0.0970614403486251831
0.500588119029998779 -0.346811920404434204 0.067358747124671936
-0.189441457390785217 0.302473068237304688 0.115083158016204834
0.314355432987213135 -0.130488842725753784 0.301075249910354614
0.225776180624961853 -0.0355657525360584259 0.305500149726867676
0.0579515472054481506 -0.331270426511764526 0.291589170694351196
0.435959786176681519 -0.280331522226333618 0.333071857690811157
0.409689664840698242 -0.286138534545898438 0.331234127283096313
0.386401832103729248 -0.266173511743545532 0.31911855936050415
0.398086190223693848 -0.384923219680786133 -0.225396990776062012
-0.161924079060554504 0.278096765279769897 0.128933444619178772
0.381385445594787598 0.0437253452837467194 0.0774383544921875
0.391526550054550171 -0.256126523017883301 0.319130420684814453
-0.500215590000152588 0.0240587890148162842 0.18599170446395874
0.500211358070373535 -0.326128065586090088 -0.312948226928710938
0.381272733211517334 -0.376219272613525391 -0.216005027294158936
0.521710813045501709 -0.349470138549804688 -0.324734956026077271
0.521271586418151855 -0.348609387874603271 -0.321672886610031128
0.513898611068725586 -0.319852054119110107 -0.318289220333099365
0.25567173957824707 -0.222719043493270874 0.0578069202601909637
0.186611548066139221 -0.142606586217880249 -0.105302616953849792
0.508478343486785889 -0.320491552352905273 0.0295217558741569519
-0.469366103410720825 -0.012324875220656395 0.181229561567306519
0.496801793575286865 -0.349171578884124756 -0.309621959924697876
0.52205425500869751 -0.327726453542709351 -0.321799933910369873
0.476618498563766479 -0.320453226566314697 -0.302889883518218994
-0.341013818979263306 0.229594424366950989 -0.044026985764503479
0.20236600935459137 0.132563889026641846 0.112595468759536743
-0.17228369414806366 0.0218715444207191467 0.0258581805974245071
0.266291201114654541 -0.16612948477268219 0.00636642239987850189
0.545350849628448486 -0.328553140163421631 -0.0475897826254367828
-0.456185668706893921 -0.0535289682447910309 0.162345290184020996
0.470311820507049561 -0.35627436637878418 -0.306954950094223022
0.479063093662261963 -0.269997596740722656 -0.301355570554733276
0.467924773693084717 -0.362083792686462402 -0.308045774698257446
-0.320006668567657471 0.266378939151763916 0.0117876548320055008
0.0336381010711193085 0.0982626080513000488 0.128820523619651794
-0.284360259771347046 -0.10043787956237793 -0.087160937488079071
-0.616666674613952637 0.216779932379722595 -0.104486070573329926
0.245064496994018555 0.104292444884777069 -0.0293538551777601242
0.466901153326034546 -0.235310256481170654 -0.22829224169254303
-0.293615460395812988 -0.0888868123292922974 -0.0957120805978775024
0.249778911471366882 -0.276325613260269165 0.322802335023880005
0.222681909799575806 0.0666426718235015869 -0.0275284182280302048
-0.250586539506912231 -0.130594328045845032 -0.0553059577941894531
-0.211345627903938293 0.301705777645111084 0.148969769477844238
0.340498745441436768 -0.140924692153930664 0.318626224994659424
0.530354022979736328 -0.356852829456329346 0.0699328333139419556
-0.599770128726959229 0.356411606073379517 0.060711149126291275
-0.346090763807296753 -0.056087791919708252 -0.143439486622810364
-0.432628899812698364 0.157300099730491638 -0.0843572616577148438
0.527244150638580322 -0.331960588693618774 0.0206449422985315323
0.528803765773773193 -0.288179218769073486 -0.0698888301849365234
-0.498733341693878174 0.142477124929428101 -0.253620892763137817
0.147098764777183533 0.15651683509349823 0.0591708719730377197
0.253898471593856812 -0.00797676946967840195 0.327978760004043579
0.350643515586853027 -0.14750729501247406 0.320863008499145508
0.442915797233581543 -0.322704106569290161 -0.22913062572479248
-0.223790809512138367 -0.140407517552375793 -0.0536168180406093597
0.523183166980743408 -0.350497186183929443 0.0972025021910667419
-0.64594578742980957 0.253248780965805054 0.024187479168176651
0.393893539905548096 -0.280444324016571045 0.322565823793411255
-0.474537044763565063 -0.010262656956911087 0.165021970868110657
0.225038826465606689 -0.325479090213775635 0.319261997938156128
-0.363439470529556274 -0.121633261442184448 0.130530223250389099
-0.238249197602272034 -0.141035705804824829 -0.0537511780858039856
-0.113608852028846741 -0.0094853471964597702 -0.0163910817354917526
0.390119850635528564 -0.278716415166854858 0.320896834135055542
-0.506859123706817627 0.0108753601089119911 0.202107548713684082
0.4632415771484375 -0.297052770853042603 -0.294078797101974487
0.351987123489379883 -0.148464992642402649 0.321719199419021606
0.458508551120758057 -0.303867310285568237 -0.228591874241828918
0.0249724593013525009 -0.144108667969703674 -0.0198949575424194336
0.369672298431396484 -0.328123718500137329 0.319022625684738159
0.392346709966659546 -0.281869262456893921 0.317158997058868408
0.129143565893173218 -0.319517791271209717 -0.0968630239367485046
-0.134175226092338562 0.278173476457595825 0.117809109389781952
-0.33311539888381958 0.0942429676651954651 -0.102118462324142456
0.374709576368331909 -0.376085132360458374 -0.214558869600296021
0.52048957347869873 -0.345858633518218994 -0.322349965572357178
0.524052262306213379 -0.358123809099197388 -0.326213568449020386
