ply
format ascii 1.0
element vertex 738
property float x
property float y
property float z
end_header
0.0573319979012012482 0.121499046683311462 0.320923000574111938
-0.575218617916107178 0.368962675333023071 0.215253010392189026
0.263916075229644775 0.0245942678302526474 -0.0588403493165969849
0.367958247661590576 -0.336683660745620728 0.16046847403049469
0.509706676006317139 -0.301521420478820801 -0.11213529109954834
0.132790803909301758 -0.320419847965240479 -0.0978794395923614502
0.515756666660308838 -0.348745107650756836 -0.0204232372343540192
0.388473987579345703 -0.346735119819641113 -0.21422557532787323
-0.577696382999420166 0.319194048643112183 0.0404524467885494232
0.535259008407592773 -0.277861654758453369 -0.320743262767791748
0.467095434665679932 -0.310899734497070312 -0.299382001161575317
0.506374716758728027 -0.347080498933792114 0.0177958086133003235
-0.556577086448669434 0.309854000806808472 0.101952239871025085
0.193059340119361877 -0.339210927486419678 -0.0592777319252490997
0.0692881122231483459 -0.282030075788497925 -0.078000970184803009
0.251699090003967285 -0.250140637159347534 0.319989025592803955
0.23913690447807312 0.0310132503509521484 0.31670832633972168
-0.121827371418476105 -0.0476731210947036743 0.00800546538084745407
0.177947014570236206 -0.100111447274684906 -0.0149401221424341202
0.53165435791015625 -0.332277595996856689 -0.013302079401910305
0.369541794061660767 -0.349452584981918335 -0.209003254771232605
0.534193038940429688 -0.245818585157394409 0.177125245332717896
0.560386002063751221 -0.31580081582069397 -0.331078290939331055
0.553763866424560547 -0.211725011467933655 0.133779242634773254
-0.543935537338256836 0.380910903215408325 0.16422194242477417
0.122101768851280212 0.117228232324123383 0.132934004068374634
-0.582905352115631104 0.35204276442527771 0.0974893718957901001
-0.482276648283004761 0.186059683561325073 -0.0918159186840057373
0.514831721782684326 -0.339154630899429321 0.0387012511491775513
0.252709567546844482 -0.279057830572128296 0.321807980537414551
0.277699470520019531 -0.355890512466430664 -0.126169174909591675
0.507159411907196045 -0.286671966314315796 -0.313808202743530273
-0.432860612869262695 -0.0570330396294593811 0.116548284888267517
0.201193198561668396 0.0905266031622886658 0.223172381520271301
0.243540391325950623 0.104449659585952759 -0.0574272796511650085
-0.196380048990249634 0.201706364750862122 0.349133521318435669
0.249699428677558899 0.0249737221747636795 0.323139429092407227
0.239057794213294983 0.019074050709605217 0.320833742618560791
-0.0321478135883808136 0.16286759078502655 0.382493764162063599
-0.483194828033447266 -0.015473589301109314 0.180018514394760132
0.483022063970565796 -0.369062870740890503 0.0459455102682113647
-0.644182026386260986 0.287210404872894287 0.0859209224581718445
0.275169670581817627 -0.165827512741088867 -0.07061024010181427
-0.412536531686782837 -0.0567099452018737793 0.0787659734487533569
-0.643723368644714355 0.175783008337020874 -0.0823246538639068604
-0.226705074310302734 -0.133781254291534424 -0.0523397810757160187
0.254211544990539551 -0.265472650527954102 0.320970326662063599
-0.346075445413589478 0.0174121558666229248 -0.11709141731262207
-0.287885487079620361 -0.0914129093289375305 -0.106641709804534912
-0.585772812366485596 0.20985826849937439 -0.218337491154670715
0.266867667436599731 -0.296934515237808228 0.315045624971389771
-0.0263910442590713501 -0.187143146991729736 -0.0435671508312225342
-0.618740379810333252 0.27700236439704895 0.0311095435172319412
-0.609504938125610352 0.298328757286071777 0.0922066941857337952
-0.398272424936294556 -0.0627018064260482788 0.118754222989082336
-0.452405571937561035 -0.0380309335887432098 0.119343437254428864
0.430382698774337769 -0.271759003400802612 0.329062432050704956
-0.0531808808445930481 0.140846654772758484 0.0915458276867866516
-0.503665566444396973 0.151278644800186157 0.355284124612808228
0.24008515477180481 -0.31920740008354187 0.322661548852920532
0.496403634548187256 -0.370882987976074219 0.0572627708315849304
0.398573100566864014 -0.25687253475189209 0.322336286306381226
-0.159059256315231323 -0.263336062431335449 0.181464821100234985
-0.499859720468521118 0.014156038872897625 0.157928898930549622
0.416861653327941895 -0.297378867864608765 0.328609555959701538
0.534578263759613037 -0.340265631675720215 -0.0185325164347887039
0.343532681465148926 -0.267471224069595337 -0.127941548824310303
-0.497144967317581177 0.0721081271767616272 0.203826934099197388
0.442927628755569458 -0.272206753492355347 0.333290845155715942
0.521312355995178223 -0.335470825433731079 0.0327042452991008759
0.45265236496925354 -0.320028901100158691 -0.293123245239257812
0.473513334989547729 -0.31174960732460022 0.116606883704662323
0.516541898250579834 -0.278562724590301514 -0.312921345233917236
0.501968026161193848 -0.326078325510025024 -0.314416676759719849
0.517402768135070801 -0.32718425989151001 0.10182499885559082
0.478617757558822632 -0.31156584620475769 -0.302264541387557983
0.113804101943969727 0.118617519736289978 0.288860917091369629
-0.122652418911457062 0.268675774335861206 0.15860198438167572
-0.615488052368164062 0.26548534631729126 0.0518242381513118744
-0.480079472064971924 0.00319449184462428093 0.181195706129074097
0.425958693027496338 -0.355074703693389893 0.158468142151832581
-0.293061375617980957 -0.110480308532714844 -0.105899818241596222
0.129758909344673157 0.0655473917722702026 0.321073532104492188
0.252988696098327637 0.0385113023221492767 -0.0779543071985244751
0.234760075807571411 0.0936886072158813477 -0.0532462634146213531
0.4169636070728302 -0.261687159538269043 -0.202436953783035278
0.520968079566955566 -0.35474202036857605 -0.0195497646927833557
-0.609528541564941406 0.381123095750808716 0.180995479226112366
0.516893446445465088 -0.27946317195892334 -0.314843893051147461
0.498396217823028564 -0.350089162588119507 0.023987848311662674
-0.588505327701568604 0.369294464588165283 0.11278177797794342
0.50527036190032959 -0.104877963662147522 0.147153645753860474
-0.19874320924282074 0.311576366424560547 0.112738676369190216
0.263317406177520752 -0.286520302295684814 0.319635152816772461
0.23616945743560791 0.0621098615229129791 0.310369253158569336
-0.145263209939002991 -0.0434122607111930847 0.00406855950132012367
-0.658468365669250488 0.214679345488548279 -0.0464823395013809204
-0.289344877004623413 -0.0758758112788200378 -0.0687472149729728699
0.226501107215881348 0.0420107617974281311 -0.0483056306838989258
0.550841450691223145 -0.144634172320365906 0.131915941834449768
0.519050300121307373 -0.295465528964996338 0.0747990310192108154
0.51688539981842041 -0.284200489521026611 -0.181278303265571594
-0.358805418014526367 -0.0170237328857183456 -0.028093632310628891
0.0907009690999984741 0.0881592780351638794 0.0856272429227828979
0.465910494327545166 -0.361988663673400879 -0.010759926401078701
-0.433635562658309937 0.157746359705924988 -0.0666974857449531555
0.523077070713043213 -0.335735499858856201 0.0688032135367393494
0.262177079916000366 -0.285888880491256714 0.318358451128005981
0.00856138020753860474 -0.0909375026822090149 -0.0262232515960931778
0.0317471809685230255 -0.130320534110069275 0.0217645540833473206
-0.631403446197509766 0.264991581439971924 0.0287703443318605423
0.241375088691711426 0.0742741599678993225 0.318635135889053345
0.239444896578788757 0.0295391250401735306 0.318721532821655273
-0.175539866089820862 0.300853520631790161 0.116119123995304108
0.303882420063018799 -0.151308223605155945 0.307650715112686157
0.261211872100830078 -0.29068833589553833 0.32084384560585022
-0.476906567811965942 -0.00807868503034114838 0.166071370244026184
0.242009371519088745 0.0817062407732009888 0.311992913484573364
0.519497692584991455 -0.351382702589035034 0.0818369835615158081
-0.0356972254812717438 -0.237458288669586182 0.123989298939704895
-0.638995230197906494 0.289995133876800537 0.0985546186566352844
-0.235019057989120483 -0.132754340767860413 -0.0581263341009616852
-0.38003125786781311 -0.108691327273845673 0.105417855083942413
-0.237228840589523315 -0.147770583629608154 -0.057970341295003891
-0.658679425716400146 0.214375630021095276 -0.0341843664646148682
0.528137385845184326 -0.352715581655502319 0.0777794793248176575
-0.621845245361328125 0.270259469747543335 0.052217584103345871
-0.404893338680267334 -0.0642465800046920776 0.111927025020122528
-0.447065830230712891 -0.0414161533117294312 0.121850259602069855
0.267280369997024536 -0.285583794116973877 0.323318809270858765
0.12688899040222168 -0.326496392488479614 0.312432020902633667
0.1515464186668396 -0.342996329069137573 0.317702949047088623
0.446977019309997559 -0.335783094167709351 -0.293096780776977539
0.515010416507720947 -0.303098887205123901 -0.108056195080280304
0.514513552188873291 -0.280434012413024902 -0.312939345836639404
0.484129190444946289 -0.327844291925430298 -0.309896677732467651
0.463595688343048096 -0.346047192811965942 -0.302770435810089111
0.548895001411437988 -0.21042633056640625 -0.316101819276809692
0.52337944507598877 -0.300214380025863647 -0.322591006755828857
0.517242491245269775 -0.301025122404098511 -0.318486332893371582
0.246094152331352234 0.0569966509938240051 0.316229194402694702
0.240578487515449524 0.087458588182926178 0.312560141086578369
-0.292511940002441406 -0.100483924150466919 -0.102027289569377899
-0.454324811697006226 -0.0518959201872348785 0.116944827139377594
0.404044032096862793 -0.272292882204055786 0.322380900382995605
-0.50311511754989624 0.00386415398679673672 0.188976243138313293
0.400335818529129028 -0.287267446517944336 0.32469603419303894
0.398483961820602417 -0.273586153984069824 0.323175758123397827
0.341448754072189331 -0.259024232625961304 0.0899964496493339539
-0.0196008682250976562 -0.244251668453216553 0.128561615943908691
-0.465216845273971558 0.0360706858336925507 0.189401715993881226
-0.195138558745384216 0.221632018685340881 0.171893090009689331
0.366045713424682617 -0.329345077276229858 -0.0236103683710098267
0.322600215673446655 -0.390159159898757935 -0.15897001326084137
0.53467029333114624 -0.323735982179641724 -0.0583246462047100067
-0.442494481801986694 -0.0046415296383202076 0.152557730674743652
-0.0199353527277708054 -0.0594356432557106018 0.141603410243988037
-0.00105465389788150787 -0.235995173454284668 0.106286607682704926
0.525470554828643799 -0.201957046985626221 -0.0801405757665634155
0.449040830135345459 -0.308476239442825317 -0.292980045080184937
0.526112198829650879 -0.275594890117645264 -0.31579318642616272
0.499162584543228149 -0.325028359889984131 -0.3127860426902771
0.474466413259506226 -0.305195659399032593 -0.29749789834022522
-0.12821824848651886 0.246638461947441101 0.138789564371109009
-0.64969933032989502 0.282013356685638428 0.0939314290881156921
-0.199674502015113831 0.286725431680679321 0.335743039846420288
0.497251302003860474 -0.0869022533297538757 0.136518105864524841
0.19991205632686615 -0.359134197235107422 -0.0908935964107513428
0.504637360572814941 -0.367762178182601929 -0.0228085033595561981
0.526509761810302734 -0.242765218019485474 0.172829180955886841
-0.586647748947143555 0.37934112548828125 0.170386642217636108
0.44425433874130249 -0.315065443515777588 -0.287854999303817749
0.497827976942062378 -0.111263200640678406 0.112037822604179382
-0.656513571739196777 0.175482049584388733 -0.104103192687034607
-0.202717900276184082 0.308765023946762085 0.0889509767293930054
0.200525224208831787 -0.0135815571993589401 0.295098096132278442
0.159222662448883057 -0.0622023344039916992 -0.0441754162311553955
-0.580199658870697021 0.302310198545455933 0.36847609281539917
0.274289458990097046 0.0981749296188354492 -0.0292906630784273148
-0.436006873846054077 0.155445367097854614 -0.0862256065011024475
0.533680260181427002 -0.333130687475204468 0.0126394135877490044
-0.569490790367126465 0.197315379977226257 -0.229416742920875549
-0.498389631509780884 0.0450746230781078339 -0.0870603248476982117
0.0306095127016305923 -0.103933759033679962 0.0329108759760856628
0.533368468284606934 -0.264637738466262817 -0.316440373659133911
0.00902238115668296814 0.19760623574256897 0.0274098217487335205
0.301395684480667114 0.0386869125068187714 -0.0846348479390144348
-0.332919597625732422 -0.015885625034570694 -0.107841528952121735
0.235719084739685059 0.0144353713840246201 0.321639746427536011
0.124293021857738495 0.013048824854195118 0.298805385828018188
0.526754975318908691 -0.355234324932098389 0.0662269145250320435
0.466334789991378784 -0.309955388307571411 -0.233225360512733459
-0.652677536010742188 0.285354524850845337 0.104039594531059265
0.545850872993469238 -0.220054715871810913 0.163388639688491821
0.527280628681182861 -0.323462039232254028 -0.016146363690495491
-0.383718788623809814 -0.0562462657690048218 0.0761071145534515381
0.45616304874420166 -0.310957908630371094 -0.292677879333496094
0.504238724708557129 -0.339947134256362915 -0.318023949861526489
0.478085041046142578 -0.314440250396728516 -0.299623668193817139
0.519650101661682129 -0.301429539918899536 -0.31745108962059021
-0.003064354183152318 -0.139890566468238831 -0.0248880814760923386
0.396817833185195923 -0.273143649101257324 0.323350697755813599
0.400488913059234619 -0.271572142839431763 0.323656052350997925
0.505344569683074951 -0.332039028406143188 0.105752080678939819
-0.468214273452758789 0.0426006130874156952 0.170512065291404724
0.409288078546524048 -0.34589192271232605 0.156489446759223938
-0.361511886119842529 -0.0351622216403484344 -0.148235693573951721
-0.128939837217330933 -0.267500817775726318 0.112319007515907288
0.511856496334075928 -0.369099169969558716 -0.0147534031420946121
-0.214338317513465881 0.312572240829467773 0.0974828079342842102
0.249881342053413391 -0.287023335695266724 0.322782814502716064
0.208201318979263306 0.00933342054486274719 -0.04622693732380867
0.0692073255777359009 -0.151438325643539429 -0.0173006653785705566
-0.170381426811218262 0.304806113243103027 0.118681564927101135
0.470362663269042969 -0.364405810832977295 0.00696202646940946579
-0.29163205623626709 -0.0992750674486160278 -0.103284791111946106
0.0357000604271888733 -0.149585962295532227 -0.0217672139406204224
0.231465190649032593 0.0562319457530975342 0.30905488133430481
0.252687156200408936 -0.288586646318435669 0.320564478635787964
-0.472322463989257812 0.00131376273930072784 0.168535590171813965
0.240285426378250122 0.0626810193061828613 0.312951892614364624
0.508231282234191895 -0.352076977491378784 0.0638773664832115173
0.226713716983795166 -0.314714878797531128 0.314467906951904297
-0.376032382249832153 -0.0929534211754798889 0.0861029922962188721
-0.0633505433797836304 -0.241430237889289856 0.302441388368606567
-0.223371535539627075 -0.127497822046279907 -0.0531866997480392456
-0.410511106252670288 -0.0652628988027572632 0.0984194353222846985
-0.445608407258987427 -0.0445353239774703979 0.13262505829334259
0.238273099064826965 -0.293960899114608765 0.314340442419052124
0.153218850493431091 -0.324205487966537476 0.320015698671340942
0.424630343914031982 -0.256066948175430298 0.328503817319869995
0.4375266432762146 -0.343006134033203125 -0.292749553918838501
0.505659043788909912 -0.334650427103042603 -0.318168848752975464
0.444374829530715942 -0.352351188659667969 -0.286808013916015625
0.237551599740982056 0.0657447129487991333 0.312231361865997314
0.402563691139221191 -0.287496656179428101 0.325820475816726685
-0.495337575674057007 0.00689898338168859482 0.188262492418289185
0.485098659992218018 -0.0633453801274299622 0.131641596555709839
0.0118184713646769524 -0.170596465468406677 0.00980023480951786041
0.530871331691741943 -0.307674914598464966 -0.0622888505458831787
0.314087033271789551 -0.302275508642196655 -0.126868143677711487
0.445226222276687622 -0.291412830352783203 -0.28571513295173645
-0.337426990270614624 0.224791347980499268 0.125592559576034546
-0.401438295841217041 -0.0280038453638553619 -0.00200850446708500385
0.402474880218505859 -0.271715551614761353 0.324039548635482788
-0.133859530091285706 0.19587157666683197 0.167637676000595093
0.39852413535118103 -0.27165105938911438 0.323852598667144775
-0.447086632251739502 -0.0247765611857175827 0.0213029887527227402
-0.138526901602745056 0.244926154613494873 0.191582828760147095
-0.613220572471618652 0.294111460447311401 0.183538094162940979
0.123925790190696716 0.116148315370082855 0.316589385271072388
-0.121472097933292389 0.250647395849227905 0.161713197827339172
-0.583741664886474609 0.348201632499694824 0.0578948333859443665
0.426200032234191895 -0.348069548606872559 0.15297389030456543
-0.56718599796295166 0.295103877782821655 -0.0692482814192771912
0.251245290040969849 0.0266474690288305283 -0.0796765983104705811
0.247059166431427002 0.100298397243022919 -0.0484692230820655823
-0.357991486787796021 -0.0555013008415699005 -0.14196525514125824
0.198102265596389771 0.120171360671520233 0.0356473475694656372
0.544968843460083008 -0.131585642695426941 0.111914455890655518
-0.582068860530853271 0.321804344654083252 -0.0231049321591854095
0.20552004873752594 0.0247181281447410583 0.176746532320976257
-0.59573739767074585 0.375217527151107788 0.171799123287200928
0.444177299737930298 -0.319173842668533325 0.127311602234840393
0.254488855600357056 -0.278555124998092651 0.316409319639205933
0.234935462474822998 0.023868020623922348 0.316484600305557251
-0.363424718379974365 -0.0495134517550468445 -0.0238601453602313995
-0.183159679174423218 0.118282914161682129 0.0422120578587055206
0.254203766584396362 -0.287992119789123535 0.319225072860717773
0.241372630000114441 0.0332374311983585358 0.321747273206710815
0.399245381355285645 0.0232903510332107544 0.115062698721885681
-0.341032266616821289 -0.0658503025770187378 -0.14740578830242157
0.0752113983035087585 -0.33265995979309082 0.298889487981796265
-0.38724052906036377 -0.0604920238256454468 0.0937406420707702637
-0.448641270399093628 -0.0410122312605381012 0.127633273601531982
0.43877902626991272 -0.279190421104431152 0.333577245473861694
0.0338539965450763702 -0.122651904821395874 -0.0256803371012210846
0.413740426301956177 -0.280636429786682129 0.326919794082641602
0.432451695203781128 -0.295934081077575684 0.333079755306243896
0.367299169301986694 -0.278606563806533813 -0.130339950323104858
-0.47780880331993103 0.00178870256058871746 0.188226327300071716
-0.292044550180435181 -0.0959865748882293701 -0.104617580771446228
0.240824311971664429 -0.312748342752456665 0.309586852788925171
0.472592771053314209 -0.354129374027252197 0.00697161303833127022
-0.296874910593032837 -0.0962376669049263 -0.107072032988071442
0.244181632995605469 -0.288335204124450684 0.319978415966033936
0.0617485940456390381 -0.329358994960784912 0.296974748373031616
0.157395526766777039 -0.267522960901260376 -0.105567976832389832
0.24958212673664093 0.0634858757257461548 0.315375715494155884
-0.482923060655593872 -0.00759115396067500114 0.177837446331977844
0.235723301768302917 0.0666623041033744812 0.314733207225799561
0.238165035843849182 -0.331548899412155151 0.321314066648483276
-0.382718980312347412 -0.0916482731699943542 0.036652829498052597
-0.216638773679733276 -0.139728814363479614 -0.0544183701276779175
-0.383147209882736206 -0.0633003264665603638 0.0834576189517974854
0.149431556463241577 -0.331312447786331177 0.3318043053150177
0.445300698280334473 -0.279723823070526123 0.333501130342483521
0.406851381063461304 -0.280346006155014038 0.325032055377960205
-0.502425253391265869 0.00687750661745667458 0.188574731349945068
-0.322356313467025757 0.0974370017647743225 -0.0703886523842811584
0.531971752643585205 -0.207485288381576538 -0.0527190454304218292
0.450420558452606201 -0.29385221004486084 -0.290603756904602051
0.486890971660614014 -0.325197547674179077 -0.311027050018310547
0.445861399173736572 -0.30968940258026123 -0.290969043970108032
-0.578054964542388916 0.26932758092880249 0.365672916173934937
-0.461862236261367798 0.105962216854095459 -0.231201931834220886
0.37425684928894043 -0.318535715341567993 0.198997065424919128
-0.590114951133728027 0.366967469453811646 0.131010890007019043
0.391976326704025269 -0.353355616331100464 -0.217597827315330505
0.440556168556213379 -0.310230433940887451 -0.289178162813186646
-0.201101318001747131 0.305494040250778198 0.0948140919208526611
-0.155961513519287109 0.268013685941696167 0.15152372419834137
0.529239177703857422 -0.338365405797958374 0.071718953549861908
0.463271677494049072 -0.266101747751235962 -0.217791333794593811
-0.633858382701873779 0.275772452354431152 0.106813035905361176
0.43787693977355957 -0.308522611856460571 -0.287348836660385132
0.514957129955291748 -0.27717927098274231 -0.316990852355957031
0.516064941883087158 -0.340302139520645142 -0.320906311273574829
0.453826367855072021 -0.307007372379302979 -0.293404519557952881
0.490326642990112305 -0.321846961975097656 0.0942826345562934875
0.0200130268931388855 -0.27550777792930603 -0.018618021160364151
-0.654447317123413086 0.172023430466651917 -0.108379065990447998
-0.225127726793289185 0.318604350090026855 0.121208153665065765
0.464758872985839844 -0.364010512828826904 0.00580054428428411484
0.480494499206542969 -0.336731255054473877 0.050172027200460434
0.510966002941131592 -0.339362084865570068 -0.319564849138259888
0.439634740352630615 -0.356502711772918701 -0.297761768102645874
-0.270432442426681519 0.322054266929626465 0.0417193658649921417
0.423593133687973022 -0.313238918781280518 -0.282042115926742554
0.414940476417541504 -0.295089662075042725 0.328366011381149292
-0.326554059982299805 -0.0751060768961906433 0.123399257659912109
-0.367324233055114746 -0.0664227306842803955 0.154600217938423157
-0.338679760694503784 0.214964047074317932 0.132732048630714417
0.00952542107552289963 0.119486674666404724 0.105035826563835144
0.541475355625152588 -0.309143781661987305 -0.0463223792612552643
0.0130483405664563179 -0.26149439811706543 0.0394571982324123383
-0.00412363186478614807 -0.236270815134048462 0.0941994786262512207
-0.000366661144653335214 -0.2193174809217453 0.0814605727791786194
0.464342117309570312 -0.360862672328948975 0.030200909823179245
-0.269852787256240845 -0.137708351016044617 0.177420914173126221
-0.345534592866897583 -0.0655997395515441895 0.141191780567169189
0.122873030602931976 -0.276432633399963379 0.128904983401298523
-0.134372800588607788 0.0789557620882987976 0.0901881158351898193
0.462936609983444214 -0.054477594792842865 0.0174398664385080338
-0.0147010572254657745 -0.216627150774002075 0.0803013071417808533
-0.555090427398681641 0.39167746901512146 0.147536665201187134
0.496034055948257446 -0.36674085259437561 0.00512852566316723824
-0.611048281192779541 0.294110089540481567 0.18634311854839325
0.529494345188140869 -0.275244474411010742 -0.317829668521881104
0.369761019945144653 -0.264515191316604614 0.181418433785438538
0.419753104448318481 -0.34438517689704895 0.150740921497344971
0.251386940479278564 0.0391416475176811218 -0.0668119266629219055
0.548870265483856201 -0.149966076016426086 0.124104566872119904
-0.570904433727264404 0.284068465232849121 -0.00660560186952352524
0.500306129455566406 -0.362594664096832275 -0.00140223349444568157
0.207634657621383667 0.115610323846340179 -0.0105970036238431931
-0.289693236351013184 -0.0853771567344665527 -0.0664705559611320496
0.158601954579353333 -0.0831528529524803162 -0.0362543649971485138
-0.340407967567443848 -0.105154618620872498 0.14123767614364624
0.510495126247406006 -0.281405031681060791 -0.313342958688735962
-0.339752674102783203 -0.0793660655617713928 0.0385577976703643799
-0.369769930839538574 0.28078886866569519 -0.0627334415912628174
0.509256839752197266 -0.340934157371520996 0.0650023519992828369
0.301674634218215942 -0.20580562949180603 0.247782900929450989
0.542217075824737549 -0.312030225992202759 -0.0608713105320930481
0.140928700566291809 0.069610200822353363 0.336243331432342529
-0.595244944095611572 0.26757851243019104 0.0119789270684123039
0.221356987953186035 -0.00700328405946493149 0.295430660247802734
0.230215728282928467 0.0343979857861995697 0.312618225812911987
0.532918632030487061 -0.31962856650352478 -0.0129146585240960121
-0.389771193265914917 -0.0637000724673271179 0.105706058442592621
-0.447984427213668823 -0.039864957332611084 0.126484811305999756
0.495355010032653809 -0.0914023891091346741 0.15431252121925354
0.250249534845352173 0.0631630197167396545 0.31649354100227356
-0.291752099990844727 -0.0924402922391891479 0.307638406753540039
-0.367009520530700684 -0.114452973008155823 0.104013442993164062
-0.563822269439697266 0.12741619348526001 -0.0786169618368148804
-0.501886606216430664 0.0237149503082036972 0.186618447303771973
0.517551541328430176 -0.297420322895050049 -0.314180254936218262
0.471988499164581299 -0.328305661678314209 -0.30002892017364502
-0.574589312076568604 0.268994569778442383 0.362599611282348633
-0.571517646312713623 0.354970961809158325 0.166884616017341614
-0.192185491323471069 0.304745227098464966 0.101175926625728607
-0.662441670894622803 0.239857375621795654 0.0414707772433757782
-0.505242049694061279 0.144624307751655579 0.353270441293716431
0.506546497344970703 -0.347227513790130615 -0.318461686372756958
-0.201010912656784058 0.305080413818359375 0.101835742592811584
0.47449105978012085 -0.357656925916671753 0.00455764122307300568
0.50914466381072998 -0.330754488706588745 0.066278509795665741
-0.611068665981292725 0.367635220289230347 0.0875951871275901794
-0.562886059284210205 0.288334280252456665 -0.0561403222382068634
0.219293013215065002 0.0103544183075428009 0.308956682682037354
0.239857971668243408 0.00517952023074030876 0.32141539454460144
-0.360042333602905273 -0.0566447451710700989 -0.137960806488990784
0.398656278848648071 -0.252725988626480103 0.321781456470489502
0.39895901083946228 -0.263095647096633911 0.324533462524414062
0.223436459898948669 -0.32399904727935791 0.320544272661209106
0.410444438457489014 -0.267839312553405762 0.324953973293304443
-0.509515523910522461 0.0496705248951911926 0.195206180214881897
-0.631612718105316162 0.156610071659088135 -0.0528242513537406921
-0.502214670181274414 0.147188857197761536 0.345243245363235474
0.520354390144348145 -0.350787729024887085 -0.323206931352615356
0.494679123163223267 -0.348386675119400024 7.65594668337143958e-05
-0.198404222726821899 0.0163055993616580963 -0.050042029470205307
-0.558122515678405762 0.341822534799575806 -0.00591805204749107361
0.487888246774673462 -0.360507577657699585 0.0408973358571529388
0.448535442352294922 -0.0743908658623695374 0.00176522426772862673
-0.556616306304931641 0.385287582874298096 0.15766201913356781
0.373964428901672363 -0.0813447684049606323 -0.120103217661380768
-0.390075266361236572 0.319706529378890991 0.168695643544197083
-0.385032325983047485 0.328274369239807129 0.197393804788589478
-0.364574253559112549 0.238068655133247375 -0.0836305022239685059
-0.407698601484298706 0.199633270502090454 0.0407930947840213776
-0.644807934761047363 0.28688850998878479 0.0934421047568321228
0.407913446426391602 -0.347258001565933228 0.136263489723205566
0.221708551049232483 0.0827666595578193665 -0.0337256714701652527
0.49793475866317749 -0.161394029855728149 0.12363898754119873
0.499692022800445557 -0.0930182337760925293 0.134546101093292236
0.214701935648918152 0.00191471155267208815 0.299290388822555542
-0.353622585535049438 -0.0679161772131919861 -0.00914965663105249405
-0.385806530714035034 0.266050487756729126 -0.0718202516436576843
0.505821406841278076 -0.347154587507247925 0.0547552108764648438
-0.357463568449020386 -0.0561094582080841064 -0.145552828907966614
0.131556496024131775 0.0726706907153129578 0.321971267461776733
-0.100184805691242218 -0.265329331159591675 0.00604822998866438866
0.241770312190055847 0.0233108606189489365 0.321719527244567871
-0.480784982442855835 -0.0115094436332583427 0.185221090912818909
0.241806462407112122 0.0482857450842857361 0.316898643970489502
-0.278595417737960815 0.332724541425704956 0.0404988899827003479
0.369171440601348877 -0.0310579538345336914 -0.0401599965989589691
0.519518435001373291 -0.348081529140472412 -0.0364930853247642517
0.292624175548553467 -0.0121044255793094635 0.0368106402456760406
-0.64449542760848999 0.284807741641998291 0.0922899022698402405
0.0351205393671989441 0.136681124567985535 0.0849402397871017456
-0.397889792919158936 -0.0574080497026443481 0.125801324844360352
-0.44184151291847229 -0.0380173772573471069 0.131227955222129822
0.523197591304779053 -0.317684680223464966 -0.0656361207365989685
0.421802341938018799 -0.280028820037841797 0.331019788980484009
0.508987247943878174 -0.34505036473274231 0.0569229498505592346
0.403214693069458008 -0.258903026580810547 0.323428511619567871
-0.480691850185394287 0.0182257946580648422 0.176604017615318298
0.234850525856018066 0.0684644430875778198 0.314295172691345215
-0.47985541820526123 -0.00817526411265134811 0.167252466082572937
0.238474860787391663 0.0674717426300048828 0.31469649076461792
0.387487530708312988 0.0257539805024862289 0.105747118592262268
0.218958497047424316 -0.315998584032058716 0.31020238995552063
0.382318377494812012 0.0426475107669830322 0.0687872171401977539
0.462027817964553833 0.0104975849390029907 0.174804404377937317
0.398839235305786133 -0.258692711591720581 0.327002197504043579
-0.499999731779098511 0.0212946571409702301 0.180820956826210022
-0.573784768581390381 0.266271799802780151 0.359822481870651245
-0.664910495281219482 0.229920059442520142 0.0216121282428503036
-0.149735987186431885 0.275324612855911255 0.0788737311959266663
0.521398007869720459 -0.335214853286743164 -0.322821915149688721
-0.220820128917694092 0.315643101930618286 0.0965558737516403198
0.499208539724349976 -0.346640676259994507 0.0668132901191711426
-0.190180331468582153 0.302730381488800049 0.11457708477973938
0.312969326972961426 -0.130224704742431641 0.300499826669692993
0.224430099129676819 -0.0352792367339134216 0.304935455322265625
0.0567974410951137543 -0.330630272626876831 0.29122200608253479
0.434598684310913086 -0.280067890882492065 0.332532703876495361
0.408318966627120972 -0.285855740308761597 0.330698221921920776
0.3850230872631073 -0.265886187553405762 0.318576723337173462
0.396719992160797119 -0.384793668985366821 -0.22589389979839325
-0.162708297371864319 0.278367549180984497 0.128428205847740173
0.379957526922225952 0.0436726473271846771 0.0767288506031036377
0.390149563550949097 -0.25584864616394043 0.318584740161895752
-0.500717282295227051 0.0245758127421140671 0.185657724738121033
0.498944729566574097 -0.32609713077545166 -0.313447773456573486
0.379890173673629761 -0.376080363988876343 -0.216502860188484192
0.520461618900299072 -0.349434643983840942 -0.325223207473754883
0.520020544528961182 -0.348573565483093262 -0.322162151336669922
0.512643814086914062 -0.319828391075134277 -0.318788349628448486
0.254268109798431396 -0.222428753972053528 0.0572773255407810211
0.185283496975898743 -0.142371594905853271 -0.105815976858139038
0.507110118865966797 -0.320353150367736816 0.0289719272404909134
-0.469883561134338379 -0.0117641612887382507 0.180916741490364075
0.495528280735015869 -0.349128365516662598 -0.310116410255432129
0.520805478096008301 -0.327700942754745483 -0.322295010089874268
0.475332856178283691 -0.320416808128356934 -0.303394526243209839
-0.341604351997375488 0.229857400059700012 -0.0445223152637481689
0.201019272208213806 0.132635638117790222 0.111935637891292572
-0.173132359981536865 0.0222718734294176102 0.0254257824271917343
0.264885425567626953 -0.165920659899711609 0.00580513989552855492
0.544022500514984131 -0.328448712825775146 -0.0481251999735832214
-0.456745743751525879 -0.0529535561800003052 0.162037014961242676
0.469018399715423584 -0.356220901012420654 -0.307449668645858765
0.477782547473907471 -0.269992262125015259 -0.301879078149795532
0.46662941575050354 -0.362027794122695923 -0.308539003133773804
-0.320603132247924805 0.266643673181533813 0.0112926578149199486
0.0324905440211296082 0.0985339581966400146 0.128281354904174805
-0.285111337900161743 -0.0999207794666290283 -0.0874945744872093201
-0.617151856422424316 0.216979295015335083 -0.105064325034618378
0.243704736232757568 0.104262672364711761 -0.0300468336790800095
0.465588688850402832 -0.235299408435821533 -0.228844359517097473
-0.294357478618621826 -0.0883870944380760193 -0.0960512086749076843
0.248446017503738403 -0.275897562503814697 0.322314590215682983
0.221325427293777466 0.0666717216372489929 -0.0281880050897598267
-0.251390397548675537 -0.130059882998466492 -0.055630125105381012
-0.212048709392547607 0.301995545625686646 0.148490265011787415
0.3391152024269104 -0.140675395727157593 0.318049341440200806
0.528992176055908203 -0.35668480396270752 0.0693941488862037659
-0.600201308727264404 0.356602072715759277 0.0601712018251419067
-0.346779912710189819 -0.0556374154984951019 -0.143789738416671753
-0.433171004056930542 0.157604873180389404 -0.0848314166069030762
0.525888204574584961 -0.331825077533721924 0.0201011374592781067
0.527474939823150635 -0.288102865219116211 -0.0704350844025611877
-0.499259471893310547 0.142685383558273315 -0.254122346639633179
0.145827293395996094 0.156594648957252502 0.0585236810147762299
0.25253644585609436 -0.00773823726922273636 0.327389806509017944
0.349260419607162476 -0.147262617945671082 0.3202858567237854
0.441580533981323242 -0.32262873649597168 -0.229647830128669739
-0.224628150463104248 -0.13987240195274353 -0.053942948579788208
0.521815598011016846 -0.350319206714630127 0.0966618359088897705
-0.646411895751953125 0.253469169139862061 0.0236446205526590347
0.392516255378723145 -0.280154436826705933 0.322027981281280518
-0.475064992904663086 -0.00971940159797668457 0.164698749780654907
0.223724246025085449 -0.325001269578933716 0.318801075220108032
-0.364097625017166138 -0.121010102331638336 0.130244910717010498
-0.239070013165473938 -0.140495032072067261 -0.0540722794830799103
-0.114556498825550079 -0.00910779088735580444 -0.0168354716151952744
0.388741225004196167 -0.278424888849258423 0.320358544588088989
-0.507359504699707031 0.0114043606445193291 0.201781481504440308
0.461944311857223511 -0.297025471925735474 -0.294593513011932373
0.350604236125946045 -0.148220732808113098 0.32114216685295105
0.457183748483657837 -0.303809314966201782 -0.229115918278694153
0.0238088127225637436 -0.143684163689613342 -0.0203228071331977844
0.36829298734664917 -0.327791422605514526 0.318503797054290771
0.390966713428497314 -0.281578153371810913 0.316620379686355591
0.127848833799362183 -0.319087892770767212 -0.0972519218921661377
-0.135004371404647827 0.278423964977264404 0.117284834384918213
-0.33375433087348938 0.0945803448557853699 -0.10256282240152359
0.373324185609817505 -0.375941067934036255 -0.215055212378501892
0.519238531589508057 -0.345824092626571655 -0.322839915752410889
0.522804856300354004 -0.358085095882415771 -0.326698899269104004
-0.0689550116658210754 -0.254625618457794189 0.0987696573138237
0.325051963329315186 -0.130915567278862 0.314470231533050537
0.423643916845321655 -0.259831875562667847 0.328032314777374268
-0.480302810668945312 0.032046731561422348 0.196535587310791016
0.525994956493377686 -0.299702346324920654 -0.322305202484130859
0.537435412406921387 -0.292555063962936401 -0.324720114469528198
0.377119749784469604 -0.374180823564529419 -0.213766440749168396
0.370629698038101196 -0.357121258974075317 -0.21377013623714447
0.523428022861480713 -0.351685553789138794 -0.325081080198287964
0.524732768535614014 -0.363458573818206787 -0.323169231414794922
0.514900743961334229 -0.327242374420166016 -0.320160597562789917
0.478828907012939453 -0.352381408214569092 -0.31229284405708313
0.477791815996170044 -0.365647614002227783 -0.313008338212966919
-0.362212419509887695 0.310507476329803467 0.239595234394073486
-0.321289032697677612 0.104204729199409485 0.0220691785216331482
-0.448029845952987671 0.204330727458000183 -0.0405368581414222717
-0.378155112266540527 0.279399961233139038 -0.0074496106244623661
-0.0232095643877983093 -0.260549724102020264 0.143721342086791992
-0.592306137084960938 0.361473113298416138 0.0639706254005432129
0.366823583841323853 -0.373504668474197388 -0.21255725622177124
-0.124691754579544067 -0.0105482926592230797 0.00785634852945804596
0.395908921957015991 -0.353406816720962524 -0.218381717801094055
0.506696343421936035 -0.159653171896934509 0.125025451183319092
0.19475950300693512 0.124633453786373138 0.00620653061196208
-0.0275122430175542831 0.166954070329666138 0.382851690053939819
-0.334597080945968628 -0.120857588946819305 0.100245527923107147
-0.325689852237701416 0.302934318780899048 -0.0369067676365375519
0.533428847789764404 -0.346851825714111328 0.0376834869384765625
0.524677157402038574 -0.331888884305953979 0.0343560352921485901
-0.596121549606323242 0.382122963666915894 0.113158479332923889
-0.0117793651297688484 -0.144090563058853149 -0.0269428268074989319
-0.235779240727424622 0.172110229730606079 -0.00180741364601999521
-0.485948145389556885 -0.0104033732786774635 0.177118822932243347
-0.278515845537185669 0.336136162281036377 0.0420478694140911102
0.512766599655151367 -0.349106788635253906 0.0969246700406074524
-0.449089080095291138 -0.035552486777305603 0.117325000464916229
0.43372681736946106 -0.25328412652015686 0.331632405519485474
0.414208382368087769 -0.278382450342178345 0.327103585004806519
-0.46934625506401062 0.0346610657870769501 0.193473473191261292
0.501594781875610352 -0.339611023664474487 0.00781561899930238724
-0.481909811496734619 -0.00256377342157065868 0.177448570728302002
-0.377983063459396362 -0.106431938707828522 0.0928498059511184692
-0.50146639347076416 0.0224283561110496521 0.184219256043434143
0.359943121671676636 -0.286947250366210938 -0.141904786229133606
0.000883826287463307381 -0.231178238987922668 0.089983232319355011
-0.140789330005645752 0.265126824378967285 0.0882619991898536682
-0.130109444260597229 0.254442006349563599 0.0712556466460227966
0.311887860298156738 -0.293283402919769287 -0.131254926323890686
0.427559047937393188 -0.255521386861801147 0.330131679773330688
-0.615734755992889404 0.306714624166488647 0.39208868145942688
0.410071372985839844 -0.357995808124542236 -0.22645394504070282
0.504486560821533203 -0.346549957990646362 -0.319934725761413574
0.507182538509368896 -0.352584630250930786 -0.322642773389816284
0.522976696491241455 -0.298563361167907715 -0.318726211786270142
0.509143948554992676 -0.34689640998840332 -0.320260494947433472
0.269320696592330933 -0.169423565268516541 -0.0796457156538963318
0.133113905787467957 0.120395146310329437 0.328973174095153809
0.251176208257675171 -0.284921735525131226 0.328055053949356079
0.32380327582359314 -0.120212994515895844 0.310503751039505005
0.301759451627731323 -0.204376727342605591 0.251049548387527466
0.249418839812278748 -0.00375106954015791416 0.324945181608200073
0.506617367267608643 -0.343145936727523804 0.0874631702899932861
0.241084292531013489 0.0898822695016860962 0.309849679470062256
0.46223902702331543 -0.28412628173828125 -0.231235846877098083
-0.26267772912979126 0.314021110534667969 0.0456860363483428955
0.343456089496612549 -0.139971241354942322 0.32931065559387207
0.373171150684356689 -0.36386910080909729 -0.208764180541038513
0.336999356746673584 -0.129241809248924255 0.3205527663230896
0.525889813899993896 -0.34723702073097229 -0.324083566665649414
0.523655056953430176 -0.352092146873474121 -0.326637178659439087
0.479430556297302246 -0.372357070446014404 -0.313098430633544922
-0.36053892970085144 -0.0647779926657676697 0.0828290879726409912
-0.407974094152450562 0.0887499675154685974 -0.11329205334186554
0.0134768141433596611 0.09823569655418396 0.21704573929309845
-0.379071950912475586 -0.0929687544703483582 -0.0283933896571397781
0.264836370944976807 0.0682902932167053223 -0.0919664576649665833
-0.108870424330234528 -0.0150159578770399094 0.0459396094083786011
-0.358645200729370117 -0.0917975753545761108 0.0128705604001879692
-0.290823370218276978 0.304889053106307983 0.166467994451522827
-0.356079369783401489 -0.0733485817909240723 0.040571257472038269
-0.598952293395996094 0.294632166624069214 0.186394482851028442
0.248770654201507568 0.0966610312461853027 -0.0344456695020198822
0.37845999002456665 -0.354926377534866333 -0.209437161684036255
0.469092637300491333 -0.324733912944793701 0.137886911630630493
0.463825374841690063 -0.271883875131607056 -0.0930670946836471558
-0.440144240856170654 -0.0428746268153190613 0.0841528251767158508
-0.336860239505767822 -0.124525293707847595 0.127546191215515137
0.527655184268951416 -0.341927707195281982 0.0509178787469863892
0.392085164785385132 0.0469983220100402832 0.133439898490905762
-0.18641345202922821 0.314130067825317383 0.107687205076217651
-0.442093163728713989 -0.0427642464637756348 0.117724694311618805
0.536699771881103516 -0.326214492321014404 -0.0557472631335258484
-0.353480100631713867 0.306468278169631958 0.114060349762439728
0.49345928430557251 -0.34611666202545166 0.0440033860504627228
-0.575899124145507812 0.305251896381378174 0.379237145185470581
0.430304616689682007 -0.280973941087722778 0.333590328693389893
-0.478095769882202148 0.00419369759038090706 0.164036080241203308
0.524297833442687988 -0.349888354539871216 -0.00266918609850108624
-0.0679100900888442993 -0.262645214796066284 0.298360764980316162
-0.512380778789520264 0.00474480167031288147 0.187962710857391357
0.389209538698196411 -0.360352575778961182 -0.215734288096427917
-0.119020983576774597 0.254409849643707275 0.0634812712669372559
-0.50089561939239502 0.00516676949337124825 0.193153873085975647
0.425786077976226807 -0.274477124214172363 0.330522239208221436
-0.334097921848297119 0.104216352105140686 -0.118648849427700043
-0.106385260820388794 0.254279255867004395 0.0934964120388031006
0.510065317153930664 -0.341791063547134399 -0.319738239049911499
-0.613196790218353271 0.302680492401123047 0.396112829446792603
-0.509452879428863525 0.0367322079837322235 0.18848024308681488
-0.291683167219161987 -0.0889802798628807068 -0.0787108913064002991
0.50891953706741333 -0.345069617033004761 -0.321163386106491089
0.0711992308497428894 0.139309883117675781 0.0723892152309417725
0.244944259524345398 0.107195623219013214 0.321295320987701416
0.472519993782043457 -0.286888331174850464 -0.230766460299491882
0.304564952850341797 -0.314646601676940918 0.331621706485748291
0.511133968830108643 -0.350135833024978638 -0.322188824415206909
-0.315956801176071167 -0.0868111103773117065 -0.0343607254326343536
0.513746261596679688 -0.355838686227798462 -0.323155075311660767
-0.625677049160003662 0.180397644639015198 -0.0864088237285614014
-0.354129374027252197 -0.0557355470955371857 -0.14409010112285614
-0.331729739904403687 0.269565969705581665 -0.0552517473697662354
-0.177836865186691284 0.138985916972160339 0.00487997382879257202
0.544749140739440918 -0.21752697229385376 0.159065261483192444
0.0299474112689495087 0.102557733654975891 0.0652519762516021729
0.50919419527053833 -0.331009238958358765 -0.319538146257400513
0.585248768329620361 -0.325290650129318237 -0.320135027170181274
0.249042078852653503 -0.288235515356063843 0.318275809288024902
0.254890114068984985 -0.00306021608412265778 0.327882617712020874
0.300866872072219849 -0.282528162002563477 0.33114054799079895
-0.344763398170471191 -0.0906065553426742554 0.0178953930735588074
-0.374946773052215576 -0.0898001044988632202 -0.0183494556695222855
-0.0660154372453689575 -0.273253887891769409 0.159320488572120667
-0.630902469158172607 0.275711625814437866 0.075726240873336792
0.365912646055221558 -0.365689396858215332 -0.212334588170051575
-0.125028118491172791 -0.0290695112198591232 -0.0067069660872220993
-0.598991215229034424 0.342379391193389893 0.090324006974697113
0.443309575319290161 -0.249588310718536377 -0.286403894424438477
0.381971687078475952 -0.348177969455718994 -0.21220456063747406
0.311681687831878662 -0.372753888368606567 -0.156198054552078247
-0.180048972368240356 0.312765181064605713 0.0998745039105415344
0.534462094306945801 -0.3193989098072052 -0.032556924968957901
-0.655611872673034668 0.238431006669998169 0.0138179576024413109
-0.453540682792663574 -0.0536793507635593414 0.163185417652130127
0.499269276857376099 -0.348663479089736938 0.071226164698600769
0.439846187829971313 -0.260929375886917114 0.334199786186218262
0.506557762622833252 -0.343892753124237061 0.0297701619565486908
0.263861984014511108 0.121438257396221161 0.0269393399357795715
0.399188607931137085 0.0324055664241313934 0.139609426259994507
-0.10699695348739624 0.252672284841537476 0.0725227594375610352
0.315934896469116211 -0.380780160427093506 -0.157075896859169006
-0.567091703414916992 0.295575439929962158 -0.0516716614365577698
0.389668643474578857 -0.362868160009384155 -0.221114799380302429
0.358359068632125854 0.0332959778606891632 0.0483996830880641937
0.193839609622955322 -0.365420430898666382 -0.0958774611353874207
0.390546411275863647 -0.355796277523040771 -0.217240869998931885
0.51906883716583252 -0.335307031869888306 -0.322685271501541138
0.522274494171142578 -0.333492130041122437 -0.324126482009887695
0.243612706661224365 0.0241492819041013718 0.323806494474411011
0.211783498525619507 -0.338479757308959961 0.318472594022750854
0.23643571138381958 0.106054238975048065 0.314872026443481445
0.521029770374298096 -0.337215542793273926 -0.325775086879730225
0.317433774471282959 -0.379891037940979004 -0.15123063325881958
0.583580911159515381 -0.318175375461578369 -0.334352254867553711
-0.381556183099746704 -0.0932356938719749451 -0.0178540442138910294
0.457584172487258911 -0.325567752122879028 0.124901711940765381
0.388258963823318481 0.0534192398190498352 0.131429716944694519
-0.1742849200963974 0.307370483875274658 0.105757355690002441
-0.462683796882629395 -0.0298843607306480408 0.134409785270690918
0.438983887434005737 -0.261512905359268188 0.334978044033050537
0.399603813886642456 0.0245972350239753723 0.127742186188697815
0.426657557487487793 -0.263654083013534546 0.331909030675888062
-0.510238170623779297 0.0044703977182507515 0.190753981471061707
-0.131637915968894958 0.253658682107925415 0.0814331024885177612
-0.284448742866516113 0.335850447416305542 0.0341175459325313568
0.454674452543258667 -0.259542375802993774 0.336503446102142334
-0.331326395273208618 0.0978875309228897095 -0.11784682422876358
-0.508954644203186035 0.0362462811172008514 0.188437625765800476
0.257396548986434937 0.00751505419611930847 0.327371716499328613
0.445243656635284424 -0.256057769060134888 0.333687752485275269
0.235576137900352478 0.10905882716178894 0.308643192052841187
0.301778823137283325 -0.32913091778755188 0.334264218807220459
-0.321010947227478027 0.266979306936264038 -0.0471378937363624573
-0.134064137935638428 -0.268401741981506348 -0.00493206130340695381
-0.377650052309036255 -0.0752954483032226562 0.0238032545894384384
-0.376276850700378418 -0.0634321793913841248 -0.160152390599250793
-0.495312005281448364 -0.0225569251924753189 0.173706665635108948
-0.52826845645904541 -0.00669294456019997597 0.186542987823486328
0.381392896175384521 -0.366658776998519897 -0.219300583004951477
0.388464540243148804 -0.330161333084106445 0.18642638623714447
-0.578400850296020508 0.291854411363601685 -0.0411544553935527802
0.240985780954360962 0.0882525146007537842 -0.0396579988300800323
0.373862087726593018 -0.351527661085128784 -0.209884211421012878
0.186551913619041443 0.107774846255779266 0.00163452071137726307
-0.342266201972961426 0.273073971271514893 -0.0520723052322864532
0.531783699989318848 -0.35379946231842041 0.0532977543771266937
-0.114340446889400482 0.18551318347454071 0.354445397853851318
-0.216317698359489441 0.313480019569396973 0.1119094118475914
0.469779431819915771 -0.305142819881439209 -0.235841035842895508
0.535772860050201416 -0.32099461555480957 -0.0263378582894802094
-0.266841977834701538 0.310072004795074463 0.0452003590762615204
0.278174132108688354 0.00823663640767335892 -0.0274646580219268799
0.383783429861068726 -0.362242698669433594 -0.217018693685531616
0.0272381138056516647 -0.0954797640442848206 0.0187184177339076996
