ply
format ascii 1.0
element vertex 738
property float x
property float y
property float z
end_header
0.440682500600814819 -0.26516452431678772 -0.283636361360549927
-0.589039087295532227 0.357507377862930298 0.0613907165825366974
0.50510096549987793 -0.126718074083328247 0.124684251844882965
-0.207014575600624084 0.312532961368560791 0.10875760018825531
0.268030554056167603 -0.284082621335983276 0.319323986768722534
0.232454195618629456 0.00365421432070434093 0.318088173866271973
0.513011276721954346 -0.175802648067474365 -0.281650155782699585
-0.115907192230224609 0.00983946956694126129 0.0059347120113670826
0.403636068105697632 -0.359867006540298462 -0.224616020917892456
0.417466282844543457 -0.313294559717178345 0.143966346979141235
-0.55654984712600708 0.376579254865646362 0.186459198594093323
-0.176390275359153748 0.309214770793914795 0.118458501994609833
-0.390753984451293945 0.275951117277145386 -0.0852059796452522278
0.365242868661880493 0.0519199147820472717 0.0249036960303783417
0.12897762656211853 0.115823902189731598 0.319049090147018433
-0.287530243396759033 -0.100823991000652313 -0.0921337977051734924
0.258039116859436035 0.100964851677417755 -0.0617633014917373657
-0.362313657999038696 -0.0600578263401985168 -0.144321098923683167
0.133936136960983276 0.113789893686771393 0.337994664907455444
-0.564200460910797119 0.199174165725708008 -0.229346811771392822
-0.277304202318191528 0.287985563278198242 -0.000926660257391631603
0.454638481140136719 -0.246645480394363403 -0.288217037916183472
0.459973603487014771 -0.275617271661758423 -0.290757030248641968
-0.635878026485443115 0.308220744132995605 0.170036882162094116
0.512260973453521729 -0.317538589239120483 -0.0384146533906459808
0.468675047159194946 -0.266010820865631104 -0.297885686159133911
0.47787591814994812 -0.295236557722091675 -0.300180435180664062
0.457894027233123779 -0.246428415179252625 -0.289789468050003052
0.380879491567611694 -0.361205995082855225 -0.213801130652427673
-0.480501532554626465 -0.0126561010256409645 0.185648053884506226
-0.517500698566436768 0.365829318761825562 0.1737862229347229
-0.619593143463134766 0.201964423060417175 -0.0875070616602897644
-0.23817192018032074 0.0186686236411333084 -0.072598189115524292
-0.383605509996414185 -0.0592060908675193787 0.0235522370785474777
0.47467273473739624 -0.368410736322402954 0.0219801254570484161
-0.650282323360443115 0.236754819750785828 0.0318811759352684021
0.412332981824874878 -0.346927791833877563 -0.22158069908618927
0.525858163833618164 -0.337172269821166992 0.0802451372146606445
0.505759298801422119 -0.239201024174690247 -0.307996928691864014
0.249372765421867371 -0.28227117657661438 0.31837165355682373
0.239141985774040222 0.0667078569531440735 0.314873993396759033
0.539320826530456543 -0.301909714937210083 -0.0935149714350700378
-0.448914289474487305 -0.0415178053081035614 0.126339226961135864
-0.0443237796425819397 0.104536741971969604 0.317896068096160889
0.247902140021324158 0.0211515463888645172 0.322428464889526367
-0.285850495100021362 -0.0999595075845718384 -0.0991561189293861389
-0.138482645153999329 -0.0152155375108122826 -0.0488074347376823425
-0.278738319873809814 0.337895840406417847 0.0469428077340126038
-0.255558252334594727 0.289897948503494263 -0.00326076499186456203
-0.219696223735809326 0.32193988561630249 0.0698416605591773987
-0.574309051036834717 0.152164757251739502 -0.0747931450605392456
-0.290835350751876831 0.292698204517364502 0.015995243564248085
0.525422096252441406 -0.32069513201713562 0.0273602250963449478
0.346058160066604614 -0.0304806213825941086 -0.0342082791030406952
0.52203834056854248 -0.362941116094589233 0.0895694643259048462
-0.0839249938726425171 -0.111931920051574707 0.0785175561904907227
-0.404949724674224854 0.32607114315032959 0.121066778898239136
0.504541099071502686 -0.367137938737869263 -0.00432544760406017303
-0.119339205324649811 0.266170710325241089 0.121022559702396393
0.518515884876251221 -0.342994749546051025 0.0360214374959468842
0.129971221089363098 -0.334759533405303955 0.301285833120346069
0.466471761465072632 -0.311087459325790405 0.0726672708988189697
0.482671648263931274 -0.374058812856674194 0.0524993054568767548
0.421077370643615723 -0.0259741656482219696 0.0651555061340332031
0.4939403235912323 -0.36360505223274231 -0.01537302415817976
-0.233761981129646301 0.287190496921539307 0.0841282904148101807
0.530999064445495605 -0.331805169582366943 -0.00705430889502167702
-0.272801846265792847 0.315447539091110229 0.113920316100120544
0.308214157819747925 0.00264671118929982185 0.0465758815407752991
0.467158913612365723 -0.263617962598800659 -0.295954972505569458
0.47367897629737854 -0.304348140954971313 0.114448122680187225
0.510939180850982666 -0.313729673624038696 -0.104235880076885223
0.508903324604034424 -0.245549380779266357 -0.308320343494415283
0.447684288024902344 -0.292726665735244751 -0.29265788197517395
0.466122180223464966 -0.283487021923065186 -0.297171682119369507
0.138174548745155334 0.112908974289894104 0.336937010288238525
-0.653105974197387695 0.285792827606201172 0.0976381748914718628
-0.63932424783706665 0.244808182120323181 -0.0385392419993877411
0.136149048805236816 0.069376818835735321 0.338047623634338379
-0.57811504602432251 0.303794205188751221 -0.0558715425431728363
0.262414336204528809 0.0304856542497873306 -0.073213428258895874
0.541794478893280029 -0.216694101691246033 0.111801087856292725
-0.361100524663925171 -0.0360307991504669189 -0.134514153003692627
-0.575751125812530518 0.327498555183410645 -0.0298843123018741608
-0.362785041332244873 -0.0711691826581954956 -0.0341549254953861237
-0.131286904215812683 -0.26781192421913147 0.119017429649829865
0.494917392730712891 -0.365894913673400879 -0.00020561469136737287
0.373571932315826416 -0.35960426926612854 -0.209965452551841736
-0.379394799470901489 -0.107097677886486053 0.101143740117549896
-0.0676615461707115173 -0.264198362827301025 0.296430855989456177
0.519578099250793457 -0.243496879935264587 -0.309342056512832642
0.509252786636352539 -0.33061140775680542 0.0154507150873541832
-0.594350278377532959 0.36907997727394104 0.120251603424549103
-0.656401634216308594 0.175607368350028992 -0.103376433253288269
-0.223898708820343018 -0.144420132040977478 -0.0538331307470798492
-0.191989988088607788 0.316719502210617065 0.100722692906856537
0.2564811110496521 -0.28355976939201355 0.319808542728424072
0.239105626940727234 0.032339099794626236 0.319335252046585083
-0.120802238583564758 -0.046224251389503479 0.00731297628954052925
-0.64255213737487793 0.308719843626022339 0.101522020995616913
0.364455938339233398 -0.374154061079025269 -0.206887573003768921
0.537586033344268799 -0.21770787239074707 0.16208350658416748
-0.553746461868286133 0.382568418979644775 0.157670646905899048
-0.123127520084381104 0.259381353855133057 0.11515410989522934
0.119245573878288269 0.102530695497989655 0.0896434411406517029
-0.376412868499755859 0.265791118144989014 -0.0897324457764625549
0.516682267189025879 -0.34908747673034668 0.0989433825016021729
-0.294499576091766357 -0.107445165514945984 -0.109456561505794525
0.274970799684524536 0.10302446037530899 -0.0573967695236206055
-0.576158046722412109 0.219442903995513916 -0.212964519858360291
-0.116158105432987213 0.268684595823287964 0.17983931303024292
0.235816985368728638 -0.288050323724746704 0.314482986927032471
0.310050755739212036 -0.187338501214981079 0.241226077079772949
0.541521608829498291 -0.325889497995376587 -0.0207533091306686401
0.078584425151348114 -0.337875008583068848 0.282208502292633057
-0.00695466157048940659 -0.172034516930580139 0.00429096072912216187
-0.283117353916168213 0.261734247207641602 0.00697275623679161072
0.512837529182434082 -0.237268924713134766 -0.309332698583602905
-0.647914886474609375 0.278326451778411865 0.0791903510689735413
-0.647330820560455322 0.183124855160713196 -0.0912191197276115417
0.513891220092773438 -0.322564065456390381 0.0244660153985023499
-0.407954007387161255 -0.0637962892651557922 0.113329105079174042
0.516584932804107666 -0.355775147676467896 -0.0204688962548971176
-0.567559778690338135 0.374439328908920288 0.152168020606040955
0.235860079526901245 0.0431540869176387787 0.313885092735290527
-0.66580498218536377 0.22714725136756897 0.022757967934012413
-0.449122101068496704 -0.0386181622743606567 0.126848563551902771
0.502739250659942627 -0.302401483058929443 -0.178747251629829407
-0.590097665786743164 0.361127465963363647 0.0857530012726783752
-0.194834917783737183 0.314992964267730713 0.10483868420124054
0.246885493397712708 0.0240564886480569839 0.3240223228931427
0.530666112899780273 -0.323871731758117676 -0.0579248107969760895
-0.183567821979522705 0.307098865509033203 0.12845967710018158
0.247128903865814209 0.00712409382686018944 0.32415008544921875
0.0583568066358566284 0.139779269695281982 0.345849335193634033
-0.506679773330688477 0.149406179785728455 0.356665223836898804
0.270538419485092163 -0.311312466859817505 0.32634618878364563
-0.254622131586074829 0.0234051886945962906 -0.0708201304078102112
0.240867987275123596 -0.295363128185272217 0.322583228349685669
0.248924598097801208 0.0439442917704582214 0.314619004726409912
0.46830257773399353 -0.10191807895898819 0.0348785147070884705
-0.125381559133529663 0.195154815912246704 0.115430682897567749
0.239747390151023865 -0.326696783304214478 0.318021446466445923
0.500038325786590576 -0.366646170616149902 0.0748124644160270691
0.523214817047119141 -0.324764758348464966 0.0263819191604852676
0.444481641054153442 -0.2532520592212677 0.332545310258865356
0.321360349655151367 -0.131530702114105225 -0.106466636061668396
0.0630505979061126709 -0.0107117444276809692 0.321772843599319458
0.51107633113861084 -0.360948681831359863 0.0476709306240081787
0.135424599051475525 -0.100747168064117432 0.0406660996377468109
0.0491845346987247467 0.0115331131964921951 0.0298175234347581863
0.0204061940312385559 0.048235572874546051 0.0426699183881282806
0.0878413692116737366 -0.0660576075315475464 0.289716482162475586
-0.162864044308662415 -0.265904366970062256 0.147886663675308228
0.264895051717758179 -0.0201298240572214127 0.0617650933563709259
-0.0293804295361042023 -0.0290376339107751846 0.295573830604553223
0.501915037631988525 -0.240516960620880127 -0.301912963390350342
0.475667864084243774 -0.315180063247680664 -0.301891446113586426
-0.631858885288238525 0.306368082761764526 0.167023733258247375
0.475308209657669067 -0.320868819952011108 0.121200971305370331
0.508855938911437988 -0.300953418016433716 -0.105391032993793488
0.527926623821258545 -0.275100886821746826 -0.317124366760253906
0.493262410163879395 -0.332648307085037231 -0.310660839080810547
0.503333091735839844 -0.32018396258354187 0.0981937646865844727
0.473921746015548706 -0.30601125955581665 -0.298036098480224609
-0.560270309448242188 0.268166661262512207 0.364255756139755249
0.124835968017578125 0.116953484714031219 0.314348995685577393
-0.634508788585662842 0.282279521226882935 0.0539387315511703491
-0.588286340236663818 0.362887948751449585 0.102090597152709961
0.371292799711227417 -0.374307036399841309 -0.212666109204292297
0.43830910325050354 -0.348060697317123413 0.154511407017707825
0.057841964066028595 0.121392682194709778 0.32122504711151123
-0.575516104698181152 0.368930310010910034 0.21521836519241333
0.264675140380859375 0.0245985761284828186 -0.0584154091775417328
0.368672192096710205 -0.336894035339355469 0.160787612199783325
0.510295689105987549 -0.301675558090209961 -0.111842900514602661
0.133295446634292603 -0.320896804332733154 -0.0977502316236495972
0.516366183757781982 -0.348898321390151978 -0.0201222989708185196
0.389087885618209839 -0.347020804882049561 -0.21400865912437439
-0.577949702739715576 0.319115906953811646 0.0404780097305774689
0.535736203193664551 -0.27807047963142395 -0.320533633232116699
0.467632144689559937 -0.311151385307312012 -0.29917597770690918
0.507004439830780029 -0.347227782011032104 0.0181069802492856979
-0.556839585304260254 0.309770196676254272 0.101958654820919037
0.193646296858787537 -0.339622586965560913 -0.0590952113270759583
0.0697144567966461182 -0.282535046339035034 -0.0778885781764984131
0.252359211444854736 -0.250400662422180176 0.320284634828567505
0.239900588989257812 0.0309806391596794128 0.317113637924194336
-0.121664956212043762 -0.048024199903011322 0.00816658604890108109
0.178616106510162354 -0.100314699113368988 -0.014612971805036068
0.532258093357086182 -0.332413464784622192 -0.0129949068650603294
0.370163112878799438 -0.349751830101013184 -0.208790719509124756
0.534833371639251709 -0.245882049202919006 0.177483558654785156
0.560835838317871094 -0.316030114889144897 -0.330897778272628784
0.554405450820922852 -0.2117500901222229 0.134152114391326904
-0.544211208820343018 0.380868256092071533 0.164217457175254822
0.122748076915740967 0.117203615605831146 0.133314192295074463
-0.583168208599090576 0.351999729871749878 0.0974896699190139771
-0.482556819915771484 0.185797080397605896 -0.0917392000555992126
0.515461087226867676 -0.33929106593132019 0.0390168577432632446
0.253360748291015625 -0.279334098100662231 0.322092622518539429
0.27833220362663269 -0.356245875358581543 -0.125965222716331482
0.507661163806915283 -0.286895066499710083 -0.313596844673156738
-0.433104127645492554 -0.057471051812171936 0.116536073386669159
0.201949357986450195 0.0905235260725021362 0.223586931824684143
0.2442827969789505 0.104517512023448944 -0.0569765269756317139
-0.196347877383232117 0.201532945036888123 0.349299639463424683
0.250470846891403198 0.024945208802819252 0.32354852557182312
0.239818558096885681 0.0190307926386594772 0.321234613656997681
-0.0318117588758468628 0.162739083170890808 0.382736653089523315
-0.483488172292709351 -0.015870310366153717 0.179996326565742493
0.483669817447662354 -0.369227141141891479 0.0462550073862075806
-0.644435524940490723 0.287146776914596558 0.0859055295586585999
0.275867074728012085 -0.166021823883056641 -0.0702840089797973633
-0.41276136040687561 -0.0571536161005496979 0.0787641778588294983
-0.643989861011505127 0.175587892532348633 -0.0822989940643310547
-0.226739794015884399 -0.134307309985160828 -0.0522891245782375336
0.254868417978286743 -0.265739560127258301 0.321261316537857056
-0.346257299184799194 0.0170008093118667603 -0.117033183574676514
-0.288017064332962036 -0.0919423326849937439 -0.106600850820541382
-0.586059689521789551 0.209651723504066467 -0.218278035521507263
0.267525911331176758 -0.297207742929458618 0.31533348560333252
-0.0261011011898517609 -0.187620878219604492 -0.04344211146235466
-0.618993699550628662 0.276904493570327759 0.0311246868222951889
-0.609764814376831055 0.29825282096862793 0.0922017097473144531
-0.398489654064178467 -0.0631465837359428406 0.118756651878356934
-0.45266115665435791 -0.0384489782154560089 0.119329437613487244
0.431060284376144409 -0.271894782781600952 0.32941022515296936
-0.0528581850230693817 0.140731945633888245 0.0918252766132354736
-0.503945529460906982 0.151030257344245911 0.355282425880432129
0.240712136030197144 -0.319517582654953003 0.322921991348266602
0.497043132781982422 -0.371041357517242432 0.0575713403522968292
0.399270117282867432 -0.257016539573669434 0.322687894105911255
-0.158998548984527588 -0.263882994651794434 0.181521415710449219
-0.500143289566040039 0.0137953823432326317 0.157907187938690186
0.417537808418273926 -0.297538638114929199 0.328944653272628784
0.53517603874206543 -0.340406626462936401 -0.0182302966713905334
0.344197511672973633 -0.267708271741867065 -0.127661898732185364
-0.497431844472885132 0.0717892497777938843 0.203815847635269165
0.443597733974456787 -0.27233615517616272 0.333639025688171387
0.521936297416687012 -0.335603535175323486 0.0330196917057037354
0.453199476003646851 -0.320290595293045044 -0.292919725179672241
0.474194109439849854 -0.311878830194473267 0.116945639252662659
0.517038106918334961 -0.278775960206985474 -0.312705844640731812
0.502468228340148926 -0.326328635215759277 -0.314226657152175903
0.518042445182800293 -0.327306658029556274 0.102150015532970428
0.479144960641860962 -0.311813533306121826 -0.302060216665267944
0.114419788122177124 0.118549980223178864 0.289207547903060913
-0.12247997522354126 0.268619924783706665 0.158851996064186096
-0.615743517875671387 0.265378862619400024 0.0518309846520423889
-0.480386078357696533 0.00280507002025842667 0.181180357933044434
0.426647067070007324 -0.355258345603942871 0.158788159489631653
-0.293195098638534546 -0.111029297113418579 -0.105879887938499451
0.130388557910919189 0.065447591245174408 0.321411311626434326
0.253731906414031982 0.0385161563754081726 -0.0775319337844848633
0.235497131943702698 0.0937385186553001404 -0.0528047084808349609
0.417583942413330078 -0.261893391609191895 -0.202163532376289368
0.52157217264175415 -0.35489654541015625 -0.019251575693488121
-0.609805524349212646 0.381106376647949219 0.180964425206184387
0.517388045787811279 -0.279677629470825195 -0.314629822969436646
0.499033212661743164 -0.350240111351013184 0.0242999810725450516
-0.588769972324371338 0.369266688823699951 0.112775489687919617
0.506005406379699707 -0.104825235903263092 0.147592738270759583
-0.198699384927749634 0.311526268720626831 0.112954385578632355
0.263975232839584351 -0.2867908775806427 0.319923937320709229
0.236936792731285095 0.0621011629700660706 0.310783237218856812
-0.145143523812294006 -0.0437727794051170349 0.00421958602964878082
-0.658725559711456299 0.214523360133171082 -0.0464607588946819305
-0.289460927248001099 -0.0763651058077812195 -0.0686976835131645203
0.227231428027153015 0.0420009680092334747 -0.047891709953546524
0.55151897668838501 -0.144599780440330505 0.132325470447540283
0.519695401191711426 -0.295567482709884644 0.0751364603638648987
0.517445027828216553 -0.284365862607955933 -0.181005477905273438
-0.358988344669342041 -0.017449377104640007 -0.0280498228967189789
0.091331087052822113 0.0881021246314048767 0.0859892293810844421
0.466564923524856567 -0.362164676189422607 -0.0104533499106764793
-0.433867067098617554 0.15747620165348053 -0.0666251331567764282
0.523706734180450439 -0.335863232612609863 0.0691217780113220215
0.262834548950195312 -0.286160171031951904 0.318647146224975586
0.00895043648779392242 -0.0912719294428825378 -0.0260161347687244415
0.0321759842336177826 -0.130672857165336609 0.0219761766493320465
-0.631656348705291748 0.26488727331161499 0.0287822391837835312
0.242147430777549744 0.0742795988917350769 0.319054633378982544
0.240208223462104797 0.029505360871553421 0.319126218557357788
-0.175459027290344238 0.300807297229766846 0.116348713636398315
0.304620236158370972 -0.151446685194969177 0.308021187782287598
0.261866360902786255 -0.290963202714920044 0.321129351854324341
-0.477189093828201294 -0.0084684416651725769 0.166054472327232361
0.242785140872001648 0.0817191004753112793 0.312416434288024902
0.520127952098846436 -0.35151970386505127 0.0821508169174194336
-0.0354048013687133789 -0.237938478589057922 0.124120995402336121
-0.639251708984375 0.289929568767547607 0.0985374599695205688
-0.235066309571266174 -0.133285060524940491 -0.0580811798572540283
-0.380239248275756836 -0.109181813895702362 0.105407342314720154
-0.237281396985054016 -0.14831949770450592 -0.057936590164899826
-0.658935070037841797 0.214222654700279236 -0.0341661907732486725
0.528759479522705078 -0.352850854396820068 0.0780907869338989258
-0.622100114822387695 0.270158976316452026 0.0522231236100196838
-0.405115514993667603 -0.0646933615207672119 0.111925438046455383
-0.447318434715270996 -0.0418378710746765137 0.12183738499879837
0.267940670251846313 -0.285850048065185547 0.323609441518783569
0.127391412854194641 -0.326913774013519287 0.312617003917694092
0.152074456214904785 -0.343399971723556519 0.317897945642471313
0.447525531053543091 -0.336056768894195557 -0.292901813983917236
0.515596508979797363 -0.303250610828399658 -0.107763633131980896
0.515011072158813477 -0.280649363994598389 -0.31272473931312561
0.48464500904083252 -0.328101664781570435 -0.309704512357711792
0.464128822088241577 -0.346321612596511841 -0.302584081888198853
0.549377560615539551 -0.210573047399520874 -0.315847516059875488
0.523861467838287354 -0.300443500280380249 -0.322393268346786499
0.517731606960296631 -0.301255524158477783 -0.318286359310150146
0.246868729591369629 0.0569923184812068939 0.31664690375328064
0.241353273391723633 0.0874747931957244873 0.312984257936477661
-0.292651236057281494 -0.101025208830833435 -0.101991966366767883
-0.454582482576370239 -0.0523264147341251373 0.116924598813056946
0.404734909534454346 -0.272443950176239014 0.322726637125015259
-0.503410935401916504 0.00349340285174548626 0.188949063420295715
0.401023149490356445 -0.287430435419082642 0.325034409761428833
0.39917638897895813 -0.273741364479064941 0.323520123958587646
0.342187792062759399 -0.259203195571899414 0.0903381556272506714
-0.0192803069949150085 -0.244727671146392822 0.128699406981468201
-0.465488612651824951 0.0357157252728939056 0.189400389790534973
-0.195088386535644531 0.221492588520050049 0.172088444232940674
0.366736501455307007 -0.329570174217224121 -0.0233138781040906906
0.32322394847869873 -0.390501052141189575 -0.158771663904190063
0.535256803035736084 -0.323877990245819092 -0.0580269955098628998
-0.442746818065643311 -0.00503150932490825653 0.152558520436286926
-0.0195647459477186203 -0.0597304254770278931 0.141829177737236023
-0.000698883261065930128 -0.236457735300064087 0.106436990201473236
0.526084065437316895 -0.202016204595565796 -0.0797872021794319153
0.449592024087905884 -0.308732748031616211 -0.292770415544509888
0.526599705219268799 -0.275803446769714355 -0.31557852029800415
0.499665975570678711 -0.325278639793395996 -0.312594503164291382
0.475001662969589233 -0.305439949035644531 -0.297287940979003906
-0.128049701452255249 0.246565014123916626 0.139038011431694031
-0.649951815605163574 0.281960994005203247 0.0939071327447891235
-0.199656516313552856 0.286632686853408813 0.335913956165313721
0.498002380132675171 -0.0868346095085144043 0.136967718601226807
0.200501441955566406 -0.359564483165740967 -0.0907298028469085693
0.505250453948974609 -0.367930352687835693 -0.0225132368505001068
0.527158498764038086 -0.242828860878944397 0.173190683126449585
-0.586934506893157959 0.379319280385971069 0.170358911156654358
0.444809883832931519 -0.315326511859893799 -0.287647008895874023
0.498568713665008545 -0.111213229596614838 0.112477339804172516
-0.656780600547790527 0.175291001796722412 -0.104073472321033478
-0.202678456902503967 0.308714598417282104 0.0891702398657798767
0.201254308223724365 -0.0136886341497302055 0.295472443103790283
0.159855365753173828 -0.0623880065977573395 -0.0438554622232913971
-0.580499410629272461 0.302238345146179199 0.368446648120880127
0.275078326463699341 0.0982697159051895142 -0.0288210399448871613
-0.436243593692779541 0.155169785022735596 -0.0861537978053092957
0.534290134906768799 -0.333260804414749146 0.012951207347214222
-0.569780409336090088 0.197090268135070801 -0.229359835386276245
-0.498667389154434204 0.0447019785642623901 -0.0870509296655654907
0.0310486648231744766 -0.104253433644771576 0.0331382341682910919
0.533852040767669678 -0.26483568549156189 -0.316220194101333618
0.00943735335022211075 0.197586953639984131 0.0277491342276334763
0.302168190479278564 0.0387326106429100037 -0.084189586341381073
-0.333087444305419922 -0.0163283590227365494 -0.107791252434253693
0.236475557088851929 0.014384896494448185 0.322036832571029663
0.124911852180957794 0.0129004605114459991 0.29912865161895752
0.527375578880310059 -0.355372577905654907 0.0665367543697357178
0.466904103755950928 -0.310180693864822388 -0.232988223433494568
-0.652930855751037598 0.285306990146636963 0.104011289775371552
0.546491682529449463 -0.220092087984085083 0.163757666945457458
0.527888774871826172 -0.323594659566879272 -0.0158355627208948135
-0.383919268846511841 -0.0566895455121994019 0.0761200562119483948
0.456710129976272583 -0.311212331056594849 -0.292469173669815063
0.504733443260192871 -0.34020569920539856 -0.317842751741409302
0.478613704442977905 -0.31468886137008667 -0.299419671297073364
0.520138025283813477 -0.301658868789672852 -0.317251205444335938
-0.00271351728588342667 -0.140292048454284668 -0.0247152931988239288
0.397510945796966553 -0.273299604654312134 0.323694974184036255
0.401181012392044067 -0.271724820137023926 0.324001461267471313
0.505993247032165527 -0.332168698310852051 0.106077328324317932
-0.468482375144958496 0.0422531254589557648 0.170511484146118164
0.409988075494766235 -0.346079766750335693 0.156811878085136414
-0.361715137958526611 -0.0356463044881820679 -0.148222371935844421
-0.128819450736045837 -0.268052071332931519 0.112382277846336365
0.512466013431549072 -0.369263350963592529 -0.0144574716687202454
-0.214316651225090027 0.31251603364944458 0.0976917147636413574
0.250527352094650269 -0.287306845188140869 0.323062300682067871
0.20891319215297699 0.00927335210144519806 -0.0458375327289104462
0.0696821734309196472 -0.151798471808433533 -0.017086835578083992
-0.170293048024177551 0.304763764142990112 0.118913851678371429
0.471025794744491577 -0.364574790000915527 0.00727514270693063736
-0.29177054762840271 -0.0998153015971183777 -0.103248350322246552
0.0361165851354598999 -0.149970486760139465 -0.0215754490345716476
0.23222719132900238 0.0562141090631484985 0.309464246034622192
0.253335446119308472 -0.28886839747428894 0.320845603942871094
-0.472604751586914062 0.000929577276110649109 0.168523415923118591
0.24105621874332428 0.0626763701438903809 0.31336820125579834
0.508867919445037842 -0.352220028638839722 0.064191572368144989
0.227331429719924927 -0.315036207437515259 0.314723730087280273
-0.376235544681549072 -0.0934317633509635925 0.0860994830727577209
-0.0631362423300743103 -0.24190656840801239 0.302557915449142456
-0.223400786519050598 -0.128015592694282532 -0.053130071610212326
-0.410736680030822754 -0.0657120048999786377 0.0984146520495414734
-0.445861846208572388 -0.044959578663110733 0.132611483335494995
0.23890821635723114 -0.294259935617446899 0.314611762762069702
0.153754293918609619 -0.324598401784896851 0.320218384265899658
0.425315797328948975 -0.256195038557052612 0.328858226537704468
0.438079863786697388 -0.343288809061050415 -0.292558878660202026
0.5061531662940979 -0.334905534982681274 -0.317985206842422485
0.444927513599395752 -0.352632969617843628 -0.286618560552597046
0.238320469856262207 0.0657401308417320251 0.312647014856338501
0.403249800205230713 -0.287658423185348511 0.326158851385116577
-0.495634377002716064 0.00652565294876694679 0.18824005126953125
0.485869020223617554 -0.0632617324590682983 0.132102906703948975
0.0121949464082717896 -0.171017199754714966 0.00997493322938680649
0.531462311744689941 -0.307809054851531982 -0.0619848333299160004
0.314742207527160645 -0.302563309669494629 -0.126619502902030945
0.445786833763122559 -0.291657626628875732 -0.285492956638336182
-0.337565749883651733 0.224606499075889587 0.125697538256645203
-0.401657462120056152 -0.028438083827495575 -0.00199148175306618214
0.403166145086288452 -0.271867126226425171 0.324385076761245728
-0.133695676922798157 0.195742979645729065 0.16787014901638031
0.399216890335083008 -0.271804988384246826 0.324197620153427124
-0.447335541248321533 -0.02520010806620121 0.0212986208498477936
-0.138382762670516968 0.244834139943122864 0.191813245415687561
-0.613503813743591309 0.294033020734786987 0.183505266904830933
0.124549232423305511 0.116085678339004517 0.31693720817565918
-0.121294192969799042 0.250575929880142212 0.161961406469345093
-0.583995640277862549 0.348147958517074585 0.0579135939478874207
0.426891028881072998 -0.348248690366744995 0.153296500444412231
-0.56744849681854248 0.294992893934249878 -0.0691855922341346741
0.251986682415008545 0.0266380775719881058 -0.0792608484625816345
0.247809320688247681 0.100366562604904175 -0.0480172783136367798
-0.358191013336181641 -0.0560069568455219269 -0.141961440443992615
0.19883514940738678 0.120222695171833038 0.0360851027071475983
0.545658528804779053 -0.131538063287734985 0.112333066761493683
-0.582322418689727783 0.321722269058227539 -0.0230580326169729233
0.20627988874912262 0.0246719866991043091 0.17715078592300415
-0.596019566059112549 0.375193983316421509 0.171771302819252014
0.444870471954345703 -0.319324076175689697 0.127646550536155701
0.255142807960510254 -0.278829574584960938 0.31669655442237854
0.235694006085395813 0.0238254107534885406 0.316885143518447876
-0.363612264394760132 -0.0499727986752986908 -0.0238352697342634201
-0.183087289333343506 0.118072018027305603 0.0424124374985694885
0.254853814840316772 -0.288272172212600708 0.319507718086242676
0.242137730121612549 0.033208310604095459 0.322153687477111816
0.40009269118309021 0.023407740518450737 0.115553617477416992
-0.341216087341308594 -0.06636790931224823 -0.147401317954063416
0.0756414905190467834 -0.333120763301849365 0.299040913581848145
-0.387445747852325439 -0.0609370432794094086 0.0937495455145835876
-0.448895692825317383 -0.041433088481426239 0.127619683742523193
0.439449131488800049 -0.27932661771774292 0.333921909332275391
0.034275837242603302 -0.123006857931613922 -0.0254751946777105331
0.414423674345016479 -0.280787289142608643 0.327262312173843384
0.433120012283325195 -0.296084463596343994 0.333416461944580078
0.367961853742599487 -0.278831928968429565 -0.130057215690612793
-0.478166073560714722 0.00137373455800116062 0.188212752342224121
-0.292182296514511108 -0.0965226590633392334 -0.104580603539943695
0.24145624041557312 -0.313055187463760376 0.309852927923202515
0.473248153924942017 -0.354294866323471069 0.00728378165513277054
-0.297013789415359497 -0.0967724919319152832 -0.107043296098709106
0.244822844862937927 -0.288625061511993408 0.320254504680633545
0.0621590279042720795 -0.329826533794403076 0.297119706869125366
0.157941192388534546 -0.267943650484085083 -0.105395250022411346
0.250361382961273193 0.0634902641177177429 0.315797895193099976
-0.48321959376335144 -0.0079832170158624649 0.177817702293395996
0.236489921808242798 0.0666565373539924622 0.315147429704666138
0.238786578178405762 -0.331867247819900513 0.321568846702575684
-0.382923632860183716 -0.0921367555856704712 0.0366492420434951782
-0.216660439968109131 -0.140258580446243286 -0.0543663017451763153
-0.383348375558853149 -0.0637493878602981567 0.0834674462676048279
0.149959340691566467 -0.331711053848266602 0.331999093294143677
0.44596707820892334 -0.279857099056243896 0.333846151828765869
0.407538175582885742 -0.280500680208206177 0.325374215841293335
-0.502720534801483154 0.00650899810716509819 0.188548639416694641
-0.322500646114349365 0.097126491367816925 -0.0702754184603691101
0.532591462135314941 -0.207538753747940063 -0.0523618012666702271
0.450975626707077026 -0.294098019599914551 -0.290384858846664429
0.487404406070709229 -0.325452595949172974 -0.310834109783172607
0.446415245532989502 -0.30994752049446106 -0.290759414434432983
-0.57835543155670166 0.269224822521209717 0.365645676851272583
-0.462139040231704712 0.105612866580486298 -0.231170892715454102
0.37497362494468689 -0.318732261657714844 0.199326366186141968
-0.590381264686584473 0.366934061050415039 0.131001338362693787
0.392586886882781982 -0.353643804788589478 -0.217384621500968933
0.441113829612731934 -0.310490965843200684 -0.288968384265899658
-0.201059296727180481 0.305443108081817627 0.0950331166386604309
-0.155847489833831787 0.267941087484359741 0.151753485202789307
0.529863655567169189 -0.338492304086685181 0.0720355585217475891
0.463857561349868774 -0.266292005777359009 -0.217522710561752319
-0.634118378162384033 0.275689840316772461 0.106795042753219604
0.438437402248382568 -0.308782786130905151 -0.287137538194656372
0.515452206134796143 -0.277393698692321777 -0.316776096820831299
0.51654893159866333 -0.340557336807250977 -0.320727765560150146
0.454375177621841431 -0.307260841131210327 -0.293194085359573364
0.490991353988647461 -0.321975737810134888 0.0946143940091133118
0.0203755274415016174 -0.276022672653198242 -0.0185080356895923615
-0.65471571683883667 0.171823948621749878 -0.108351230621337891
-0.225124403834342957 0.318543076515197754 0.121403224766254425
0.465422362089157104 -0.364183157682418823 0.00611213967204093933
0.481153398752212524 -0.336878210306167603 0.0504937581717967987
0.511454761028289795 -0.339618206024169922 -0.319384664297103882
0.440182954072952271 -0.35679328441619873 -0.297579675912857056
-0.27048829197883606 0.321977704763412476 0.0419056043028831482
0.424163788557052612 -0.313507974147796631 -0.28183254599571228
0.415618360042572021 -0.295249104499816895 0.328701972961425781
-0.326699554920196533 -0.0755548551678657532 0.123436115682125092
-0.367519021034240723 -0.0668683946132659912 0.154617756605148315
-0.338821202516555786 0.21476919949054718 0.132833749055862427
0.00997897982597351074 0.119392581284046173 0.105348199605941772
0.54206472635269165 -0.309270292520523071 -0.0460153929889202118
0.0134144574403762817 -0.261981785297393799 0.0395892001688480377
-0.00377394957467913628 -0.236737534403800964 0.094346269965171814
-7.79342099122004583e-06 -0.219771474599838257 0.0816170498728752136
0.465002536773681641 -0.361032992601394653 0.0305127017199993134
-0.269942313432693481 -0.138199493288993835 0.177465483546257019
-0.345702886581420898 -0.0660419091582298279 0.141221791505813599
0.123423106968402863 -0.276832073926925659 0.129115268588066101
-0.134205639362335205 0.0787380710244178772 0.0904010236263275146
0.463701218366622925 -0.0543978884816169739 0.0178977195173501968
-0.014367581345140934 -0.217087671160697937 0.0804505869746208191
-0.555356264114379883 0.391644328832626343 0.147537201642990112
0.496669232845306396 -0.366903334856033325 0.00543473567813634872
-0.611332893371582031 0.294030904769897461 0.186310186982154846
0.529978156089782715 -0.275452315807342529 -0.317616194486618042
0.370503276586532593 -0.264678001403808594 0.181772232055664062
0.420448839664459229 -0.344565689563751221 0.151064574718475342
0.252132683992385864 0.0391478352248668671 -0.0663884580135345459
0.54954606294631958 -0.149936750531196594 0.124511629343032837
-0.57115548849105835 0.283992677927017212 -0.0065612192265689373
0.500934362411499023 -0.362755566835403442 -0.00109784503001719713
0.208367764949798584 0.115665249526500702 -0.0101547306403517723
-0.289810806512832642 -0.0858772546052932739 -0.0664260834455490112
0.15923096239566803 -0.0833612680435180664 -0.0359436981379985809
-0.340575814247131348 -0.105633467435836792 0.141253873705863953
0.510995388031005859 -0.281622856855392456 -0.313128650188446045
-0.339912056922912598 -0.0798357948660850525 0.0385841391980648041
-0.369949907064437866 0.280639916658401489 -0.0626035258173942566
0.509895741939544678 -0.341070264577865601 0.0653207898139953613
0.302400708198547363 -0.20598834753036499 0.248134508728981018
0.542799115180969238 -0.312162816524505615 -0.0605702139437198639
0.141573160886764526 0.0695220082998275757 0.336587369441986084
-0.595499098300933838 0.267465740442276001 0.012005755677819252
0.222101941704750061 -0.00708416430279612541 0.295817464590072632
0.230972111225128174 0.0343603193759918213 0.31301957368850708
0.533524274826049805 -0.319755792617797852 -0.0126021038740873337
-0.389979958534240723 -0.0641468837857246399 0.105712190270423889
-0.448238164186477661 -0.0402849204838275909 0.126471996307373047
0.496105402708053589 -0.0913420394062995911 0.154760420322418213
0.251029074192047119 0.0631676316261291504 0.316915810108184814
-0.291878312826156616 -0.0928975120186805725 0.307690739631652832
-0.367203950881958008 -0.11494821310043335 0.104008257389068604
-0.56409984827041626 0.127147406339645386 -0.0785932838916778564
-0.502176821231842041 0.0233614854514598846 0.186596572399139404
0.518043637275695801 -0.297646611928939819 -0.313976407051086426
0.472518771886825562 -0.328565239906311035 -0.299832314252853394
-0.574889063835144043 0.268889278173446655 0.362573474645614624
-0.571802139282226562 0.354924589395523071 0.166865050792694092
-0.192130163311958313 0.304698973894119263 0.101399689912796021
-0.662693977355957031 0.239736735820770264 0.0414688996970653534
-0.505522847175598145 0.144370764493942261 0.353267312049865723
0.507038414478302002 -0.347489297389984131 -0.318284451961517334
-0.200969025492668152 0.305028319358825684 0.102052941918373108
0.475146442651748657 -0.357823044061660767 0.0048694368451833725
0.509786605834960938 -0.330884337425231934 0.0666012167930603027
-0.611323654651641846 0.367608189582824707 0.0875956714153289795
-0.563145041465759277 0.288216233253479004 -0.056081864982843399
0.220036223530769348 0.0102859409525990486 0.30934491753578186
0.240616530179977417 0.00512488465756177902 0.321812242269515991
-0.360243380069732666 -0.0571506023406982422 -0.13795769214630127
0.399354517459869385 -0.25286710262298584 0.322134941816329956
0.399653732776641846 -0.263243585824966431 0.324882090091705322
0.224047273397445679 -0.324327766895294189 0.320793181657791138
0.411133319139480591 -0.267983585596084595 0.325302004814147949
-0.509804844856262207 0.0493416860699653625 0.195185616612434387
-0.631879985332489014 0.156396195292472839 -0.0528106503188610077
-0.502495527267456055 0.146935760974884033 0.345241338014602661
0.520832359790802002 -0.35104784369468689 -0.32303503155708313
0.495314210653305054 -0.348542243242263794 0.000386091938707977533
-0.198380559682846069 0.0159702841192483902 -0.049894232302904129
-0.558374643325805664 0.341749042272567749 -0.00586969172582030296
0.488533854484558105 -0.360666006803512573 0.041208852082490921
0.449295729398727417 -0.0743387416005134583 0.00221242359839379787
-0.556890666484832764 0.385253369808197021 0.157654881477355957
0.374703139066696167 -0.0813755691051483154 -0.119698785245418549
-0.390278935432434082 0.319587081670761108 0.168761923909187317
-0.385237932205200195 0.32816082239151001 0.197457879781723022
-0.364753037691116333 0.237880557775497437 -0.0835036411881446838
-0.407897919416427612 0.199413508176803589 0.0408711433410644531
-0.645062029361724854 0.286828935146331787 0.093422718346118927
0.408615827560424805 -0.347446054220199585 0.13658490777015686
0.222443267703056335 0.0827974304556846619 -0.0332933962345123291
0.49864533543586731 -0.161396026611328125 0.124049007892608643
0.500438392162322998 -0.0929547622799873352 0.134992539882659912
0.215443506836891174 0.00183503539301455021 0.299676001071929932
-0.35380062460899353 -0.0683899223804473877 -0.00912805274128913879
-0.38600313663482666 0.265885055065155029 -0.0717020630836486816
0.506459295749664307 -0.347296833992004395 0.0550707168877124786
-0.357663154602050781 -0.0566171333193778992 -0.145550146698951721
0.132189542055130005 0.0725781098008155823 0.32231217622756958
-0.100028969347476959 -0.265905112028121948 0.00610371865332126617
0.242534235119819641 0.0232736896723508835 0.322123259305953979
-0.481088042259216309 -0.0119083588942885399 0.185201287269592285
0.242575347423553467 0.0482701137661933899 0.31731078028678894
-0.278661519289016724 0.332651734352111816 0.0406816937029361725
0.369957208633422852 -0.0310220010578632355 -0.0397177413105964661
0.520118951797485352 -0.348237425088882446 -0.0361970439553260803
0.293433099985122681 -0.0120960595086216927 0.0372475124895572662
-0.64474952220916748 0.284745901823043823 0.0922709926962852478
0.0356096290051937103 0.136619463562965393 0.085273444652557373
-0.398106932640075684 -0.0578473545610904694 0.12580619752407074
-0.442091614007949829 -0.0384362861514091492 0.131218597292900085
0.523791134357452393 -0.3178291916847229 -0.0653367713093757629
0.422481328248977661 -0.28017464280128479 0.33136284351348877
0.509623587131500244 -0.345189988613128662 0.0572390146553516388
0.403909355401992798 -0.259045571088790894 0.323779761791229248
-0.480977088212966919 0.0178582333028316498 0.176591783761978149
0.235616713762283325 0.0684593915939331055 0.314709454774856567
-0.480140119791030884 -0.0085645308718085289 0.167234122753143311
0.239244312047958374 0.0674692168831825256 0.315112769603729248
0.38834187388420105 0.0258697252720594406 0.106238044798374176
0.219569206237792969 -0.316328465938568115 0.310453861951828003
0.38316047191619873 0.0427724346518516541 0.0692783743143081665
0.462848812341690063 0.0106292301788926125 0.175302445888519287
0.399534672498703003 -0.258837699890136719 0.327352344989776611
-0.500288963317871094 0.020938413217663765 0.180799722671508789
-0.574082314968109131 0.266162216663360596 0.359796822071075439
-0.665162265300750732 0.229789853096008301 0.0216153506189584732
-0.149609297513961792 0.27527463436126709 0.0791250169277191162
0.521877467632293701 -0.335465878248214722 -0.322642296552658081
-0.220808088779449463 0.315585166215896606 0.0967606008052825928
0.499854922294616699 -0.346783488988876343 0.0671312659978866577
-0.190122619271278381 0.302679538726806641 0.114797823131084442
0.31372368335723877 -0.130335867404937744 0.30088573694229126
0.225163400173187256 -0.0353841483592987061 0.305310577154159546
0.057200554758310318 -0.331101894378662109 0.291364401578903198
0.435270965099334717 -0.280206888914108276 0.332876771688461304
0.40900227427482605 -0.286012917757034302 0.331037312746047974
0.385722696781158447 -0.266044944524765015 0.318922817707061768
0.397317588329315186 -0.385097622871398926 -0.225697055459022522
-0.162604451179504395 0.27830582857131958 0.128660336136817932
0.380803138017654419 0.0437972433865070343 0.077220626175403595
0.390850245952606201 -0.255997300148010254 0.318935930728912354
-0.501006901264190674 0.0242225863039493561 0.185636669397354126
0.499447762966156006 -0.326348364353179932 -0.313257098197937012
0.380506604909896851 -0.376387715339660645 -0.216301307082176208
0.520938396453857422 -0.349694758653640747 -0.325051605701446533
0.520499765872955322 -0.348832249641418457 -0.321988672018051147
0.513134002685546875 -0.320072352886199951 -0.318598031997680664
0.254972070455551147 -0.222666144371032715 0.057591412216424942
0.185897976160049438 -0.142645448446273804 -0.105544909834861755
0.50774848461151123 -0.320482224225997925 0.0292952544987201691
-0.470175981521606445 -0.0121640386059880257 0.180901989340782166
0.496034175157546997 -0.349392592906951904 -0.309935450553894043
0.521286606788635254 -0.327947705984115601 -0.322111278772354126
0.475859791040420532 -0.320671558380126953 -0.303195357322692871
-0.341752707958221436 0.229671776294708252 -0.044384930282831192
0.201774045825004578 0.132693693041801453 0.112375900149345398
-0.173051699995994568 0.0219728685915470123 0.0255935117602348328
0.265605509281158447 -0.166104316711425781 0.00614843051880598068
0.54460519552230835 -0.32858741283416748 -0.0478275865316390991
-0.457013636827468872 -0.0533834807574748993 0.162014573812484741
0.469545632600784302 -0.356499791145324707 -0.307270199060440063
0.478317469358444214 -0.270212531089782715 -0.301650673151016235
0.467157572507858276 -0.36231115460395813 -0.308362752199172974
-0.320721656084060669 0.266502708196640015 0.0114429779350757599
0.0329842381179332733 0.0984300598502159119 0.12859751284122467
-0.285247802734375 -0.10045991837978363 -0.0874432921409606934
-0.617419838905334473 0.216805651783943176 -0.105019576847553253
0.244460627436637878 0.10433448851108551 -0.0295927058905363083
0.466173350811004639 -0.235468298196792603 -0.228562384843826294
-0.294496476650238037 -0.0889118313789367676 -0.0960079208016395569
0.249094530940055847 -0.27617606520652771 0.322597682476043701
0.222061783075332642 0.0666866675019264221 -0.0277624409645795822
-0.251459419727325439 -0.130592837929725647 -0.0555920600891113281
-0.212029606103897095 0.301923781633377075 0.148685649037361145
0.33986547589302063 -0.14077429473400116 0.318437874317169189
0.529611110687255859 -0.356822818517684937 0.0697031840682029724
-0.600454032421112061 0.356559514999389648 0.0601856932044029236
-0.346968412399291992 -0.0561420917510986328 -0.143780604004859924
-0.433405637741088867 0.157331541180610657 -0.0847578942775726318
0.526506423950195312 -0.331955879926681519 0.0204157326370477676
0.528069078922271729 -0.288227319717407227 -0.0701241046190261841
-0.499548107385635376 0.142379194498062134 -0.254087150096893311
0.146487623453140259 0.156633943319320679 0.0589382238686084747
0.253302276134490967 -0.00779290962964296341 0.327789217233657837
0.350008070468902588 -0.147358834743499756 0.320675015449523926
0.442164093255996704 -0.322873324155807495 -0.229417264461517334
-0.224661156535148621 -0.140405386686325073 -0.0538955256342887878
0.522445321083068848 -0.350454092025756836 0.0969763398170471191
-0.646663963794708252 0.253358215093612671 0.023653913289308548
0.393209248781204224 -0.28031766414642334 0.322368919849395752
-0.475345492362976074 -0.0101105477660894394 0.164682254195213318
0.224335268139839172 -0.32533031702041626 0.319050103425979614
-0.364292114973068237 -0.121507942676544189 0.130240246653556824
-0.239123314619064331 -0.141034558415412903 -0.0540337525308132172
-0.114381022751331329 -0.00941221602261066437 -0.0166588425636291504
0.389436393976211548 -0.278589397668838501 0.320699959993362427
-0.50765526294708252 0.0110426880419254303 0.201753526926040649
0.462491601705551147 -0.297269761562347412 -0.294377833604812622
0.351351380348205566 -0.148316696286201477 0.321531295776367188
0.457761585712432861 -0.304033577442169189 -0.228873938322067261
0.0242071431130170822 -0.144070014357566833 -0.0201345812529325485
0.368973195552825928 -0.328000128269195557 0.318817853927612305
0.391661942005157471 -0.281743317842483521 0.316961735486984253
0.12834736704826355 -0.31956896185874939 -0.0971255600452423096
-0.134851947426795959 0.278379261493682861 0.117537997663021088
-0.333917379379272461 0.0942571237683296204 -0.102460481226444244
0.373943209648132324 -0.376252710819244385 -0.214854851365089417
0.519718289375305176 -0.346081823110580444 -0.322665303945541382
0.523277580738067627 -0.358349442481994629 -0.326532423496246338
-0.0687261074781417847 -0.255142152309417725 0.0988708510994911194
0.325805515050888062 -0.131017699837684631 0.314858198165893555
0.424328714609146118 -0.259963124990463257 0.328384965658187866
-0.480585277080535889 0.0316916033625602722 0.196525812149047852
0.526475250720977783 -0.299930036067962646 -0.322107434272766113
0.537906467914581299 -0.292774945497512817 -0.324521243572235107
0.377740561962127686 -0.37448805570602417 -0.213563248515129089
0.37124866247177124 -0.357425510883331299 -0.213562846183776855
0.523902356624603271 -0.351945698261260986 -0.324910879135131836
0.525205254554748535 -0.363723695278167725 -0.323003888130187988
0.515387535095214844 -0.327490329742431641 -0.319974988698959351
0.479345709085464478 -0.352655470371246338 -0.312113791704177856
0.478308945894241333 -0.365929156541824341 -0.312835723161697388
-0.36240038275718689 0.310383260250091553 0.239669650793075562
-0.321417301893234253 0.103914648294448853 0.0221823006868362427
-0.448260903358459473 0.204107403755187988 -0.0404608063399791718
-0.378345966339111328 0.279250085353851318 -0.00734172482043504715
-0.0228990297764539719 -0.261037886142730713 0.143850386142730713
-0.592559814453125 0.361432760953903198 0.0639852657914161682
0.367444723844528198 -0.373819261789321899 -0.212356999516487122
-0.124529287219047546 -0.0108557660132646561 0.00803106185048818588
0.396517276763916016 -0.35369265079498291 -0.218167990446090698
0.507400572299957275 -0.15964999794960022 0.125434845685958862
0.195482194423675537 0.124686859548091888 0.00664514163509011269
-0.0271676313132047653 0.166830837726593018 0.383098185062408447
-0.334756195545196533 -0.121355459094047546 0.100256264209747314
-0.325818508863449097 0.302817940711975098 -0.0367448478937149048
0.534041404724121094 -0.34698641300201416 0.0379930809140205383
0.525299727916717529 -0.3320179283618927 0.034672662615776062
-0.596381664276123047 0.38210335373878479 0.113153502345085144
-0.0114462831988930702 -0.144503578543663025 -0.0267782658338546753
-0.235793381929397583 0.171917572617530823 -0.00161520042456686497
