ply
format ascii 1.0
element vertex 738
property float x
property float y
property float z
end_header
-0.253647297620773315 0.0235563237220048904 -0.0704847797751426697
0.241312682628631592 -0.2953299880027771 0.322856813669204712
0.249130591750144958 0.0437844693660736084 0.314763307571411133
0.468503177165985107 -0.102072559297084808 0.034932699054479599
-0.124725013971328735 0.195166423916816711 0.115697145462036133
0.240209981799125671 -0.326652199029922485 0.31830713152885437
0.500409543514251709 -0.366717070341110229 0.074988044798374176
0.523578226566314697 -0.324842244386672974 0.0265403334051370621
0.444811552762985229 -0.253341346979141235 0.332743853330612183
0.32170441746711731 -0.131545990705490112 -0.106404326856136322
0.063554033637046814 -0.0107630705460906029 0.322035789489746094
0.51145404577255249 -0.361017495393753052 0.0478432551026344299
0.135878637433052063 -0.10075041651725769 0.0408149957656860352
0.0496819503605365753 0.0115117896348237991 0.0299834273755550385
0.0209206826984882355 0.0482104755938053131 0.0428485721349716187
0.0883413180708885193 -0.0660902634263038635 0.289973050355911255
-0.161896243691444397 -0.265710294246673584 0.148310393095016479
0.2651100754737854 -0.0202415753155946732 0.061835266649723053
-0.0287291090935468674 -0.0290320944041013718 0.295886605978012085
0.502372622489929199 -0.240466907620429993 -0.301776528358459473
0.476162940263748169 -0.315099328756332397 -0.301724851131439209
-0.630877375602722168 0.306498438119888306 0.167511031031608582
0.475652456283569336 -0.320948958396911621 0.121366105973720551
0.509261667728424072 -0.30098724365234375 -0.10525185614824295
0.528406977653503418 -0.275040507316589355 -0.316956102848052979
0.493766546249389648 -0.332564830780029297 -0.310477346181869507
0.5036773681640625 -0.320271283388137817 0.0983595401048660278
0.474411219358444214 -0.30593419075012207 -0.297877043485641479
-0.559274494647979736 0.268280982971191406 0.364722937345504761
0.125161215662956238 0.116837874054908752 0.314547181129455566
-0.633513569831848145 0.282438188791275024 0.0543985702097415924
-0.587319850921630859 0.363032042980194092 0.102566927671432495
0.371799886226654053 -0.374219208955764771 -0.212497875094413757
0.438675463199615479 -0.348118573427200317 0.15469340980052948
0.0582724735140800476 0.121307916939258575 0.321461111307144165
-0.574541687965393066 0.369052648544311523 0.215722799301147461
0.2649039626121521 0.024520358070731163 -0.0583711303770542145
0.369047433137893677 -0.336924970149993896 0.160965114831924438
0.510704219341278076 -0.301706761121749878 -0.111701875925064087
0.13396260142326355 -0.320749342441558838 -0.0975059792399406433
0.51675879955291748 -0.348953783512115479 -0.0199617389589548111
0.389579445123672485 -0.346945285797119141 -0.213851064443588257
-0.576965391635894775 0.319283396005630493 0.0409278124570846558
0.536219179630279541 -0.278009802103042603 -0.320359736680984497
0.468125283718109131 -0.31107020378112793 -0.299014419317245483
0.507382571697235107 -0.347292333841323853 0.0182670000940561295
-0.555866897106170654 0.309918701648712158 0.102420598268508911
0.194225773215293884 -0.339516043663024902 -0.058884739875793457
0.0704480782151222229 -0.282376915216445923 -0.0776247978210449219
0.252769201993942261 -0.250394195318222046 0.320530474185943604
0.240125760436058044 0.0308289323002099991 0.317265689373016357
-0.120841473340988159 -0.0479366481304168701 0.00844262354075908661
0.179021775722503662 -0.100320763885974884 -0.0145060047507286072
0.532638430595397949 -0.332480430603027344 -0.0128348600119352341
0.37066042423248291 -0.349669754505157471 -0.208631470799446106
0.535142421722412109 -0.246006131172180176 0.177657440304756165
0.561336398124694824 -0.315961062908172607 -0.330691993236541748
0.554690182209014893 -0.211894363164901733 0.134302675724029541
-0.543251872062683105 0.381001204252243042 0.164708927273750305
0.123038493096828461 0.117101758718490601 0.133456483483314514
-0.582199335098266602 0.352146327495574951 0.0979620292782783508
-0.481485664844512939 0.186036303639411926 -0.0913301035761833191
0.515829086303710938 -0.33936503529548645 0.0391807816922664642
0.253784477710723877 -0.279314428567886353 0.322351694107055664
0.278857827186584473 -0.356153637170791626 -0.125789150595664978
0.508146524429321289 -0.286826521158218384 -0.313431680202484131
-0.432004660367965698 -0.0573074854910373688 0.116994410753250122
0.20215316116809845 0.0903804376721382141 0.223720148205757141
0.244476839900016785 0.104428417980670929 -0.0569332316517829895
-0.195565953850746155 0.201572209596633911 0.34965631365776062
0.250689864158630371 0.024789862334728241 0.3236980140209198
0.240052804350852966 0.0188828390091657639 0.32139018177986145
-0.0312504582107067108 0.162689343094825745 0.383024424314498901
-0.482384860515594482 -0.0157213620841503143 0.18046937882900238
0.484052717685699463 -0.369285345077514648 0.0464209020137786865
-0.643451273441314697 0.287289947271347046 0.0863741412758827209
0.276258736848831177 -0.166013866662979126 -0.0701957643032073975
-0.411668330430984497 -0.0569872967898845673 0.0792093127965927124
-0.642916023731231689 0.17579863965511322 -0.0818544104695320129
-0.225707054138183594 -0.134109631180763245 -0.0519157014787197113
0.25528380274772644 -0.265726923942565918 0.321513116359710693
-0.34518018364906311 0.017200889065861702 -0.116640329360961914
-0.286911934614181519 -0.0917231738567352295 -0.106211818754673004
-0.584941506385803223 0.209909290075302124 -0.217843189835548401
0.267944455146789551 -0.297187924385070801 0.315590053796768188
-0.0252953153103590012 -0.187475994229316711 -0.0431700125336647034
-0.617992222309112549 0.277072697877883911 0.0315755531191825867
-0.608782172203063965 0.298401147127151489 0.0926678925752639771
-0.397407740354537964 -0.062986329197883606 0.119207993149757385
-0.451563835144042969 -0.0382896512746810913 0.119787774980068207
0.43140074610710144 -0.271970450878143311 0.329616159200668335
-0.0522889420390129089 0.14071221649646759 0.0920466706156730652
-0.502924978733062744 0.151156038045883179 0.355744093656539917
0.241170153021812439 -0.319475799798965454 0.32320597767829895
0.497423321008682251 -0.371105849742889404 0.0577443502843379974
0.399605214595794678 -0.257086902856826782 0.322884887456893921
-0.158042788505554199 -0.263688027858734131 0.181954830884933472
-0.49905771017074585 0.0139434104785323143 0.158372268080711365
0.417893528938293457 -0.297598123550415039 0.329161852598190308
0.535562396049499512 -0.340470671653747559 -0.01806630939245224
0.344635933637619019 -0.267673015594482422 -0.127546057105064392
-0.496376842260360718 0.071928754448890686 0.204280316829681396
0.443938255310058594 -0.27241593599319458 0.333847016096115112
0.52230370044708252 -0.335679113864898682 0.0331832468509674072
0.453695863485336304 -0.320205241441726685 -0.292756408452987671
0.474531650543212891 -0.31196218729019165 0.117104113101959229
0.517518699169158936 -0.278713375329971313 -0.312541157007217407
0.502970635890960693 -0.326247870922088623 -0.314042478799819946
0.518391609191894531 -0.327395886182785034 0.10232573002576828
0.479638218879699707 -0.311734765768051147 -0.301894694566726685
0.114754252135753632 0.118439719080924988 0.289405256509780884
-0.121845543384552002 0.268626213073730469 0.159136027097702026
-0.614744067192077637 0.265540599822998047 0.0522852055728435516
-0.479286670684814453 0.00294546759687364101 0.181651577353477478
0.427019357681274414 -0.35530930757522583 0.158972799777984619
-0.292085468769073486 -0.110802240669727325 -0.105475492775440216
0.130738258361816406 0.0653382092714309692 0.32161712646484375
0.25397077202796936 0.0384477674961090088 -0.0774870440363883972
0.23570549488067627 0.0936532765626907349 -0.0527567341923713684
0.418021529912948608 -0.261858880519866943 -0.202047958970069885
0.52196735143661499 -0.354952484369277954 -0.0190868787467479706
-0.608840405941009521 0.381231158971786499 0.181467920541763306
0.517869949340820312 -0.279613852500915527 -0.314464151859283447
0.499411195516586304 -0.350303024053573608 0.0244593359529972076
-0.58780592679977417 0.369407922029495239 0.113255709409713745
0.50619429349899292 -0.105012387037277222 0.147685825824737549
-0.197970792651176453 0.311577826738357544 0.113271288573741913
0.264392256736755371 -0.286773532629013062 0.320179522037506104
0.237142562866210938 0.0619425959885120392 0.310928910970687866
-0.144288435578346252 -0.043674711138010025 0.00450851907953619957
-0.657678365707397461 0.214718729257583618 -0.0460122153162956238
-0.288392126560211182 -0.0761693939566612244 -0.0683125406503677368
0.22748333215713501 0.0419295281171798706 -0.0478337183594703674
0.551747620105743408 -0.144776999950408936 0.132444858551025391
0.520029604434967041 -0.295664012432098389 0.0752920582890510559
0.517872095108032227 -0.284373164176940918 -0.180860698223114014
-0.357918828725814819 -0.0172747839242219925 -0.0276477411389350891
0.0916573777794837952 0.0880097299814224243 0.0861253738403320312
0.466959327459335327 -0.362206310033798218 -0.0103060249239206314
-0.432828545570373535 0.157674789428710938 -0.0662233009934425354
0.524065315723419189 -0.335946798324584961 0.0692940130829811096
0.263252079486846924 -0.286142408847808838 0.31890261173248291
0.00962150562554597855 -0.0912024825811386108 -0.0258116666227579117
0.032822050154209137 -0.130607724189758301 0.0221911761909723282
-0.630650103092193604 0.265055447816848755 0.0292347073554992676
0.242340832948684692 0.0741151198744773865 0.319197475910186768
0.240434497594833374 0.029353877529501915 0.319278895854949951
-0.174758374691009521 0.300845295190811157 0.116650916635990143
0.304926186800003052 -0.151527121663093567 0.308191478252410889
0.26228785514831543 -0.290943145751953125 0.321388363838195801
-0.476095438003540039 -0.00831976905465126038 0.166521891951560974
0.242971062660217285 0.0815529748797416687 0.312555938959121704
0.520492255687713623 -0.351600319147109985 0.0823310539126396179
-0.0346134044229984283 -0.237809270620346069 0.12444748729467392
-0.638268589973449707 0.290070980787277222 0.0990084186196327209
-0.234023883938789368 -0.133082911372184753 -0.0577025115489959717
-0.379139214754104614 -0.109008356928825378 0.10586412250995636
-0.236229032278060913 -0.148109197616577148 -0.05754895880818367
-0.657892584800720215 0.214412957429885864 -0.0337164998054504395
0.52912527322769165 -0.352932959794998169 0.0782738029956817627
-0.621101617813110352 0.270319879055023193 0.0526790916919708252
-0.404027700424194336 -0.0645308941602706909 0.112377539277076721
-0.446221739053726196 -0.0416782200336456299 0.122296035289764404
0.268354088068008423 -0.285835385322570801 0.323863774538040161
0.127985283732414246 -0.326810717582702637 0.31297147274017334
0.152644425630569458 -0.343303680419921875 0.31824493408203125
0.448029309511184692 -0.335965514183044434 -0.29273107647895813
0.516003668308258057 -0.303284674882888794 -0.107620134949684143
0.515492618083953857 -0.280585557222366333 -0.312559902667999268
0.485147923231124878 -0.328016787767410278 -0.309526354074478149
0.464637815952301025 -0.346229016780853271 -0.302403569221496582
0.549824714660644531 -0.210542663931846619 -0.315707385540008545
0.524355649948120117 -0.300371795892715454 -0.322212368249893188
0.518224596977233887 -0.301183879375457764 -0.318108439445495605
0.247068390250205994 0.0568298995494842529 0.316790163516998291
0.241537153720855713 0.0873082280158996582 0.313123643398284912
-0.291535764932632446 -0.100802518427371979 -0.10159841924905777
-0.453475087881088257 -0.0521625280380249023 0.117386229336261749
0.405077099800109863 -0.272509068250656128 0.322930634021759033
-0.50231468677520752 0.00364005658775568008 0.189422279596328735
0.401374220848083496 -0.287487298250198364 0.325246065855026245
0.39952009916305542 -0.273803561925888062 0.323725104331970215
0.34253355860710144 -0.259243518114089966 0.0904652252793312073
-0.0185097306966781616 -0.244602516293525696 0.129021167755126953
-0.464426755905151367 0.0358558334410190582 0.189861893653869629
-0.1943378746509552 0.221539959311485291 0.172414213418960571
0.367151707410812378 -0.329570561647415161 -0.0231809746474027634
0.323748558759689331 -0.39040982723236084 -0.158592596650123596
0.535651564598083496 -0.323931783437728882 -0.0578697286546230316
-0.441674917936325073 -0.00488490099087357521 0.153015226125717163
-0.0189215298742055893 -0.0597136802971363068 0.142085567116737366
4.42971977463457733e-05 -0.236342430114746094 0.106735795736312866
0.526419878005981445 -0.202099397778511047 -0.0796852707862854004
0.45008385181427002 -0.308648973703384399 -0.292614132165908813
0.52707970142364502 -0.275743275880813599 -0.315410733222961426
0.500167548656463623 -0.325198084115982056 -0.31241220235824585
0.475490391254425049 -0.30536380410194397 -0.297129303216934204
-0.127402693033218384 0.246576413512229919 0.139316365122795105
-0.648971498012542725 0.282097160816192627 0.0943772494792938232
-0.198895096778869629 0.286664038896560669 0.336271703243255615
0.49817320704460144 -0.0870279595255851746 0.137049064040184021
0.20109182596206665 -0.359443724155426025 -0.0905131474137306213
0.505654215812683105 -0.367977231740951538 -0.0223501157015562057
0.527464509010314941 -0.242952436208724976 0.173358634114265442
-0.585964739322662354 0.379447877407073975 0.170860737562179565
0.445303201675415039 -0.315241992473602295 -0.287488430738449097
0.498758822679519653 -0.111393898725509644 0.112556882202625275
-0.655699849128723145 0.175508290529251099 -0.103627905249595642
-0.201943367719650269 0.308772474527359009 0.0894803181290626526
0.201543867588043213 -0.0138088185340166092 0.295648097991943359
0.160277366638183594 -0.0623891167342662811 -0.0437430627644062042
-0.579510807991027832 0.302346497774124146 0.368921071290969849
0.27522432804107666 0.0981544256210327148 -0.0287866480648517609
-0.435194075107574463 0.155376702547073364 -0.085750870406627655
0.534661710262298584 -0.333335846662521362 0.0131148183718323708
-0.568652868270874023 0.197351738810539246 -0.228924348950386047
-0.497539997100830078 0.0449166260659694672 -0.0866163894534111023
0.0316701978445053101 -0.104207605123519897 0.0333451442420482635
0.534326851367950439 -0.26478084921836853 -0.316055208444595337
0.00989250373095273972 0.197549238801002502 0.0279120076447725296
0.302365630865097046 0.0386459417641162872 -0.0841611996293067932
-0.332005769014358521 -0.0161281917244195938 -0.107397116720676422
0.236716911196708679 0.0142402062192559242 0.322195351123809814
0.12530025839805603 0.0128086777403950691 0.299343585968017578
0.527745246887207031 -0.355451464653015137 0.0667172372341156006
0.467369675636291504 -0.310135602951049805 -0.232837274670600891
-0.651952624320983887 0.285439878702163696 0.10448417067527771
0.54678499698638916 -0.220230907201766968 0.163919627666473389
0.528265893459320068 -0.323661774396896362 -0.0156808234751224518
-0.382844150066375732 -0.0565280243754386902 0.0765554755926132202
0.457201868295669556 -0.311130732297897339 -0.292310714721679688
0.505242764949798584 -0.340120464563369751 -0.317650020122528076
0.479107081890106201 -0.31461063027381897 -0.299253165721893311
0.520630419254302979 -0.301588475704193115 -0.317072212696075439
-0.00198548776097595692 -0.140189409255981445 -0.0244804378598928452
0.39785468578338623 -0.273361295461654663 0.323899894952774048
0.401523500680923462 -0.271788835525512695 0.324205547571182251
0.506344377994537354 -0.332253515720367432 0.106251746416091919
-0.467424511909484863 0.042394440621137619 0.17096903920173645
0.410357534885406494 -0.346126645803451538 0.156990483403205872
-0.360588610172271729 -0.0354186370968818665 -0.147800996899604797
-0.127882689237594604 -0.267871648073196411 0.112773902714252472
0.512866973876953125 -0.369314879179000854 -0.0142910173162817955
-0.213568463921546936 0.312579333782196045 0.0980134010314941406
0.250958144664764404 -0.287282258272171021 0.323326855897903442
0.209208622574806213 0.00921827182173728943 -0.045767761766910553
0.0703031718730926514 -0.1517220139503479 -0.0168883111327886581
-0.169599443674087524 0.304799586534500122 0.119215250015258789
0.47140967845916748 -0.364625096321105957 0.00742259388789534569
-0.290655732154846191 -0.0995927825570106506 -0.102855749428272247
0.0367904752492904663 -0.149879321455955505 -0.021358199417591095
0.232442095875740051 0.0560593940317630768 0.309613078832626343
0.253764063119888306 -0.288844674825668335 0.321108430624008179
-0.471517115831375122 0.00107508315704762936 0.168989062309265137
0.241257593035697937 0.0625155121088027954 0.313512355089187622
0.50923621654510498 -0.352294057607650757 0.0643634796142578125
0.227800056338310242 -0.31498834490776062 0.315010905265808105
-0.375144392251968384 -0.0932674035429954529 0.0865455642342567444
-0.06232428178191185 -0.241754695773124695 0.302975684404373169
-0.222374364733695984 -0.127821803092956543 -0.052761811763048172
-0.409642934799194336 -0.0655466839671134949 0.098865605890750885
-0.444764375686645508 -0.0447999462485313416 0.133073031902313232
0.23935370147228241 -0.294226020574569702 0.314883172512054443
0.154312744736671448 -0.324508756399154663 0.320557683706283569
0.425648152828216553 -0.256276249885559082 0.329056233167648315
0.438588142395019531 -0.343192428350448608 -0.292386025190353394
0.506660342216491699 -0.334821909666061401 -0.317794531583786011
0.445435434579849243 -0.352540284395217896 -0.28644147515296936
0.238522574305534363 0.0655798912048339844 0.312791764736175537
0.403600931167602539 -0.287716180086135864 0.326370835304260254
-0.494540214538574219 0.00667035393416881561 0.188712000846862793
0.486018627882003784 -0.0634614303708076477 0.132174193859100342
0.0129122771322727203 -0.170915395021438599 0.0102139310911297798
0.531850934028625488 -0.307864755392074585 -0.0618355683982372284
0.315215766429901123 -0.30250278115272522 -0.12648029625415802
0.446268260478973389 -0.291580736637115479 -0.285347878932952881
-0.336672216653823853 0.224718958139419556 0.126091882586479187
-0.40056338906288147 -0.0282613784074783325 -0.0015691856388002634
0.403508514165878296 -0.271931946277618408 0.324589282274246216
-0.133022904396057129 0.195756971836090088 0.168159246444702148
0.399559736251831055 -0.271868139505386353 0.324401915073394775
-0.446227043867111206 -0.0250223409384489059 0.0217349734157323837
-0.137714952230453491 0.244848102331161499 0.192113965749740601
-0.612517416477203369 0.294164031744003296 0.183991953730583191
0.1248759925365448 0.115970157086849213 0.317136257886886597
-0.120656907558441162 0.250581830739974976 0.162244036793708801
-0.583021461963653564 0.348308324813842773 0.058374602347612381
0.427259087562561035 -0.348301857709884644 0.153476521372795105
-0.566420912742614746 0.295208156108856201 -0.06876353919506073
0.252236247062683105 0.0265745297074317932 -0.0792142301797866821
0.24799753725528717 0.100272692739963531 -0.0479738563299179077
-0.357058316469192505 -0.0557763800024986267 -0.141535580158233643
0.199030935764312744 0.120112404227256775 0.0361603200435638428
0.54587244987487793 -0.131720185279846191 0.112438604235649109
-0.581319987773895264 0.321914434432983398 -0.022620784118771553
0.206515759229660034 0.0245428252965211868 0.177276194095611572
-0.59505075216293335 0.375322014093399048 0.172271877527236938
0.445217996835708618 -0.319393247365951538 0.127807945013046265
0.255563884973526001 -0.278810888528823853 0.316952407360076904
0.235928639769554138 0.023678019642829895 0.317040711641311646
-0.362522125244140625 -0.0497885271906852722 -0.0234218984842300415
-0.182295188307762146 0.118134655058383942 0.0426979139447212219
0.255280435085296631 -0.288249433040618896 0.319768905639648438
0.242360040545463562 0.0330546163022518158 0.322305381298065186
0.400179415941238403 0.0232090111821889877 0.115600869059562683
-0.340088337659835815 -0.0661345571279525757 -0.146978378295898438
0.0763075277209281921 -0.33299177885055542 0.299424737691879272
-0.386369138956069946 -0.0607769712805747986 0.0941910967230796814
-0.447798728942871094 -0.0412738844752311707 0.128079846501350403
0.439793795347213745 -0.279401838779449463 0.334132909774780273
0.0349323339760303497 -0.122928887605667114 -0.0252691805362701416
0.414770036935806274 -0.280852705240249634 0.327471286058425903
0.433474302291870117 -0.296150326728820801 0.333634674549102783
0.368395715951919556 -0.278804779052734375 -0.129942163825035095
-0.477040916681289673 0.00150099373422563076 0.188691228628158569
-0.291070252656936646 -0.0963011905550956726 -0.104188263416290283
0.241909176111221313 -0.313016116619110107 0.310128986835479736
0.473632365465164185 -0.354345411062240601 0.00743245659396052361
-0.295904844999313354 -0.0965500026941299438 -0.106644392013549805
0.245259776711463928 -0.288596749305725098 0.320521950721740723
0.0628418996930122375 -0.329692840576171875 0.297508895397186279
0.15854974091053009 -0.267818629741668701 -0.105191454291343689
0.25055241584777832 0.0633244514465332031 0.315937936305999756
-0.482118904590606689 -0.00783715862780809402 0.178289338946342468
0.236694037914276123 0.0664968341588973999 0.31529352068901062
0.239253073930740356 -0.331820368766784668 0.321858495473861694
-0.381814837455749512 -0.0919531211256980896 0.0370874069631099701
-0.215633809566497803 -0.140060290694236755 -0.0539960488677024841
-0.382270783185958862 -0.0635872334241867065 0.0839061439037322998
0.150525957345962524 -0.331616818904876709 0.332348346710205078
0.446311652660369873 -0.279934167861938477 0.334057897329330444
0.407884746789932251 -0.2805633544921875 0.325582623481750488
-0.501626312732696533 0.00665507698431611061 0.189021170139312744
-0.321502774953842163 0.0972939431667327881 -0.0699140727519989014
0.532917559146881104 -0.207632794976234436 -0.0522550344467163086
0.451459527015686035 -0.294019758701324463 -0.290237575769424438
0.487906485795974731 -0.325368672609329224 -0.310656279325485229
0.446907281875610352 -0.309863299131393433 -0.290603101253509521
-0.577358007431030273 0.269338488578796387 0.366114288568496704
-0.460995495319366455 0.105872735381126404 -0.230737388134002686
0.375336229801177979 -0.318772703409194946 0.199508100748062134
-0.589416921138763428 0.367071777582168579 0.131486371159553528
0.393081486225128174 -0.353566557168960571 -0.217223688960075378
0.44160616397857666 -0.310405552387237549 -0.288812637329101562
-0.200326830148696899 0.305497527122497559 0.0953428521752357483
-0.155164062976837158 0.267966568470001221 0.152054056525230408
0.53022301197052002 -0.338577419519424438 0.0722118094563484192
0.464295893907546997 -0.266266673803329468 -0.217397138476371765
-0.633130729198455811 0.275832116603851318 0.107265397906303406
0.43892863392829895 -0.308697760105133057 -0.286983281373977661
0.515934288501739502 -0.277328729629516602 -0.316612064838409424
0.517058491706848145 -0.340474396944046021 -0.320529758930206299
0.454865783452987671 -0.307178974151611328 -0.293038159608840942
0.491336166858673096 -0.322058767080307007 0.0947753638029098511
0.0211542174220085144 -0.275870829820632935 -0.0182231124490499496
-0.653631269931793213 0.172042608261108398 -0.107904992997646332
-0.224365070462226868 0.318608254194259644 0.121741421520709991
0.465809226036071777 -0.364230185747146606 0.00625954102724790573
0.481518030166625977 -0.336944729089736938 0.0506483688950538635
0.511963844299316406 -0.339534521102905273 -0.319189369678497314
0.440698236227035522 -0.356692016124725342 -0.297399401664733887
-0.269670188426971436 0.322086900472640991 0.0422463305294513702
0.424657315015792847 -0.313418954610824585 -0.281678050756454468
0.415972888469696045 -0.295308768749237061 0.328918039798736572
-0.325663387775421143 -0.0754022002220153809 0.123864538967609406
-0.366457939147949219 -0.0667133405804634094 0.155069500207901001
-0.337923347949981689 0.214881286025047302 0.133230194449424744
0.0104466434568166733 0.119337506592273712 0.105539575219154358
0.542446374893188477 -0.309334784746170044 -0.0458620525896549225
0.0141713060438632965 -0.261849939823150635 0.0398769006133079529
-0.0030231839045882225 -0.236619457602500916 0.0946432873606681824
0.000731424428522586823 -0.219660490751266479 0.0818994119763374329
0.465386748313903809 -0.361083328723907471 0.0306675489991903305
-0.268926024436950684 -0.138027667999267578 0.177904784679412842
-0.344658970832824707 -0.0658905059099197388 0.141660943627357483
0.123998090624809265 -0.276755869388580322 0.129369035363197327
-0.133475944399833679 0.0787649154663085938 0.0906750261783599854
0.463865786790847778 -0.0545649118721485138 0.0179389622062444687
-0.0136080803349614143 -0.216971740126609802 0.0807400569319725037
-0.554402828216552734 0.391780167818069458 0.148025631904602051
0.49705842137336731 -0.366958439350128174 0.00559373339638113976
-0.610346138477325439 0.294161826372146606 0.186797171831130981
0.530458748340606689 -0.275392234325408936 -0.317446768283843994
0.370833396911621094 -0.264738500118255615 0.181922644376754761
0.42081567645072937 -0.344617307186126709 0.151241615414619446
0.252367943525314331 0.0390749163925647736 -0.0663417801260948181
0.549779176712036133 -0.150110095739364624 0.124630309641361237
-0.57015460729598999 0.284177809953689575 -0.00616251211613416672
0.501325249671936035 -0.362810194492340088 -0.000938198412768542767
0.208567336201667786 0.11556658148765564 -0.0100950859487056732
-0.288736194372177124 -0.0856782048940658569 -0.0660376176238059998
0.159667789936065674 -0.0833549574017524719 -0.0358247719705104828
-0.339512050151824951 -0.105464570224285126 0.141703203320503235
0.511477887630462646 -0.281557172536849976 -0.312964946031570435
-0.338842839002609253 -0.0796639621257781982 0.0390012860298156738
-0.368995130062103271 0.280825704336166382 -0.0622294843196868896
0.510257899761199951 -0.341147750616073608 0.065489158034324646
0.302737981081008911 -0.20603393018245697 0.24830763041973114
0.543188631534576416 -0.312221109867095947 -0.0604150146245956421
0.141905888915061951 0.0694055259227752686 0.336789637804031372
-0.594491839408874512 0.2676430344581604 0.0124438721686601639
0.222367674112319946 -0.00721348589286208153 0.295981049537658691
0.231204137206077576 0.0342120826244354248 0.313174396753311157
0.533897817134857178 -0.319826871156692505 -0.0124468225985765457
-0.388901501893997192 -0.0639868378639221191 0.106158144772052765
-0.447142183780670166 -0.0401260405778884888 0.126931488513946533
0.496281266212463379 -0.0915340855717658997 0.154847800731658936
0.251219868659973145 0.0630015209317207336 0.317055881023406982
-0.29087984561920166 -0.0927280038595199585 0.308164238929748535
-0.366109460592269897 -0.114770933985710144 0.104461930692195892
-0.563008010387420654 0.127362504601478577 -0.0781602188944816589
-0.501094043254852295 0.0235056877136230469 0.187065660953521729
0.518532931804656982 -0.297578394412994385 -0.313801020383834839
0.473018735647201538 -0.32848125696182251 -0.299659281969070435
-0.573892056941986084 0.269003391265869141 0.363042324781417847
-0.570829629898071289 0.355056703090667725 0.167357578873634338
-0.191409662365913391 0.304746359586715698 0.101705387234687805
-0.661681294441223145 0.239900439977645874 0.0419289618730545044
-0.504499137401580811 0.14449705183506012 0.353729754686355591
0.507550477981567383 -0.34740293025970459 -0.318087190389633179
-0.200237095355987549 0.305081218481063843 0.102365031838417053
0.475531190633773804 -0.357873648405075073 0.0050181741826236248
0.510142862796783447 -0.330964922904968262 0.0667658373713493347
-0.610357046127319336 0.367754876613616943 0.0880730971693992615
-0.562122225761413574 0.288424432277679443 -0.0556576997041702271
0.22029547393321991 0.010150485672056675 0.309509515762329102
0.240859717130661011 0.00498170172795653343 0.321970552206039429
-0.359109878540039062 -0.0569209195673465729 -0.137531310319900513
0.399687498807907104 -0.252939581871032715 0.322329819202423096
0.399992316961288452 -0.263311088085174561 0.325082600116729736
0.224524542689323425 -0.324274986982345581 0.321088343858718872
0.411472886800765991 -0.268053531646728516 0.325504511594772339
-0.508735477924346924 0.0494834557175636292 0.195653229951858521
-0.630808889865875244 0.15659669041633606 -0.0523642413318157196
-0.501473128795623779 0.147062629461288452 0.345703482627868652
0.521346628665924072 -0.350962668657302856 -0.322829723358154297
0.495698511600494385 -0.348598361015319824 0.000539777160156518221
-0.197472333908081055 0.0160907991230487823 -0.0495933219790458679
-0.557385265827178955 0.341936081647872925 -0.00543045159429311752
0.488913238048553467 -0.360726743936538696 0.0413720831274986267
0.449485749006271362 -0.0744867473840713501 0.00225229701027274132
-0.555931448936462402 0.385386854410171509 0.158147126436233521
0.374977678060531616 -0.0814338773488998413 -0.119665414094924927
-0.389367550611495972 0.319706767797470093 0.169205427169799805
-0.384328514337539673 0.328274518251419067 0.197906851768493652
-0.363778531551361084 0.238071426749229431 -0.0831329524517059326
-0.406933128833770752 0.199566945433616638 0.0412739776074886322
-0.644079804420471191 0.286968827247619629 0.0938928648829460144
0.408985823392868042 -0.347491592168807983 0.136756792664527893
0.222662851214408875 0.0827106907963752747 -0.0332375019788742065
0.498885214328765869 -0.161548256874084473 0.124154344201087952
0.500614643096923828 -0.0931457653641700745 0.135075688362121582
0.21570993959903717 0.00170402624644339085 0.299842029809951782
-0.352710872888565063 -0.0682064294815063477 -0.00871315132826566696
-0.385028034448623657 0.266078799962997437 -0.0713214725255966187
0.506827414035797119 -0.347369492053985596 0.0552379824221134186
-0.356529325246810913 -0.0563850328326225281 -0.145123526453971863
0.132532089948654175 0.0724661648273468018 0.322515755891799927
-0.0990884080529212952 -0.265717297792434692 0.00645735207945108414
0.242762774229049683 0.0231229290366172791 0.322276771068572998
-0.479982614517211914 -0.0117634348571300507 0.185675352811813354
0.242785915732383728 0.0481121130287647247 0.317458033561706543
-0.277837604284286499 0.332765430212020874 0.0410284511744976044
0.370152086019515991 -0.0311352405697107315 -0.039687667042016983
0.520518064498901367 -0.348288416862487793 -0.0360355675220489502
0.293622583150863647 -0.0122159617021679878 0.0373000167310237885
-0.643766462802886963 0.284886389970779419 0.0927406176924705505
0.0360337384045124054 0.13656027615070343 0.0854445844888687134
-0.39702916145324707 -0.0576895475387573242 0.126257672905921936
-0.441000193357467651 -0.0382789894938468933 0.131677448749542236
0.524186849594116211 -0.317878484725952148 -0.0651859864592552185
0.422827214002609253 -0.280243515968322754 0.331572741270065308
0.509990036487579346 -0.345264613628387451 0.0574070475995540619
0.404244959354400635 -0.259116888046264648 0.323977798223495483
-0.479896247386932373 0.0180013068020343781 0.17705729603767395
0.235820472240447998 0.068299710750579834 0.31485554575920105
-0.479044914245605469 -0.00841578654944896698 0.167702347040176392
0.239444762468338013 0.0673079788684844971 0.315257340669631958
0.388427257537841797 0.0256748571991920471 0.106281906366348267
0.220046281814575195 -0.316275715827941895 0.310744762420654297
0.383247405290603638 0.042589239776134491 0.0693156048655509949
0.462933123111724854 0.0104008261114358902 0.175364136695861816
0.399871408939361572 -0.258907467126846313 0.327551424503326416
-0.499205410480499268 0.0210831332951784134 0.181268036365509033
-0.573085904121398926 0.266276657581329346 0.360266447067260742
-0.664141714572906494 0.229959920048713684 0.022072644904255867
-0.148934453725814819 0.275306910276412964 0.0793972238898277283
0.522385478019714355 -0.335384845733642578 -0.322444319725036621
-0.220052570104598999 0.315652638673782349 0.097086884081363678
0.500219285488128662 -0.346856981515884399 0.0672986581921577454
-0.189403831958770752 0.302724838256835938 0.11510787159204483
0.314007043838500977 -0.13043588399887085 0.301041483879089355
0.225451827049255371 -0.0354992710053920746 0.305482655763626099
0.0578910559415817261 -0.330966085195541382 0.291754424571990967
0.435616195201873779 -0.280280321836471558 0.333087652921676636
0.409352570772171021 -0.286073982715606689 0.331249654293060303
0.386064052581787109 -0.266104578971862793 0.319124072790145874
0.397828787565231323 -0.385011136531829834 -0.22552141547203064
-0.16191565990447998 0.27833634614944458 0.128957450389862061
0.38088756799697876 0.0436120033264160156 0.0772595033049583435
0.39118582010269165 -0.256064355373382568 0.319132000207901001
-0.499925017356872559 0.0243666823953390121 0.186105310916900635
0.499950051307678223 -0.326267093420028687 -0.313074201345443726
0.381013065576553345 -0.37630164623260498 -0.216132134199142456
0.521453142166137695 -0.349608838558197021 -0.324846476316452026
0.521012663841247559 -0.348748058080673218 -0.321784734725952148
0.513635098934173584 -0.319994300603866577 -0.318412125110626221
0.255370080471038818 -0.222667321562767029 0.0577265806496143341
0.186384081840515137 -0.142586976289749146 -0.105419084429740906
0.508109033107757568 -0.32055702805519104 0.0294469334185123444
-0.469077229499816895 -0.0120186014100909233 0.181373104453086853
0.49654388427734375 -0.349306643009185791 -0.309742927551269531
0.521791577339172363 -0.327868491411209106 -0.321917414665222168
0.476357758045196533 -0.320588856935501099 -0.303025156259536743
-0.340810865163803101 0.229838654398918152 -0.0440239384770393372
0.201941326260566711 0.132560983300209045 0.112470097839832306
-0.172210976481437683 0.022049732506275177 0.0258851684629917145
0.265969902276992798 -0.166122257709503174 0.00624338863417506218
0.54499739408493042 -0.328646481037139893 -0.0476653389632701874
-0.455904662609100342 -0.0532218702137470245 0.162487193942070007
0.470059365034103394 -0.356404364109039307 -0.307082891464233398
0.47879183292388916 -0.270144790410995483 -0.301508426666259766
0.467674165964126587 -0.362213015556335449 -0.308173269033432007
-0.319831699132919312 0.266641050577163696 0.0118000507354736328
0.0334297977387905121 0.0983678624033927917 0.128788739442825317
-0.284130185842514038 -0.100242987275123596 -0.0870618075132369995
-0.61635136604309082 0.217026889324188232 -0.104584664106369019
0.24464021623134613 0.104233011603355408 -0.0295462775975465775
0.4665985107421875 -0.235447227954864502 -0.228448882699012756
-0.293388426303863525 -0.0886963307857513428 -0.0956192612648010254
0.249520927667617798 -0.276155471801757812 0.32285800576210022
0.22229062020778656 0.0666014030575752258 -0.0277037397027015686
-0.250403314828872681 -0.130388110876083374 -0.0552050992846488953
-0.211280524730682373 0.301978707313537598 0.149022579193115234
0.34014660120010376 -0.140881732106208801 0.318593472242355347
0.529980778694152832 -0.356902629137039185 0.0698858648538589478
-0.599481105804443359 0.356717526912689209 0.0606518760323524475
-0.345843136310577393 -0.055912606418132782 -0.143359631299972534
-0.432359009981155396 0.157537400722503662 -0.0843560099601745605
0.52687537670135498 -0.332030832767486572 0.0205772165209054947
0.528451323509216309 -0.288284778594970703 -0.0699842572212219238
-0.49839821457862854 0.142647862434387207 -0.253648340702056885
0.146732166409492493 0.156535252928733826 0.0590432323515415192
0.253542482852935791 -0.00793715938925743103 0.327945351600646973
0.350289911031723022 -0.147467553615570068 0.320830404758453369
0.442638248205184937 -0.322817325592041016 -0.22926466166973114
-0.223626658320426941 -0.140204653143882751 -0.0535201914608478546
0.522807300090789795 -0.350537568330764771 0.0971612408757209778
-0.645652234554290771 0.253527373075485229 0.0241080671548843384
0.393556982278823853 -0.280374109745025635 0.322576910257339478
-0.474252134561538696 -0.00996132008731365204 0.165149301290512085
0.224812686443328857 -0.325277417898178101 0.319344878196716309
-0.363199174404144287 -0.121327608823776245 0.130701690912246704
-0.23807428777217865 -0.140828937292098999 -0.0536491349339485168
-0.113586634397506714 -0.00934063643217086792 -0.016401214525103569
0.389783471822738647 -0.278644800186157227 0.320906966924667358
-0.506563067436218262 0.011188136413693428 0.202227622270584106
0.46297687292098999 -0.297192692756652832 -0.294228017330169678
0.35163348913192749 -0.148425549268722534 0.321686863899230957
0.458224117755889893 -0.30398896336555481 -0.228728622198104858
0.0248943865299224854 -0.143977940082550049 -0.0199133213609457016
0.369355112314224243 -0.328026175498962402 0.319050490856170654
0.392009168863296509 -0.281798064708709717 0.317168742418289185
0.129020839929580688 -0.319419682025909424 -0.0968788191676139832
-0.134203389286994934 0.278395682573318481 0.117814920842647552
-0.332894682884216309 0.0944413691759109497 -0.102091215550899506
0.374451279640197754 -0.376164466142654419 -0.214685529470443726
0.520230531692504883 -0.345997631549835205 -0.322462916374206543
0.523796141147613525 -0.358261555433273315 -0.326321870088577271
-0.06787138432264328 -0.254990130662918091 0.0992164090275764465
0.326085567474365234 -0.131123915314674377 0.315014034509658813
0.424663156270980835 -0.260042130947113037 0.328584641218185425
-0.479513943195343018 0.0318328365683555603 0.196991816163063049
0.526968896389007568 -0.299859464168548584 -0.321925729513168335
0.538397550582885742 -0.292708545923233032 -0.32433784008026123
0.378245383501052856 -0.374402850866317749 -0.21339571475982666
0.371750324964523315 -0.357339948415756226 -0.213399842381477356
0.524417519569396973 -0.351860344409942627 -0.324703484773635864
0.525723934173583984 -0.363637179136276245 -0.322790682315826416
0.515891909599304199 -0.327410459518432617 -0.31978413462638855
0.479859441518783569 -0.352561771869659424 -0.311924636363983154
0.478827685117721558 -0.365831822156906128 -0.312640875577926636
-0.361499935388565063 0.310486197471618652 0.240107685327529907
-0.320463120937347412 0.104045957326889038 0.0225483160465955734
-0.447246938943862915 0.204300284385681152 -0.0400572866201400757
-0.377410173416137695 0.279410064220428467 -0.00696075428277254105
-0.0221174303442239761 -0.260904610157012939 0.144187688827514648
-0.591589510440826416 0.36158984899520874 0.0644517317414283752
0.367953479290008545 -0.373729705810546875 -0.21218813955783844
-0.123729132115840912 -0.0107871051877737045 0.00829852931201457977
0.397011160850524902 -0.353616654872894287 -0.218006864190101624
0.507639646530151367 -0.159805864095687866 0.125543072819709778
0.195686295628547668 0.124585971236228943 0.00671303132548928261
-0.0266151279211044312 0.166777953505516052 0.383382558822631836
-0.333681821823120117 -0.121177323162555695 0.100697584450244904
-0.324917346239089966 0.302979230880737305 -0.0363906063139438629
0.534413278102874756 -0.347063601016998291 0.0381662659347057343
0.525664746761322021 -0.332095861434936523 0.0348362885415554047
-0.595421910285949707 0.382243871688842773 0.113636843860149384
-0.010700673796236515 -0.144394129514694214 -0.0265360623598098755
-0.234945744276046753 0.172022521495819092 -0.00131039193365722895
-0.485140621662139893 -0.0106468787416815758 0.177568763494491577
-0.277759164571762085 0.336178958415985107 0.0425785407423973083
0.513765573501586914 -0.349325388669967651 0.0974225178360939026
-0.448247820138931274 -0.0358104594051837921 0.11777014285326004
0.434738725423812866 -0.253491103649139404 0.332186371088027954
0.415237218141555786 -0.278598159551620483 0.327655106782913208
-0.468556731939315796 0.0344458483159542084 0.193932905793190002
0.502605080604553223 -0.339820027351379395 0.00828266981989145279
-0.481109350919723511 -0.00280891498550772667 0.177901521325111389
-0.377090424299240112 -0.106752224266529083 0.0932921767234802246
-0.500673055648803711 0.0222181119024753571 0.184666261076927185
0.361046075820922852 -0.28715062141418457 -0.141512200236320496
0.00198457017540931702 -0.231524303555488586 0.0904254540801048279
-0.139982432126998901 0.265097111463546753 0.0887849926948547363
-0.129293814301490784 0.254408806562423706 0.0717744380235671997
0.313014835119247437 -0.293507784605026245 -0.130868300795555115
0.428575038909912109 -0.255730003118515015 0.330684661865234375
-0.615038514137268066 0.306756407022476196 0.392533719539642334
0.411163359880447388 -0.358202487230300903 -0.226078078150749207
0.505491852760314941 -0.346725046634674072 -0.319561243057250977
0.508186697959899902 -0.352760940790176392 -0.322269260883331299
0.52395319938659668 -0.298720806837081909 -0.318346649408340454
0.510145306587219238 -0.347071230411529541 -0.319885730743408203
0.270414739847183228 -0.169613391160964966 -0.0792362764477729797
0.134061023592948914 0.120221897959709167 0.329522222280502319
0.252251923084259033 -0.285179674625396729 0.328599780797958374
0.324835151433944702 -0.120419003069400787 0.311048001050949097
0.302821874618530273 -0.204604580998420715 0.25157541036605835
0.25042349100112915 -0.00394926872104406357 0.325500726699829102
0.50762021541595459 -0.343362331390380859 0.0879567787051200867
0.242041558027267456 0.0897340923547744751 0.310413479804992676
0.463269233703613281 -0.28429710865020752 -0.230847135186195374
-0.26191219687461853 0.314046263694763184 0.0462113209068775177
0.344485491514205933 -0.140176966786384583 0.329856306314468384
0.374296128749847412 -0.3640899658203125 -0.208392590284347534
0.338028818368911743 -0.129446446895599365 0.321097910404205322
0.526876270771026611 -0.347410470247268677 -0.323704987764358521
0.524644196033477783 -0.352266788482666016 -0.32625994086265564
0.480467170476913452 -0.372542917728424072 -0.312730669975280762
-0.359655290842056274 -0.0650673657655715942 0.0832810327410697937
-0.407126963138580322 0.0886135697364807129 -0.112829357385635376
0.0144204162061214447 0.0980371385812759399 0.217570379376411438
-0.378149867057800293 -0.0932768285274505615 -0.0279677323997020721
0.265797287225723267 0.0682604238390922546 -0.0914901494979858398
-0.107905387878417969 -0.0152622470632195473 0.0463930293917655945
-0.357728242874145508 -0.0921067148447036743 0.0133034940809011459
-0.290086537599563599 0.304873466491699219 0.166991710662841797
-0.355178296566009521 -0.073642335832118988 0.0410140566527843475
-0.598253786563873291 0.294682890176773071 0.186850845813751221
0.249710842967033386 0.0966290459036827087 -0.0339479111135005951
0.379576683044433594 -0.355142742395401001 -0.209064006805419922
0.470116376876831055 -0.324952751398086548 0.138391479849815369
0.464853256940841675 -0.272064208984375 -0.0926421135663986206
-0.439289838075637817 -0.043137628585100174 0.0845931842923164368
-0.335951000452041626 -0.124844707548618317 0.128006011247634888
0.528642356395721436 -0.342139244079589844 0.0514037422835826874
0.393009811639785767 0.0469234287738800049 0.133988082408905029
-0.185637921094894409 0.314134955406188965 0.108220919966697693
-0.441246688365936279 -0.0430281311273574829 0.118170738220214844
0.537680149078369141 -0.326411277055740356 -0.0552911832928657532
-0.352752625942230225 0.306467264890670776 0.114572174847126007
0.494475603103637695 -0.346331298351287842 0.0444802679121494293
-0.575211524963378906 0.305289953947067261 0.379682153463363647
0.431324809789657593 -0.281187266111373901 0.334144741296768188
-0.477290213108062744 0.00396163668483495712 0.164486870169639587
0.525292158126831055 -0.350098460912704468 -0.00220050732605159283
-0.0668822303414344788 -0.26297268271446228 0.298897475004196167
-0.511579930782318115 0.00452784914523363113 0.188404858112335205
0.390320032835006714 -0.360566705465316772 -0.2153606116771698
-0.118202261626720428 0.254379570484161377 0.063999079167842865
-0.500096738338470459 0.00494151096791028976 0.193601444363594055
0.426807373762130737 -0.274689942598342896 0.331075549125671387
-0.333237767219543457 0.104090474545955658 -0.11817585676908493
-0.105566784739494324 0.254239141941070557 0.0940195247530937195
0.511064589023590088 -0.341964364051818848 -0.319363057613372803
-0.612499773502349854 0.30271872878074646 0.39655756950378418
-0.508666157722473145 0.0365366227924823761 0.188925772905349731
-0.290719956159591675 -0.0892864540219306946 -0.0782788544893264771
0.509920477867126465 -0.345243752002716064 -0.320788949728012085
0.0721145123243331909 0.139205336570739746 0.0728951767086982727
0.245890215039253235 0.10705903172492981 0.321862369775772095
0.473543167114257812 -0.287059277296066284 -0.230375394225120544
0.305638253688812256 -0.31489214301109314 0.332168459892272949
0.512134134769439697 -0.350311249494552612 -0.321814030408859253
-0.315016955137252808 -0.0871134698390960693 -0.0339268036186695099
0.514745414257049561 -0.356015503406524658 -0.322779744863510132
-0.62487107515335083 0.180412009358406067 -0.0859382152557373047
-0.353194624185562134 -0.0560108274221420288 -0.143660426139831543
-0.3309440016746521 0.26958879828453064 -0.0547442249953746796
-0.176972880959510803 0.138866811990737915 0.00536584295332431793
0.545683503150939941 -0.217701971530914307 0.159594833850860596
0.0308820605278015137 0.102414503693580627 0.0657418370246887207
0.51019132137298584 -0.33117908239364624 -0.31916317343711853
0.586185932159423828 -0.325455069541931152 -0.319738805294036865
0.250119686126708984 -0.288495093584060669 0.318819254636764526
0.255893707275390625 -0.00325619126670062542 0.328439086675643921
0.301933526992797852 -0.282768756151199341 0.33168676495552063
-0.343844085931777954 -0.090912647545337677 0.0183322839438915253
-0.37402758002281189 -0.0901088789105415344 -0.0179229713976383209
-0.0649412795901298523 -0.273613691329956055 0.159796342253684998
-0.630166411399841309 0.275775372982025146 0.0761835277080535889
0.367039650678634644 -0.365912407636642456 -0.211965247988700867
-0.124052032828330994 -0.0293186921626329422 -0.00627052737399935722
-0.598277509212493896 0.342479169368743896 0.0907964035868644714
0.444336920976638794 -0.249737262725830078 -0.286031782627105713
0.383082330226898193 -0.348390698432922363 -0.211831018328666687
0.312832266092300415 -0.373004913330078125 -0.155821934342384338
-0.179270714521408081 0.312771618366241455 0.100407451391220093
0.535441219806671143 -0.319595307111740112 -0.0320945121347904205
-0.654844403266906738 0.238479346036911011 0.0142809832468628883
-0.452698975801467896 -0.0539488866925239563 0.163636654615402222
0.500280439853668213 -0.348880797624588013 0.0717129632830619812
0.440856128931045532 -0.261136740446090698 0.334755212068557739
0.50756371021270752 -0.344104498624801636 0.0302451550960540771
0.264780938625335693 0.121412791311740875 0.0274630114436149597
0.400118172168731689 0.0323211215436458588 0.140156343579292297
-0.106176041066646576 0.252637773752212524 0.073042064905166626
0.317084997892379761 -0.381031453609466553 -0.156699284911155701
-0.566330492496490479 0.295670658349990845 -0.051188301295042038
0.390778332948684692 -0.363082170486450195 -0.220742508769035339
0.359304547309875488 0.0332320109009742737 0.0489153861999511719
0.195029467344284058 -0.365737944841384888 -0.0955014526844024658
0.391653627157211304 -0.356008440256118774 -0.216867059469223022
0.520058333873748779 -0.335477173328399658 -0.32230830192565918
0.523260653018951416 -0.333661258220672607 -0.323748975992202759
0.244604498147964478 0.023962315171957016 0.324364185333251953
0.212875962257385254 -0.338762968778610229 0.319016724824905396
0.23738376796245575 0.105914123356342316 0.315437167882919312
0.522017717361450195 -0.337385684251785278 -0.325398385524749756
0.318582504987716675 -0.38014182448387146 -0.150851830840110779
0.584515988826751709 -0.318334907293319702 -0.333960384130477905
-0.380637139081954956 -0.0935472771525382996 -0.0174293853342533112
0.458617329597473145 -0.325787127017974854 0.125399455428123474
0.389181852340698242 0.0533482879400253296 0.131978631019592285
-0.17350420355796814 0.30737072229385376 0.106289811432361603
-0.461850881576538086 -0.0301361531019210815 0.134855344891548157
0.439994484186172485 -0.261720538139343262 0.335533469915390015
