ply
format ascii 1.0
element vertex 737
property float x
property float y
property float z
end_header
-0.554315686225891113 0.259446889162063599 -0.0210230071097612381
0.46167069673538208 -0.304815620183944702 0.109073206782341003
-0.452238231897354126 0.112447217106819153 -0.225096747279167175
0.486492693424224854 -0.314355134963989258 -0.303526610136032104
-0.559741735458374023 0.317524522542953491 0.354479432106018066
0.179589539766311646 -0.104390718042850494 -0.0162157099694013596
0.306564062833786011 0.0180653538554906845 -0.111697249114513397
0.506624460220336914 -0.338083386421203613 0.0249896273016929626
0.405085563659667969 0.0226364433765411377 0.00823320914059877396
0.475420445203781128 -0.288385659456253052 -0.300001144409179688
0.0107137309387326241 0.153971254825592041 0.0573929771780967712
0.523416697978973389 -0.300622433423995972 -0.0978550687432289124
-0.381087601184844971 0.333836406469345093 0.204840421676635742
-0.551286280155181885 0.337358951568603516 0.124526888132095337
0.41885414719581604 -0.252843588590621948 0.0980675444006919861
-0.580384135246276855 0.208144918084144592 -0.215013906359672546
0.278787970542907715 -0.085313946008682251 0.190557241439819336
-0.129754155874252319 0.224349349737167358 0.12644997239112854
-0.382424920797348022 0.103743501007556915 -0.0633935481309890747
0.551806986331939697 -0.220289409160614014 0.114371821284294128
0.383986085653305054 -0.242673322558403015 0.313958823680877686
-0.552963078022003174 0.16292862594127655 0.0797082185745239258
-0.134432762861251831 0.20125715434551239 0.168354824185371399
0.242640361189842224 0.109884969890117645 -0.0489943213760852814
0.116778098046779633 0.0396207980811595917 0.328175932168960571
-0.559396684169769287 0.277889102697372437 0.00241414317861199379
0.320209383964538574 -0.13294684886932373 -0.0797409266233444214
-0.575231492519378662 0.200167328119277954 -0.225962221622467041
0.208224713802337646 0.117894016206264496 0.0451979972422122955
0.464087218046188354 -0.308468371629714966 0.134849876165390015
-0.58556818962097168 0.319633215665817261 -0.0248812530189752579
0.530776560306549072 -0.253628998994827271 0.0983196645975112915
-0.309905469417572021 0.0822443738579750061 -0.072335369884967804
-0.449698716402053833 0.00815313681960105896 -0.140223369002342224
-0.301279395818710327 0.290591001510620117 0.146305233240127563
-0.526643574237823486 0.181429192423820496 -0.21527881920337677
-0.391763120889663696 -0.0589910894632339478 0.10072682797908783
-0.545546352863311768 0.262655079364776611 -0.164719954133033752
0.314024001359939575 -0.33437955379486084 0.197830766439437866
-0.0596670433878898621 0.0937604755163192749 0.321197271347045898
-0.101571500301361084 0.143573150038719177 0.0934988707304000854
0.50008779764175415 -0.363043904304504395 0.0764541551470756531
0.349221110343933105 -0.283085674047470093 -0.134957686066627502
-0.412482470273971558 0.197893738746643066 0.0363489165902137756
-0.345270544290542603 0.251540392637252808 -0.0134814660996198654
-0.267517447471618652 0.0786849632859230042 -0.0146809406578540802
-0.180734217166900635 0.0183511190116405487 0.0395781658589839935
-0.553526639938354492 0.212472200393676758 -0.0474158860743045807
0.408023834228515625 -0.40107300877571106 -0.215575993061065674
0.517919719219207764 -0.285343855619430542 -0.100160233676433563
0.395514816045761108 -0.264610320329666138 -0.193618372082710266
0.498084872961044312 -0.274418145418167114 -0.30065503716468811
0.43485260009765625 -0.257428288459777832 -0.00174571876414120197
-0.154371306300163269 -0.244532912969589233 0.148862734436988831
-0.630244255065917969 0.194245487451553345 -0.0477168187499046326
-0.355051219463348389 7.52836494939401746e-05 -0.151188164949417114
-0.501221716403961182 0.146084114909172058 0.346180588006973267
-0.3317146897315979 0.299621015787124634 0.191039904952049255
-0.334665805101394653 -0.0319465622305870056 -0.132333189249038696
0.113432653248310089 0.0953255593776702881 0.0293113570660352707
0.470455378293991089 -0.135034188628196716 0.0995965301990509033
0.399337202310562134 -0.305123060941696167 0.145308777689933777
-0.457334339618682861 0.167413830757141113 0.116773881018161774
-0.536424160003662109 0.287192314863204956 0.0421063825488090515
-0.276296079158782959 -0.128025531768798828 0.0819039046764373779
-0.483146637678146362 0.248967275023460388 -0.102920413017272949
0.171440392732620239 -0.272311002016067505 0.0366843752562999725
-0.344707340002059937 0.103219054639339447 0.00654052942991256714
-0.366060435771942139 0.282821357250213623 0.0870239287614822388
0.386845380067825317 -0.230134189128875732 -0.121623523533344269
-0.353131860494613647 0.00214426033198833466 0.0352775715291500092
-0.518143653869628906 0.201824486255645752 0.0491728410124778748
-0.385019183158874512 0.182636544108390808 0.0921728089451789856
-0.571908831596374512 0.328066170215606689 -0.0115970289334654808
-0.339120805263519287 -0.0881270468235015869 -0.0539509691298007965
-0.136836707592010498 -0.269435971975326538 0.130390956997871399
0.275393426418304443 -0.165978208184242249 0.0551303848624229431
0.313435912132263184 -0.302797019481658936 -0.128240182995796204
-0.38132360577583313 0.250164210796356201 0.233426868915557861
0.311101347208023071 -0.217270940542221069 0.2013663649559021
0.496655493974685669 -0.255071818828582764 -0.105275236070156097
-0.118867099285125732 0.0723874494433403015 0.173656195402145386
0.512833774089813232 -0.362134844064712524 -0.0305316541343927383
-0.509261667728424072 0.268894046545028687 -0.00488250982016324997
-0.595283269882202148 0.243782579898834229 -0.00264241034165024757
-0.586410343647003174 0.250883817672729492 0.194327250123023987
-0.547867536544799805 0.121053323149681091 -0.134089797735214233
-0.244962424039840698 0.18260684609413147 0.357001036405563354
0.462691843509674072 -0.264349639415740967 -0.290210336446762085
0.456447362899780273 -0.256088078022003174 -0.186733990907669067
0.519766628742218018 -0.302980512380599976 0.0447186566889286041
-0.625767707824707031 0.200083747506141663 0.0449919216334819794
-0.255814850330352783 -0.00496971234679222107 -0.0621058903634548187
0.245890408754348755 0.0989870429039001465 -0.0688368082046508789
0.505356311798095703 -0.160041466355323792 0.131071999669075012
0.343592822551727295 -0.0700764954090118408 0.162234708666801453
0.400263220071792603 -0.237241297960281372 0.1305399090051651
-0.35968935489654541 -0.119195021688938141 0.11655532568693161
-0.479127019643783569 0.189410105347633362 0.0640455558896064758
-0.574796140193939209 0.341905117034912109 0.0253848116844892502
-0.359062284231185913 -0.0637018010020256042 0.0909322723746299744
-0.342839270830154419 0.0113067971542477608 -0.114325404167175293
0.303402125835418701 -0.296068876981735229 0.162266522645950317
-0.504747450351715088 0.220784455537796021 0.141981378197669983
-0.485287010669708252 0.0281179901212453842 -0.0467903055250644684
0.0334869176149368286 0.0878003686666488647 0.0879210159182548523
-0.231499791145324707 0.347121775150299072 0.148917749524116516
0.0321744270622730255 0.0103042786940932274 0.0421522855758666992
-0.365794330835342407 -0.03709421306848526 -0.0326600633561611176
-0.0479912795126438141 -0.234550029039382935 0.301839292049407959
0.186213120818138123 -0.293181687593460083 0.00383301544934511185
0.235125377774238586 -0.011699507012963295 0.230395346879959106
-0.526568353176116943 0.140441864728927612 0.0681184455752372742
-0.520419716835021973 0.201232105493545532 -0.0672386884689331055
-0.552366495132446289 0.285599201917648315 0.107625998556613922
0.144147023558616638 0.00764229288324713707 0.307900279760360718
0.0681376457214355469 -0.286579549312591553 -0.0813710242509841919
-0.362085431814193726 0.0349544696509838104 -0.161064237356185913
0.307732552289962769 -0.293916255235671997 0.0297236572951078415
-0.339324444532394409 0.213245555758476257 0.159312635660171509
-0.188130781054496765 0.199927866458892822 0.36787724494934082
-0.540202498435974121 0.254725068807601929 -0.0839519798755645752
0.522937953472137451 -0.199838951230049133 -0.092477552592754364
-0.519156992435455322 0.185138091444969177 0.136592909693717957
-0.54379957914352417 0.269849687814712524 -0.00227626459673047066
0.471459925174713135 -0.326523959636688232 0.0448016375303268433
0.289334028959274292 0.0309134814888238907 0.0539080649614334106
0.433509230613708496 -0.306351333856582642 -0.284900546073913574
-0.51875835657119751 0.0897687822580337524 -0.134937509894371033
-0.600734055042266846 0.285201698541641235 0.184080719947814941
0.46800658106803894 -0.321445167064666748 0.12758617103099823
0.467853516340255737 -0.260857582092285156 -0.29347461462020874
-0.404138952493667603 0.300406664609909058 0.142959818243980408
-0.454395920038223267 0.119210630655288696 -0.223763033747673035
0.481759876012802124 -0.31216055154800415 -0.302290588617324829
0.468526870012283325 -0.331007480621337891 -0.00280185230076313019
0.45750012993812561 -0.305597066879272461 -0.292228847742080688
0.524558603763580322 -0.262227565050125122 -0.101851552724838257
-0.408904105424880981 0.318522453308105469 0.162821978330612183
-0.560981690883636475 0.267456561326980591 0.365355700254440308
-0.57632368803024292 0.210403203964233398 -0.200602144002914429
0.447670578956604004 -0.296897023916244507 -0.222854137420654297
0.310842514038085938 -0.0764142796397209167 0.148984670639038086
0.535023987293243408 -0.248534336686134338 0.101366184651851654
-0.562760412693023682 0.119558177888393402 -0.233072474598884583
-0.408337205648422241 0.0763906091451644897 -0.116411507129669189
-0.579874157905578613 0.356291204690933228 0.0827706679701805115
0.041626807302236557 0.114340111613273621 0.312391161918640137
-0.456803768873214722 0.00856515392661094666 0.181725010275840759
0.409793764352798462 -0.344246029853820801 0.160105511546134949
-0.554909765720367432 0.288376688957214355 -0.0490608103573322296
0.543527126312255859 -0.256195425987243652 0.113803528249263763
0.024159848690032959 -0.250193655490875244 0.205116376280784607
0.195914596319198608 0.129945933818817139 0.0349764786660671234
0.315768182277679443 -0.370866686105728149 -0.156850337982177734
0.110898755490779877 0.0593724921345710754 0.319112390279769897
-0.31502145528793335 0.306333094835281372 0.284260988235473633
-0.254563391208648682 -0.1331452876329422 -0.0730941072106361389
-0.386650025844573975 -0.0605748109519481659 0.10650373250246048
0.453515738248825073 -0.0728856474161148071 -0.116278298199176788
0.316199451684951782 -0.333410948514938354 0.195962443947792053
0.298185080289840698 0.0380650050938129425 0.0502140522003173828
0.47625356912612915 -0.331266105175018311 0.136559918522834778
0.440053761005401611 -0.267774909734725952 -0.282089203596115112
0.461817562580108643 -0.273330390453338623 0.138118311762809753
0.504401743412017822 -0.346691727638244629 0.017612086609005928
0.519294023513793945 -0.269822210073471069 -0.0869824066758155823
0.499123662710189819 -0.0882299020886421204 0.161957979202270508
0.542686223983764648 -0.215483188629150391 0.110989421606063843
-0.577291548252105713 0.326790541410446167 0.0805761516094207764
0.247037798166275024 0.111239485442638397 -0.0542853660881519318
0.0338086970150470734 0.0681728869676589966 0.272571265697479248
-0.562260210514068604 0.275133699178695679 0.0241022258996963501
-0.614175856113433838 0.271917223930358887 0.0386964231729507446
0.536041319370269775 -0.239475160837173462 0.103021934628486633
-0.576268911361694336 0.212558045983314514 -0.116539537906646729
-0.425245195627212524 0.0303538627922534943 -0.188406959176063538
0.30482858419418335 -0.126639038324356079 -0.10819544643163681
-0.385265052318572998 -0.0560866184532642365 0.100745275616645813
-0.603479325771331787 0.259444057941436768 0.0175997857004404068
-0.460900068283081055 0.306194871664047241 0.0813568606972694397
0.505238354206085205 -0.264188975095748901 -0.109096281230449677
0.535028040409088135 -0.192563578486442566 0.028832634910941124
-0.616413533687591553 0.21033303439617157 -0.0559603422880172729
0.453012138605117798 -0.123766712844371796 0.0895071253180503845
0.033763006329536438 -0.279932260513305664 -0.0357522256672382355
0.402369290590286255 -0.319079428911209106 0.131071567535400391
-0.0937873944640159607 0.0737868398427963257 0.293248116970062256
0.243568137288093567 -0.137006327509880066 0.0112277697771787643
0.161639004945755005 -0.271868348121643066 0.043981499969959259
-0.590817928314208984 0.369089096784591675 0.0903712064027786255
0.0272445175796747208 -0.01194728072732687 0.0280164033174514771
0.196158528327941895 0.0338808409869670868 0.178253039717674255
-0.306251555681228638 -0.0917772054672241211 0.30553281307220459
0.494079560041427612 -0.367121845483779907 0.0199959799647331238
0.521994531154632568 -0.311657726764678955 0.0462049394845962524
0.503069937229156494 -0.153663367033004761 0.11912468820810318
0.0810331031680107117 -0.272437632083892822 -0.05945635586977005
-0.325541675090789795 -0.103634662926197052 0.0884977281093597412
-0.586426675319671631 0.334734469652175903 0.0187499187886714935
-0.0737882032990455627 -0.236114904284477234 0.301706582307815552
0.194609567523002625 -0.34024086594581604 -0.0622273460030555725
-0.399067848920822144 0.271920114755630493 -0.0544534027576446533
-0.521942496299743652 0.0438345707952976227 -0.0575894005596637726
-0.257883310317993164 0.142009451985359192 0.0914106741547584534
-0.21359601616859436 -0.136169344186782837 -0.063178330659866333
0.508958041667938232 -0.104807063937187195 0.144445642828941345
0.214439377188682556 -0.27996528148651123 -0.0091726323589682579
0.238513514399528503 -0.0762324556708335876 0.126991882920265198
-0.140394389629364014 0.296449095010757446 0.147940546274185181
-0.65619194507598877 0.171295195817947388 -0.11229444295167923
0.253725022077560425 -0.00956247560679912567 0.250062286853790283
0.250586122274398804 -0.179026752710342407 0.302809953689575195
-0.263145387172698975 -0.137440457940101624 -0.0675751343369483948
-0.200839057564735413 0.314270347356796265 0.0990904420614242554
0.258086949586868286 -0.278272509574890137 0.323137462139129639
0.17914310097694397 -0.0542456507682800293 -0.0508738532662391663
-0.443452596664428711 -0.067038416862487793 0.129171952605247498
-0.503970026969909668 0.0297677014023065567 0.247240304946899414
-0.497220665216445923 0.0362005457282066345 -0.0115451253950595856
0.233027234673500061 0.0227391533553600311 0.314154535531997681
-0.371520310640335083 -0.0461219437420368195 0.143454298377037048
-0.349050998687744141 0.106302075088024139 0.0661006569862365723
0.307951211929321289 -0.198985949158668518 0.243036642670631409
0.308811575174331665 -0.00559699768200516701 0.219694614410400391
-0.442979156970977783 0.266436755657196045 -0.0370951034128665924
0.517442703247070312 -0.326784104108810425 -0.0811293721199035645
-0.538965404033660889 0.138228446245193481 -0.0970075502991676331
0.466163039207458496 -0.124550133943557739 0.00215150043368339539
-0.385507047176361084 0.255180239677429199 0.0329205505549907684
0.494308412075042725 -0.30213165283203125 0.121283113956451416
0.465725362300872803 -0.106285311281681061 0.0597462840378284454
0.204071134328842163 0.0150790484622120857 -0.0420833714306354523
-0.224617749452590942 0.295635491609573364 0.158813968300819397
-0.125078439712524414 -0.049284081906080246 0.0109997708350419998
-0.231779500842094421 0.228249207139015198 0.348261982202529907
-0.38091355562210083 -0.0546881742775440216 0.145567476749420166
0.34161105751991272 -0.0738729909062385559 0.047846134752035141
-0.436088919639587402 -0.0125781279057264328 0.0341796837747097015
0.205755755305290222 0.0165148507803678513 0.0705414116382598877
0.0564544089138507843 -0.086205407977104187 0.239382714033126831
-0.384001076221466064 -0.0598840415477752686 0.116681307554244995
-0.136726617813110352 -0.265281438827514648 -0.00109639216680079699
-0.243798434734344482 0.0633086115121841431 0.244922041893005371
-0.542274355888366699 0.210669100284576416 0.162882298231124878
-0.59090578556060791 0.287036031484603882 -0.00707674678415060043
0.307375729084014893 0.01756257563829422 0.0430425107479095459
0.478754103183746338 -0.314983069896697998 -0.305168658494949341
0.504094839096069336 -0.345749139785766602 -0.0635382607579231262
0.472049593925476074 -0.305351197719573975 0.115298137068748474
0.527453243732452393 -0.303095906972885132 -0.109124071896076202
-0.403017729520797729 0.311354994773864746 0.134865999221801758
0.518200159072875977 -0.251457512378692627 -0.307155311107635498
0.507861912250518799 -0.329263478517532349 -0.314527988433837891
0.519216001033782959 -0.331567734479904175 0.0918464288115501404
0.477642565965652466 -0.304451555013656616 -0.302805602550506592
0.527915298938751221 -0.285830527544021606 -0.107739701867103577
-0.560097575187683105 0.267071962356567383 0.365741848945617676
-0.640294015407562256 0.289446115493774414 0.0853584706783294678
0.371694415807723999 -0.401407390832901001 -0.217286586761474609
-0.44987836480140686 -0.00135755760129541159 0.175213098526000977
0.176797017455101013 0.0728653743863105774 0.00680913450196385384
-0.453690946102142334 0.134448245167732239 -0.21346379816532135
0.403516858816146851 -0.33609125018119812 0.12921297550201416
-0.599042057991027832 0.207201108336448669 0.0010098691564053297
0.247904807329177856 -0.114701315760612488 -0.0706161409616470337
-0.483301460742950439 0.182527124881744385 -0.209856480360031128
-0.376169741153717041 -0.0634371265769004822 0.091818101704120636
0.523312568664550781 -0.32115936279296875 0.0361382551491260529
0.542827963829040527 -0.217550367116928101 0.10851626843214035
0.526137709617614746 -0.273709535598754883 0.0555746927857398987
0.111502893269062042 0.0839425995945930481 0.317409336566925049
-0.350928515195846558 -0.0482356473803520203 0.0451309792697429657
0.105415873229503632 0.07207518070936203 0.295645773410797119
-0.165219306945800781 0.132832109928131104 0.151480898261070251
0.503144025802612305 -0.256660103797912598 -0.102213293313980103
0.429352462291717529 -0.304063856601715088 0.136190876364707947
-0.355734497308731079 -0.101777374744415283 0.159157872200012207
0.499010026454925537 -0.201773062348365784 -0.107675038278102875
-0.578574120998382568 0.347953885793685913 0.152319952845573425
0.105356588959693909 -0.0116915516555309296 0.0213316399604082108
-0.341217190027236938 -0.123735755681991577 0.104711785912513733
-0.120576441287994385 -0.276020973920822144 0.174177557229995728
-0.161070585250854492 0.167116150259971619 0.325300037860870361
0.515412390232086182 -0.358804881572723389 0.0270705558359622955
0.521458446979522705 -0.287763893604278564 -0.0114098601043224335
0.47933468222618103 -0.140086337924003601 0.107897661626338959
-0.180782556533813477 0.0290449801832437515 0.0260553620755672455
-0.341933608055114746 -0.121956191956996918 0.10385509580373764
-0.600280523300170898 0.376675546169281006 0.188574045896530151
-0.119568899273872375 -0.267117440700531006 0.218428328633308411
0.523841619491577148 -0.309015840291976929 -0.0745172426104545593
0.516645371913909912 -0.252271980047225952 -0.309279084205627441
0.455299913883209229 -0.308406978845596313 -0.294218659400939941
0.241020292043685913 -0.0961274132132530212 0.158853515982627869
-0.620264112949371338 0.272105753421783447 0.0373875685036182404
-0.429949194192886353 -0.00410021422430872917 0.17745169997215271
-0.250343799591064453 -0.137210637331008911 -0.0709574371576309204
0.317733019590377808 -0.31920740008354187 0.122785665094852448
0.539752423763275146 -0.249883502721786499 0.106900297105312347
0.453161895275115967 -0.13989412784576416 0.0156995709985494614
0.429785847663879395 -0.321220219135284424 0.123979084193706512
0.41364327073097229 -0.331003665924072266 -0.209543228149414062
0.474276959896087646 -0.12865784764289856 0.10978236049413681
-0.549038052558898926 0.378469884395599365 0.172789409756660461
0.1908770352602005 -0.340090066194534302 -0.0131137184798717499
-0.201602533459663391 -0.135724291205406189 -0.0683015584945678711
-0.18546217679977417 0.31198883056640625 0.118079349398612976
0.103680096566677094 0.107639618217945099 0.174647286534309387
-0.444304347038269043 -0.0546019934117794037 0.0919931009411811829
-0.489370137453079224 0.0298280138522386551 0.017031325027346611
0.231797978281974792 0.0109365098178386688 0.315230667591094971
-0.0244821924716234207 0.1130400151014328 0.312615483999252319
0.243675589561462402 -0.0387283563613891602 0.204879119992256165
-0.384852409362792969 0.245191141963005066 0.0345097258687019348
-0.654079258441925049 0.21659734845161438 -0.0389993637800216675
0.483447730541229248 -0.116321787238121033 0.0237243752926588058
0.122547969222068787 0.0794295892119407654 0.138769924640655518
-0.38187369704246521 -0.0728772655129432678 0.0957640483975410461
0.320143789052963257 -0.0724405273795127869 0.0626679956912994385
-0.44063529372215271 -0.0119061572477221489 0.00703270593658089638
-0.502208590507507324 0.233554348349571228 -0.070860251784324646
-0.547264933586120605 0.203301146626472473 -0.0682630017399787903
0.0889290943741798401 0.0916110724210739136 0.0802471786737442017
-0.519895315170288086 0.204401344060897827 -0.0469241812825202942
-0.168106317520141602 0.0722135528922080994 0.232647433876991272
-0.0571153424680233002 -0.187120884656906128 0.0269758068025112152
-0.212423712015151978 0.290675431489944458 0.109329923987388611
0.250067740678787231 -0.00547795277088880539 0.0226084664463996887
-0.555804193019866943 0.204200580716133118 0.118547827005386353
-0.457334786653518677 0.216280713677406311 0.0247552599757909775
-0.462645202875137329 0.266349494457244873 -0.0024870771449059248
-0.575462579727172852 0.247471734881401062 -0.0761764571070671082
-0.389369040727615356 0.275017768144607544 -0.0838753581047058105
0.344222724437713623 -0.134771019220352173 0.319060474634170532
-0.498615950345993042 0.206679850816726685 -0.0113784847781062126
-0.345984727144241333 0.292730212211608887 -0.0498945154249668121
0.526414155960083008 -0.36123126745223999 0.0419727489352226257
-0.539977788925170898 0.214962184429168701 0.201243430376052856
-0.569338440895080566 0.294268101453781128 -0.00288008525967597961
0.317054808139801025 0.0236928593367338181 0.0490287318825721741
0.482376039028167725 -0.307126075029373169 -0.303475260734558105
0.480149626731872559 -0.326476842164993286 0.125574424862861633
0.523604094982147217 -0.307150453329086304 -0.0985110700130462646
0.490726560354232788 -0.31089329719543457 -0.307237118482589722
0.516665816307067871 -0.325196802616119385 0.120038777589797974
0.444908082485198975 -0.300326347351074219 -0.290456503629684448
0.523621916770935059 -0.3047008216381073 -0.0971736833453178406
0.134601995348930359 0.116280093789100647 0.337264955043792725
-0.642426013946533203 0.24246467649936676 -0.00919301901012659073
-0.292566031217575073 -0.114183589816093445 -0.105526134371757507
0.539688169956207275 -0.255624115467071533 0.0923986360430717468
0.129461243748664856 0.0974815785884857178 0.3175373375415802
-0.235136181116104126 -0.14385281503200531 -0.071191444993019104
0.252851516008377075 0.0300019308924674988 -0.0856767818331718445
0.531390607357025146 -0.323302626609802246 0.00702610518783330917
-0.599403858184814453 0.307220429182052612 0.104713082313537598
0.532544493675231934 -0.244793623685836792 0.0867521762847900391
-0.374055027961730957 -0.0611322186887264252 0.0924781560897827148
0.526967406272888184 -0.275452375411987305 -0.123051494359970093
-0.501214802265167236 0.148518607020378113 0.353188633918762207
0.385610848665237427 -0.297815263271331787 0.13203275203704834
0.133032917976379395 -0.332279026508331299 -0.100278347730636597
0.52318042516708374 -0.355035215616226196 -0.0147396372631192207
-0.436501413583755493 0.150325611233711243 -0.084778711199760437
0.516208291053771973 -0.300265729427337646 0.0649050697684288025
0.393466442823410034 -0.368056833744049072 -0.213497191667556763
0.500989019870758057 -0.17157350480556488 0.130254566669464111
0.533662915229797363 -0.334175348281860352 0.028583969920873642
-0.579983830451965332 0.348746508359909058 0.040542900562286377
0.520327925682067871 -0.241025999188423157 -0.308520913124084473
-0.60108649730682373 0.370523214340209961 0.104889892041683197
-0.500716090202331543 0.146889343857765198 0.355392754077911377
0.234351322054862976 -0.278064846992492676 0.317526936531066895
-0.181233569979667664 -0.137344956398010254 -0.0554618947207927704
-0.228293538093566895 -0.138308852910995483 -0.0533582679927349091
-0.204224437475204468 0.298279821872711182 0.12691013514995575
0.262919872999191284 -0.289866000413894653 0.323824316263198853
-0.362279206514358521 -0.0308177005499601364 0.11969543993473053
-0.500146985054016113 0.0191658511757850647 0.032063014805316925
0.243285506963729858 1.48524677570094354e-05 0.322472035884857178
0.14167235791683197 -0.290681362152099609 0.311847686767578125
0.308526545763015747 -0.207703515887260437 0.248372882604598999
-0.386165410280227661 0.254719913005828857 0.0345648303627967834
0.531560361385345459 -0.262416988611221313 0.103124886751174927
0.224493131041526794 0.0226588211953639984 0.30563044548034668
0.530947983264923096 -0.147450715303421021 -0.308031380176544189
-0.644935250282287598 0.231248334050178528 -0.0472287610173225403
0.541685760021209717 -0.311092913150787354 -0.0442535467445850372
0.508162260055541992 -0.267857551574707031 -0.311305046081542969
0.514645159244537354 -0.316220581531524658 -0.29490235447883606
0.459202557802200317 -0.290999501943588257 -0.296388447284698486
-0.543183386325836182 0.268068522214889526 -0.189067244529724121
-0.621504664421081543 0.288859784603118896 0.0668975710868835449
0.36383509635925293 -0.384399622678756714 -0.205914780497550964
-0.0923285633325576782 0.267165839672088623 0.189519673585891724
-0.448504060506820679 0.131160333752632141 -0.208570152521133423
-0.575516581535339355 0.203668281435966492 -0.126826629042625427
-0.630138814449310303 0.191583797335624695 -0.039664391428232193
-0.469814568758010864 0.13881722092628479 -0.230871036648750305
0.258079618215560913 -0.017103981226682663 -0.0718802139163017273
0.230936035513877869 0.0538566112518310547 -0.0449475944042205811
0.11340600997209549 0.109682761132717133 0.301801234483718872
-0.584179699420928955 0.218313291668891907 -0.221181303262710571
-0.598288118839263916 0.235123902559280396 -0.0105408225208520889
-0.367012619972229004 -0.092015385627746582 0.122938528656959534
-0.329983532428741455 -0.125654950737953186 0.137379691004753113
-0.634669363498687744 0.199505999684333801 -0.0380793511867523193
-0.425710469484329224 -0.0551725886762142181 0.0993534103035926819
-0.478123962879180908 0.0199300609529018402 -0.0363779626786708832
0.209070518612861633 0.00851879362016916275 0.301004171371459961
-0.634256720542907715 0.247994393110275269 -0.00576531793922185898
-0.127926453948020935 0.26982581615447998 0.132408380508422852
0.271477162837982178 -0.330468028783798218 0.18025323748588562
0.533450067043304443 -0.210189074277877808 -0.0986699014902114868
-0.126342743635177612 -0.112882122397422791 -0.0546730272471904755
0.454497843980789185 -0.338979363441467285 -0.297913908958435059
-0.212557822465896606 0.0360769703984260559 -0.0595257282257080078
-0.553268134593963623 0.17564740777015686 0.0130016626790165901
-0.198467284440994263 0.139526799321174622 0.0213038790971040726
-0.0123437028378248215 -0.102698348462581635 -0.0428168214857578278
0.265157252550125122 -0.275063693523406982 0.202601492404937744
0.349100083112716675 -0.321229726076126099 0.000139048323035240173
-0.155848488211631775 0.0696665495634078979 0.027681443840265274
-0.249185860157012939 0.130683034658432007 -0.0342704989016056061
0.199533224105834961 0.00164659821894019842 0.0192598272114992142
0.0766645371913909912 0.080837249755859375 0.0241180416196584702
-0.283483982086181641 0.288247615098953247 -0.005732707679271698
0.477278560400009155 -0.289883017539978027 -0.301550120115280151
-0.556974470615386963 0.265688776969909668 -0.0170227810740470886
-0.237363383173942566 0.0975137203931808472 -0.0322927311062812805
0.138184428215026855 -0.281057119369506836 0.150188431143760681
0.296792596578598022 -0.297520816326141357 0.0570847876369953156
-0.286065369844436646 0.257208645343780518 0.000737109861802309752
-0.0208490826189517975 -0.040495801717042923 0.0891207531094551086
0.204917386174201965 0.0427590608596801758 0.0658848583698272705
-0.143614247441291809 -0.0853898748755455017 0.0918192192912101746
0.372971713542938232 -0.0733761414885520935 0.031752467155456543
0.521754562854766846 -0.199124187231063843 -0.0983594357967376709
0.487416386604309082 -0.297882795333862305 -0.305208712816238403
0.480874508619308472 -0.314933478832244873 0.122471630573272705
0.513981401920318604 -0.307262957096099854 -0.102259375154972076
0.496333777904510498 -0.309514790773391724 -0.30957871675491333
0.506569743156433105 -0.327914297580718994 -0.00397367775440216064
0.512167692184448242 -0.324633091688156128 0.1185026615858078
0.466210424900054932 -0.288786172866821289 -0.296403437852859497
0.438344866037368774 -0.263485461473464966 -0.194132894277572632
0.135410085320472717 0.116928070783615112 0.337181031703948975
0.396970301866531372 -0.244409799575805664 0.318907558917999268
-0.601753652095794678 0.35428541898727417 0.0657796040177345276
-0.50536036491394043 0.357153207063674927 0.178505212068557739
0.54306340217590332 -0.282587677240371704 0.0980656072497367859
0.256800621747970581 0.0369670316576957703 -0.0718766748905181885
-0.233182966709136963 0.155894413590431213 -0.0051234513521194458
0.506559908390045166 -0.332083076238632202 -0.00239658309146761894
0.44514051079750061 -0.250062137842178345 -0.227853342890739441
-0.639264881610870361 0.254474908113479614 0.0547831729054450989
0.533037722110748291 -0.262751340866088867 0.093384474515914917
-0.393241554498672485 -0.0595042333006858826 0.100536659359931946
0.524286806583404541 -0.289721399545669556 -0.0919553190469741821
0.0281927436590194702 -0.274416506290435791 -0.0352156274020671844
0.385576963424682617 -0.306153357028961182 0.118958562612533569
-0.582444071769714355 0.366822868585586548 0.131941407918930054
0.240601480007171631 0.00295302271842956543 0.181280091404914856
-0.112995781004428864 0.165437981486320496 0.347634851932525635
0.482575744390487671 -0.368464618921279907 -0.0219171550124883652
0.412569195032119751 -0.321243882179260254 -0.210878342390060425
0.507713913917541504 -0.155527830123901367 0.124171249568462372
0.529211640357971191 -0.334808528423309326 0.0129570020362734795
-0.584381937980651855 0.336424410343170166 0.0343658812344074249
-0.591018617153167725 0.381927490234375 0.131504297256469727
0.526619374752044678 -0.244384914636611938 -0.310497194528579712
0.474749773740768433 -0.290805578231811523 -0.299301445484161377
-0.59748530387878418 0.353694021701812744 0.169885382056236267
-0.587613224983215332 0.371468663215637207 0.101356767117977142
-0.212101280689239502 -0.129811406135559082 -0.0575817562639713287
0.234680235385894775 -0.293164104223251343 0.315094530582427979
0.238398447632789612 0.0671829357743263245 0.320229589939117432
0.542236745357513428 -0.313931554555892944 -0.0579752959311008453
-0.444859176874160767 -0.0486253947019577026 0.12718556821346283
0.359869211912155151 -0.388478547334671021 -0.208861321210861206
-0.5567970871925354 0.211130321025848389 -0.113400138914585114
0.521169543266296387 -0.279614895582199097 -0.176969334483146667
0.242260575294494629 0.0348121598362922668 0.314704149961471558
0.243122667074203491 0.000508283963426947594 0.0238376595079898834
0.381090492010116577 0.0390057750046253204 0.0121012665331363678
0.527092278003692627 -0.230677157640457153 -0.310001760721206665
0.327374041080474854 0.0963804200291633606 -0.0356977246701717377
-0.374385088682174683 -0.0604874901473522186 -0.132762834429740906
0.51333773136138916 -0.167534545063972473 0.136062115430831909
-0.574753820896148682 0.322016656398773193 0.0497246235609054565
-0.559285938739776611 0.283394277095794678 0.364283949136734009
0.224762871861457825 0.0320510752499103546 -0.0580049715936183929
-0.574566304683685303 0.214626714587211609 -0.220818862318992615
-0.0442035682499408722 0.15660470724105835 0.0813654214143753052
0.114335834980010986 0.110146999359130859 0.0256282240152359009
0.343094944953918457 -0.247052446007728577 -0.0967243239283561707
-0.285262197256088257 0.300455719232559204 -0.0026279655285179615
0.153582915663719177 -0.00434211362153291702 -0.00340345036238431931
0.0692635998129844666 0.138917401432991028 0.0758299008011817932
-0.270239919424057007 0.280198872089385986 0.00189318123739212751
0.503713071346282959 -0.292672783136367798 -0.159207761287689209
0.137235984206199646 -0.0257939677685499191 0.0132740968838334084
-0.339180022478103638 -0.0321943163871765137 0.0229224152863025665
0.373786211013793945 -0.0917835459113121033 0.0444615818560123444
0.200259864330291748 0.101391859352588654 -0.00161637598648667336
-0.297400087118148804 -0.0252135060727596283 0.036055147647857666
0.132028475403785706 -0.0177825223654508591 -0.0259281452745199203
0.101643167436122894 0.0160801205784082413 0.0913711860775947571
0.175975695252418518 0.119495593011379242 0.0382213331758975983
-0.230585858225822449 -0.0638590455055236816 0.104754522442817688
0.486401647329330444 -0.296745896339416504 -0.303436696529388428
-0.603447794914245605 0.289481163024902344 0.185318529605865479
0.467597842216491699 -0.308811426162719727 0.120229654014110565
0.378663331270217896 -0.0143304942175745964 0.00657946616411209106
0.514731943607330322 -0.295392543077468872 -0.103350609540939331
0.519161462783813477 -0.239773795008659363 -0.307502299547195435
0.478235095739364624 -0.309817790985107422 -0.300191342830657959
0.483710378408432007 -0.274590283632278442 -0.299815893173217773
0.117455817759037018 0.118815146386623383 0.297749638557434082
-0.58446037769317627 0.356350600719451904 0.0659984201192855835
0.38412061333656311 -0.337453722953796387 0.125646606087684631
-0.574730873107910156 0.317690074443817139 -0.0263475831598043442
-0.604680657386779785 0.217097923159599304 -0.0866971015930175781
0.268075317144393921 0.0393723882734775543 -0.0860690325498580933
-0.356561124324798584 -0.0223679803311824799 -0.131045803427696228
-0.564541041851043701 0.314316034317016602 -0.00770962657406926155
0.19092947244644165 -0.341019481420516968 -0.0746637806296348572
0.404488176107406616 -0.357744067907333374 -0.223934873938560486
-0.500464558601379395 0.145472630858421326 0.354736149311065674
0.510015904903411865 -0.151485666632652283 0.115144297480583191
0.497169941663742065 -0.263991028070449829 -0.304298341274261475
0.458295285701751709 -0.280958861112594604 -0.289650440216064453
0.441256284713745117 -0.265036523342132568 -0.283602535724639893
-0.588276386260986328 0.357455998659133911 0.0619140192866325378
0.505623400211334229 -0.12679135799407959 0.124566860496997833
-0.206329092383384705 0.312450975179672241 0.10890033096075058
0.268512845039367676 -0.284175485372543335 0.319285035133361816
0.232878044247627258 0.0035519585944712162 0.317995756864547729
0.513584136962890625 -0.175687924027442932 -0.28164827823638916
-0.115205645561218262 0.00978092662990093231 0.0060215718112885952
0.404219537973403931 -0.359773427248001099 -0.224558427929878235
0.41800883412361145 -0.313372969627380371 0.143905803561210632
-0.555779099464416504 0.376471281051635742 0.186939418315887451
-0.175717785954475403 0.309126228094100952 0.118579290807247162
-0.389966189861297607 0.275990009307861328 -0.0848761647939682007
0.365651816129684448 0.0519439056515693665 0.0248062405735254288
0.12943384051322937 0.115714631974697113 0.31897851824760437
-0.286624252796173096 -0.100858584046363831 -0.091973528265953064
0.258459597826004028 0.101028814911842346 -0.0618309266865253448
-0.361393153667449951 -0.0600427091121673584 -0.14402654767036438
0.134387627243995667 0.113677345216274261 0.337923675775527954
-0.563332557678222656 0.199274614453315735 -0.228802740573883057
-0.276588320732116699 0.287974625825881958 -0.000732361804693937302
0.455211848020553589 -0.246516644954681396 -0.288189560174942017
0.460558891296386719 -0.275487720966339111 -0.290717333555221558
-0.635099649429321289 0.308121412992477417 0.170535951852798462
0.512869596481323242 -0.31757083535194397 -0.0384444035589694977
0.469261676073074341 -0.265880167484283447 -0.297846764326095581
0.478475093841552734 -0.295107126235961914 -0.300127625465393066
0.458468735218048096 -0.246299415826797485 -0.289761513471603394
0.381457209587097168 -0.361116409301757812 -0.213746324181556702
-0.479597806930541992 -0.0127760246396064758 0.185927912592887878
-0.516732871532440186 0.365731865167617798 0.174210160970687866
-0.618758201599121094 0.201984107494354248 -0.0869604051113128662
-0.237368956208229065 0.0186572577804327011 -0.0724289789795875549
-0.382707595825195312 -0.0592807456851005554 0.0238051749765872955
0.475267082452774048 -0.368463248014450073 0.0219540484249591827
-0.64947885274887085 0.236711993813514709 0.032416265457868576
0.412916243076324463 -0.346837550401687622 -0.221531197428703308
0.52647101879119873 -0.337255656719207764 0.0802059248089790344
0.506356358528137207 -0.239076748490333557 -0.30796167254447937
0.249857813119888306 -0.2823658287525177 0.318338125944137573
0.23955458402633667 0.0666133835911750793 0.314775019884109497
0.539947628974914551 -0.301922082901000977 -0.093534618616104126
-0.448016554117202759 -0.0416238047182559967 0.126619398593902588
-0.0437556542456150055 0.104406096041202545 0.31789591908454895
0.248318418860435486 0.0210521593689918518 0.322331428527832031
-0.284946292638778687 -0.0999887585639953613 -0.0989905223250389099
-0.137744396924972534 -0.0152448462322354317 -0.0486958958208560944
-0.278027087450027466 0.337850660085678101 0.0471602939069271088
-0.254845529794692993 0.289881676435470581 -0.00306654651649296284
-0.219005495309829712 0.321877449750900269 0.0700064823031425476
-0.573458254337310791 0.152177914977073669 -0.0742970108985900879
-0.290111273527145386 0.29267534613609314 0.0162087380886077881
0.526033997535705566 -0.320759117603302002 0.0273196231573820114
0.346500277519226074 -0.0304463822394609451 -0.0342941097915172577
0.5226554274559021 -0.363028138875961304 0.0895399153232574463
-0.0832257941365242004 -0.112029142677783966 0.078561931848526001
-0.404191553592681885 0.325997799634933472 0.121378421783447266
0.505154132843017578 -0.367186754941940308 -0.00434321723878383636
-0.118694677948951721 0.266081303358078003 0.121099360287189484
0.519128799438476562 -0.343061447143554688 0.0359888896346092224
0.130508825182914734 -0.334871053695678711 0.301309466361999512
0.467042088508605957 -0.311155080795288086 0.072610810399055481
0.483270436525344849 -0.374124854803085327 0.0524735376238822937
0.421519637107849121 -0.0259900782257318497 0.0650414004921913147
0.494547098875045776 -0.363646209239959717 -0.0153911365196108818
-0.233062043786048889 0.287124872207641602 0.0842868685722351074
0.531619727611541748 -0.331857651472091675 -0.00708355195820331573
-0.272090107202529907 0.315370351076126099 0.114110209047794342
0.30864107608795166 0.00264375703409314156 0.0464767254889011383
0.467743963003158569 -0.263488084077835083 -0.295917719602584839
0.474245727062225342 -0.304430276155471802 0.114384166896343231
0.511551201343536377 -0.313728868961334229 -0.104248419404029846
0.509504437446594238 -0.245426654815673828 -0.30828171968460083
0.448269248008728027 -0.292595803737640381 -0.292608708143234253
0.466712743043899536 -0.283354490995407104 -0.29712677001953125
0.138623937964439392 0.112797334790229797 0.336864560842514038
-0.652329623699188232 0.285712361335754395 0.0981963872909545898
-0.638513565063476562 0.244801983237266541 -0.0379853583872318268
0.136603042483329773 0.0692604184150695801 0.337978363037109375
-0.577325999736785889 0.303810864686965942 -0.0553398020565509796
0.262852221727371216 0.0305431634187698364 -0.0732814744114875793
0.542383074760437012 -0.216782286763191223 0.11171373724937439
-0.360190987586975098 -0.0360167287290096283 -0.134227335453033447
-0.574973642826080322 0.32750016450881958 -0.029353700578212738
-0.361880719661712646 -0.0712185129523277283 -0.0339008979499340057
-0.130516231060028076 -0.267930448055267334 0.119123615324497223
0.495523214340209961 -0.365943104028701782 -0.000227059485041536391
0.374148100614547729 -0.35951647162437439 -0.209912464022636414
-0.378482073545455933 -0.10722331702709198 0.101369090378284454
-0.0670118629932403564 -0.264321655035018921 0.296509057283401489
0.520184814929962158 -0.243377625942230225 -0.309302300214767456
0.509858548641204834 -0.330667316913604736 0.0154145862907171249
-0.593589186668395996 0.368998736143112183 0.120764166116714478
-0.655552029609680176 0.17562536895275116 -0.102791853249073029
-0.223047569394111633 -0.144461318850517273 -0.0536657311022281647
-0.191311076283454895 0.31663888692855835 0.100858934223651886
0.256965070962905884 -0.283653736114501953 0.319773286581039429
0.239523023366928101 0.032240159809589386 0.319239199161529541
-0.120077759027481079 -0.0462857261300086975 0.00739926053211092949
-0.641775190830230713 0.308645159006118774 0.102053970098495483
0.36503303050994873 -0.374067515134811401 -0.206828311085700989
0.538169264793395996 -0.217806249856948853 0.161994874477386475
-0.552984178066253662 0.382473915815353394 0.158140510320663452
-0.122480787336826324 0.259295165538787842 0.115232549607753754
0.119722418487071991 0.102488093078136444 0.0895839110016822815
-0.37562638521194458 0.265831440687179565 -0.0894172042608261108
0.517290949821472168 -0.349174767732620239 0.0989062786102294922
-0.293602615594863892 -0.107457302510738373 -0.109236545860767365
0.275384098291397095 0.103090211749076843 -0.0574682950973510742
-0.575301408767700195 0.219536423683166504 -0.212412044405937195
-0.11551782488822937 0.268574267625808716 0.179899886250495911
0.236306354403495789 -0.288146317005157471 0.314455270767211914
0.310521095991134644 -0.187425494194030762 0.241138368844985962
0.54214775562286377 -0.325938284397125244 -0.0207811910659074783
0.079153597354888916 -0.337994843721389771 0.282249867916107178
-0.00627712719142436981 -0.172101616859436035 0.00432614795863628387
-0.282387286424636841 0.261715471744537354 0.00717544322833418846
0.513437986373901367 -0.237146541476249695 -0.309296727180480957
-0.647130608558654785 0.278260260820388794 0.0797288939356803894
-0.646486997604370117 0.183139249682426453 -0.0906430408358573914
0.514496922492980957 -0.322624176740646362 0.0244254320859909058
-0.407058745622634888 -0.0639042481780052185 0.113578192889690399
0.517203927040100098 -0.355819284915924072 -0.0204857774078845978
-0.566796183586120605 0.37434685230255127 0.152649253606796265
0.236277267336845398 0.0430568791925907135 0.313788533210754395
-0.664996504783630371 0.227106600999832153 0.0233030524104833603
-0.448225528001785278 -0.0387238264083862305 0.127128615975379944
0.503347694873809814 -0.302356123924255371 -0.17873711884021759
-0.589337468147277832 0.361062705516815186 0.0862744152545928955
-0.194154798984527588 0.314910948276519775 0.104975037276744843
0.247301533818244934 0.0239569209516048431 0.323925435543060303
0.531288087368011475 -0.323899805545806885 -0.0579446852207183838
-0.182891950011253357 0.307007372379302979 0.128582015633583069
0.247547566890716553 0.00702304905280470848 0.32405439019203186
0.0588504113256931305 0.139656201004981995 0.345805525779724121
-0.505890429019927979 0.149276673793792725 0.356939196586608887
0.271027237176895142 -0.311405360698699951 0.326317071914672852
-0.253810614347457886 0.0233935695141553879 -0.0706420913338661194
0.241356939077377319 -0.29545864462852478 0.322557508945465088
0.249337837100028992 0.0438488908112049103 0.31451946496963501
0.468795269727706909 -0.101943500339984894 0.0347674712538719177
-0.124733187258243561 0.195071667432785034 0.115494564175605774
0.240245640277862549 -0.326792687177658081 0.3180064857006073
0.500641942024230957 -0.366723895072937012 0.0747817233204841614
0.523826539516448975 -0.324828058481216431 0.0263430587947368622
0.445001304149627686 -0.253355234861373901 0.332460194826126099
0.321853160858154297 -0.131478562951087952 -0.106526181101799011
0.0635601133108139038 -0.0108412988483905792 0.321737676858901978
0.511688709259033203 -0.361018836498260498 0.0476437956094741821
0.135954573750495911 -0.100794732570648193 0.0406195372343063354
0.0497418902814388275 0.0114888222888112068 0.0298101436346769333
0.0209748521447181702 0.048185352236032486 0.0426739491522312164
0.0883502662181854248 -0.0661836564540863037 0.289675623178482056
-0.162079945206642151 -0.266025066375732422 0.148008421063423157
0.265337347984313965 -0.0201503001153469086 0.0616695210337638855
-0.0288008991628885269 -0.0291700121015310287 0.295581430196762085
0.502509951591491699 -0.240394502878189087 -0.301879763603210449
0.476270616054534912 -0.31505236029624939 -0.301826596260070801
-0.631079912185668945 0.306270480155944824 0.167520135641098022
0.47588193416595459 -0.320952266454696655 0.121145553886890411
0.509463846683502197 -0.300950676202774048 -0.105409696698188782
0.528548836708068848 -0.274982661008834839 -0.317066222429275513
0.493877321481704712 -0.332522273063659668 -0.31058192253112793
0.503925025463104248 -0.320266962051391602 0.0981422886252403259
0.474521517753601074 -0.305883735418319702 -0.297978132963180542
-0.559515595436096191 0.268037021160125732 0.364606320858001709
0.125294849276542664 0.116844490170478821 0.314279377460479736
-0.633722662925720215 0.282228767871856689 0.0544704720377922058
-0.587526977062225342 0.362815350294113159 0.102607361972332001
0.371870994567871094 -0.374217242002487183 -0.21260485053062439
0.438870131969451904 -0.348145067691802979 0.154464662075042725
0.058340609073638916 0.121272116899490356 0.321180820465087891
-0.574749171733856201 0.368814200162887573 0.2156868577003479
0.265113770961761475 0.0246472936123609543 -0.0584870278835296631
0.369204401969909668 -0.336971789598464966 0.160737752914428711
0.510904908180236816 -0.301669716835021973 -0.111858434975147247
0.133925050497055054 -0.320896685123443604 -0.0976979508996009827
0.516983330249786377 -0.348942160606384277 -0.0201422944664955139
0.389665037393569946 -0.346932113170623779 -0.213961124420166016
-0.577177345752716064 0.319079101085662842 0.0409841090440750122
0.536364138126373291 -0.277953684329986572 -0.320471525192260742
0.468230307102203369 -0.311022490262985229 -0.299114823341369629
0.507612824440002441 -0.347285151481628418 0.0180774498730897903
-0.55606764554977417 0.309706419706344604 0.102422066032886505
0.194242626428604126 -0.339635312557220459 -0.0590720139443874359
0.0703757032752037048 -0.282555460929870605 -0.0778326615691184998
0.252837091684341431 -0.25049591064453125 0.320240020751953125
0.240318089723587036 0.0308821350336074829 0.317017316818237305
-0.120939269661903381 -0.048086218535900116 0.00825294572860002518
0.179125383496284485 -0.100329741835594177 -0.0146736185997724533
0.532880008220672607 -0.332463711500167847 -0.0130224386230111122
0.370737612247467041 -0.349664568901062012 -0.208742424845695496
0.535421669483184814 -0.245983913540840149 0.177404642105102539
0.561484932899475098 -0.315918534994125366 -0.330809980630874634
0.554998874664306641 -0.21184559166431427 0.134064033627510071
-0.543447911739349365 0.380771785974502563 0.164675921201705933
0.123221807181835175 0.117148242890834808 0.133251875638961792
-0.582405686378479004 0.351931065320968628 0.0979971662163734436
-0.481716901063919067 0.185850381851196289 -0.0913420617580413818
0.516070961952209473 -0.339357912540435791 0.038981955498456955
0.253843963146209717 -0.279428482055664062 0.322057276964187622
0.27891075611114502 -0.35621035099029541 -0.125934824347496033
0.508274614810943604 -0.286771148443222046 -0.313537895679473877
-0.432203412055969238 -0.0575774833559989929 0.116806097328662872
