ply
format ascii 1.0
element vertex 738
property float x
property float y
property float z
end_header
0.0495921149849891663 0.011554226279258728 0.0296571087092161179
0.0208411067724227905 0.0482575483620166779 0.042520768940448761
0.0882221683859825134 -0.066043563187122345 0.289665371179580688
-0.162052780389785767 -0.265763282775878906 0.148035809397697449
0.265043139457702637 -0.0201682224869728088 0.0615057200193405151
-0.0288477614521980286 -0.0289934482425451279 0.295581161975860596
0.50227123498916626 -0.240482285618782043 -0.302064716815948486
0.476044625043869019 -0.315126657485961914 -0.302003294229507446
-0.630911588668823242 0.306505292654037476 0.167252913117408752
0.47557637095451355 -0.320928066968917847 0.121068142354488373
0.509182989597320557 -0.300988435745239258 -0.105545170605182648
0.528311014175415039 -0.275063127279281616 -0.31723901629447937
0.493651896715164185 -0.332593917846679688 -0.310753285884857178
0.50361180305480957 -0.320252716541290283 0.0980615764856338501
0.474293798208236694 -0.305960863828659058 -0.298156678676605225
-0.559324681758880615 0.268302589654922485 0.364440053701400757
0.125104039907455444 0.116925768554210663 0.314216405153274536
-0.633560061454772949 0.282440900802612305 0.0541473850607872009
-0.587352931499481201 0.363047093152999878 0.102311298251152039
0.371648550033569336 -0.374244987964630127 -0.212772578001022339
0.438580632209777832 -0.348098307847976685 0.154399573802947998
0.0582075566053390503 0.121386416256427765 0.321133077144622803
-0.57456660270690918 0.369070857763290405 0.215456783771514893
0.264831095933914185 0.0245981477200984955 -0.0587015822529792786
0.368933320045471191 -0.336905509233474731 0.160672381520271301
0.510625123977661133 -0.301708728075027466 -0.111994676291942596
0.133790150284767151 -0.32079198956489563 -0.0977942571043968201
0.516687572002410889 -0.348951160907745361 -0.0202522817999124527
0.389437615871429443 -0.346967697143554688 -0.214130118489265442
-0.577009379863739014 0.319295823574066162 0.0406706146895885468
0.536125600337982178 -0.278033167123794556 -0.320642054080963135
0.468004792928695679 -0.311097174882888794 -0.299293428659439087
0.507311761379241943 -0.347285419702529907 0.0179748609662055969
-0.555900752544403076 0.309933513402938843 0.102154627442359924
0.194065436720848083 -0.339543759822845459 -0.05917353555560112
0.0702755749225616455 -0.282424807548522949 -0.0779167860746383667
0.252631127834320068 -0.250359654426574707 0.320239514112472534
0.240056097507476807 0.0309218261390924454 0.316942811012268066
-0.120954275131225586 -0.0479431562125682831 0.00813171733170747757
0.178909435868263245 -0.100288897752761841 -0.0148277087137103081
0.532575905323028564 -0.332475334405899048 -0.0131278783082962036
0.370513170957565308 -0.349693059921264648 -0.208910301327705383
0.535090804100036621 -0.245966330170631409 0.177349671721458435
0.561247706413269043 -0.315989553928375244 -0.330969452857971191
0.554655015468597412 -0.211853966116905212 0.133990302681922913
-0.543275356292724609 0.381022185087203979 0.164441540837287903
0.122996591031551361 0.117183610796928406 0.133118852972984314
-0.5822334885597229 0.352161109447479248 0.0977047532796859741
-0.481552690267562866 0.186042547225952148 -0.0916091203689575195
0.515763640403747559 -0.33935508131980896 0.0388868972659111023
0.253641396760940552 -0.279285132884979248 0.322063863277435303
0.278699636459350586 -0.356176853179931641 -0.126072540879249573
0.508041977882385254 -0.286850869655609131 -0.313713371753692627
-0.432084411382675171 -0.0573482587933540344 0.116714715957641602
0.202108457684516907 0.0904736146330833435 0.223385155200958252
0.244424253702163696 0.104522474110126495 -0.0572684109210968018
-0.195634752511978149 0.201635688543319702 0.349342435598373413
0.25061953067779541 0.0248833652585744858 0.323375940322875977
0.239978760480880737 0.0189737845212221146 0.321069031953811646
-0.0313158668577671051 0.162764579057693481 0.382699280977249146
-0.482450366020202637 -0.015749732032418251 0.180193111300468445
0.483972936868667603 -0.369278073310852051 0.0461307503283023834
-0.643491923809051514 0.28729170560836792 0.0861250236630439758
0.276135832071304321 -0.165994241833686829 -0.0705071985721588135
-0.411750316619873047 -0.0570298843085765839 0.0789266377687454224
-0.642988026142120361 0.175782620906829834 -0.0821010619401931763
-0.225843802094459534 -0.134169101715087891 -0.0522080473601818085
0.255143284797668457 -0.26569482684135437 0.321223735809326172
-0.345277726650238037 0.0171688832342624664 -0.116933912038803101
-0.287040114402770996 -0.0917912498116493225 -0.106507174670696259
-0.585034489631652832 0.209896430373191833 -0.21808934211730957
0.267801016569137573 -0.297159671783447266 0.315303057432174683
-0.0254504792392253876 -0.187514901161193848 -0.0434694178402423859
-0.618041813373565674 0.277076214551925659 0.0313230603933334351
-0.608821094036102295 0.298408806324005127 0.0924110934138298035
-0.397490382194519043 -0.06302604079246521 0.118924535810947418
-0.451638400554656982 -0.0383261851966381073 0.119509257376194
0.431295484304428101 -0.271918684244155884 0.329318732023239136
-0.0523397661745548248 0.140767872333526611 0.0917164012789726257
-0.502985835075378418 0.15117095410823822 0.355456739664077759
0.24101962149143219 -0.319456160068511963 0.322923362255096436
0.497348576784133911 -0.371097594499588013 0.0574539192020893097
0.399494409561157227 -0.257033675909042358 0.322587668895721436
-0.158200293779373169 -0.263735979795455933 0.181681260466575623
-0.499120771884918213 0.0139193776994943619 0.158096656203269958
0.417780190706253052 -0.297551155090332031 0.328868001699447632
0.535499274730682373 -0.340467065572738647 -0.0183579977601766586
0.344503223896026611 -0.267677068710327148 -0.127841740846633911
-0.496432512998580933 0.071920439600944519 0.204000994563102722
0.443836003541946411 -0.272363722324371338 0.333549052476882935
0.522240698337554932 -0.335669428110122681 0.0328890569508075714
0.453569680452346802 -0.320232182741165161 -0.293034553527832031
0.474457204341888428 -0.311940580606460571 0.116805016994476318
0.517418622970581055 -0.278736203908920288 -0.312823861837387085
0.502859890460968018 -0.326276540756225586 -0.314319193363189697
0.518329799175262451 -0.327377915382385254 0.102028645575046539
0.479521632194519043 -0.311761826276779175 -0.302173525094985962
0.114697806537151337 0.118525132536888123 0.289073318243026733
-0.121862702071666718 0.268686473369598389 0.158807739615440369
-0.614790916442871094 0.265543609857559204 0.0520300008356571198
-0.479342818260192871 0.00292210886254906654 0.181373089551925659
0.426919668912887573 -0.355289876461029053 0.158680200576782227
-0.29221653938293457 -0.110874548554420471 -0.105765432119369507
0.130662232637405396 0.0654206573963165283 0.321293115615844727
0.253896176815032959 0.0385261662304401398 -0.0778175368905067444
0.235649213194847107 0.0937438681721687317 -0.053091738373041153
0.417901515960693359 -0.261867105960845947 -0.202340096235275269
0.521897375583648682 -0.354950457811355591 -0.0193766150623559952
-0.608867168426513672 0.381246477365493774 0.181209281086921692
0.517769753932952881 -0.279637038707733154 -0.314746648073196411
0.499337643384933472 -0.350295841693878174 0.0241674091666936874
-0.587837457656860352 0.369423478841781616 0.112999536097049713
0.50616532564163208 -0.104944027960300446 0.147361487150192261
-0.197988852858543396 0.311631232500076294 0.112949669361114502
0.264249563217163086 -0.286743760108947754 0.319891870021820068
0.237083509564399719 0.0620400980114936829 0.310602039098739624
-0.144399538636207581 -0.0436842888593673706 0.00419835746288299561
-0.657744228839874268 0.214708596467971802 -0.0462583750486373901
-0.28850942850112915 -0.0762230083346366882 -0.0686073601245880127
0.227411791682243347 0.0420066267251968384 -0.0481660403311252594
0.551724910736083984 -0.144721195101737976 0.132124856114387512
0.519973337650299072 -0.295644670724868774 0.074991270899772644
0.517789006233215332 -0.284380882978439331 -0.181151345372200012
-0.35800740122795105 -0.0173096749931573868 -0.0279408916831016541
0.0916023626923561096 0.088082432746887207 0.0857881009578704834
0.466870397329330444 -0.362204372882843018 -0.010594978928565979
-0.432897180318832397 0.157676383852958679 -0.066509544849395752
0.524004518985748291 -0.335933417081832886 0.0689987912774085999
0.263109415769577026 -0.286112815141677856 0.318614840507507324
0.00949086342006921768 -0.0912041366100311279 -0.0261256173253059387
0.0326897911727428436 -0.130610749125480652 0.0218806993216276169
-0.630701303482055664 0.265056222677230835 0.0289836060255765915
0.242286309599876404 0.0742155537009239197 0.318869411945343018
0.240364208817481995 0.0294466372579336166 0.318956315517425537
-0.174775108695030212 0.300901263952255249 0.11632654070854187
0.304817736148834229 -0.151465311646461487 0.30788692831993103
0.262144178152084351 -0.290914475917816162 0.321101337671279907
-0.476161003112792969 -0.00834677554666996002 0.166244521737098694
0.242919757962226868 0.0816544294357299805 0.312226682901382446
0.520428657531738281 -0.351587474346160889 0.082037508487701416
-0.0347659140825271606 -0.237838819622993469 0.124158665537834167
-0.638307929039001465 0.290073961019515991 0.0987571701407432556
-0.234160274267196655 -0.13314424455165863 -0.0579941645264625549
-0.379228144884109497 -0.109062992036342621 0.10558028519153595
-0.236368626356124878 -0.14817538857460022 -0.0578379891812801361
-0.657956421375274658 0.214403122663497925 -0.0339631550014019012
0.529064655303955078 -0.352920740842819214 0.0779806226491928101
-0.621148467063903809 0.270322680473327637 0.0524252131581306458
-0.404110193252563477 -0.0645722374320030212 0.112094767391681671
-0.446297407150268555 -0.0417151227593421936 0.122017093002796173
0.268211841583251953 -0.285804420709609985 0.323576003313064575
0.127820149064064026 -0.326815515756607056 0.312695950269699097
0.152479842305183411 -0.343305975198745728 0.317970216274261475
0.447899073362350464 -0.335993856191635132 -0.293006986379623413
0.515926718711853027 -0.303286314010620117 -0.107912838459014893
0.515391647815704346 -0.280608713626861572 -0.312842398881912231
0.485030561685562134 -0.32804560661315918 -0.309802860021591187
0.464511126279830933 -0.346259117126464844 -0.30267760157585144
0.549743354320526123 -0.210554882884025574 -0.31599736213684082
0.524255096912384033 -0.300398319959640503 -0.322492033243179321
0.518122076988220215 -0.301210165023803711 -0.318388164043426514
0.247008904814720154 0.0569280683994293213 0.31646391749382019
0.241487652063369751 0.0874103382229804993 0.312793761491775513
-0.291664958000183105 -0.100874543190002441 -0.101893067359924316
-0.453552544116973877 -0.0522032864391803741 0.117108739912509918
0.40496477484703064 -0.272458195686340332 0.322634786367416382
-0.50237882137298584 0.00361532648093998432 0.189147427678108215
0.40125805139541626 -0.287438958883285522 0.324952155351638794
0.399405896663665771 -0.273752987384796143 0.323429793119430542
0.342425674200057983 -0.259221404790878296 0.0901624709367752075
-0.0186629444360733032 -0.244630694389343262 0.128732338547706604
-0.46448814868927002 0.0358420871198177338 0.189580708742141724
-0.194374725222587585 0.2215900719165802 0.172090530395507812
0.367031335830688477 -0.329570114612579346 -0.0234727580100297928
0.323591947555541992 -0.390435367822647095 -0.158869102597236633
0.535585343837738037 -0.323930352926254272 -0.0581619031727313995
-0.441743671894073486 -0.00490905996412038803 0.152733594179153442
-0.0190317966043949127 -0.0596933029592037201 0.141772747039794922
-0.000106744104414246976 -0.236368611454963684 0.106443293392658234
0.526363253593444824 -0.202079355716705322 -0.0799920707941055298
0.449957787990570068 -0.30867496132850647 -0.292893826961517334
0.526983380317687988 -0.275765836238861084 -0.31569361686706543
0.500056028366088867 -0.325226545333862305 -0.312689095735549927
0.475373536348342896 -0.305390417575836182 -0.297409027814865112
-0.127426877617835999 0.246634602546691895 0.138988286256790161
-0.649009883403778076 0.282097131013870239 0.0941305011510848999
-0.198944121599197388 0.286729335784912109 0.33595728874206543
0.498146474361419678 -0.0869554728269577026 0.136723145842552185
0.200924798846244812 -0.359476238489151001 -0.0907985568046569824
0.50557631254196167 -0.367976903915405273 -0.0226380061358213425
0.527411401271820068 -0.24291248619556427 0.173050388693809509
-0.585989475250244141 0.379464596509933472 0.170599833130836487
0.445175200700759888 -0.315267980098724365 -0.287767529487609863
0.498727291822433472 -0.111329250037670135 0.112233661115169525
-0.655774831771850586 0.1754903644323349 -0.103870436549186707
-0.201964154839515686 0.308825403451919556 0.0891587287187576294
0.201452374458312988 -0.0137286204844713211 0.295331031084060669
0.160167679190635681 -0.0623534210026264191 -0.0440664105117321014
-0.579559206962585449 0.302368611097335815 0.368641823530197144
0.275180965662002563 0.0982540398836135864 -0.029122769832611084
-0.435266196727752686 0.155376419425010681 -0.0860357210040092468
0.534602224826812744 -0.3333282470703125 0.0128209786489605904
-0.568748354911804199 0.197337016463279724 -0.229172900319099426
-0.497622042894363403 0.0448839515447616577 -0.0868882983922958374
0.031545635312795639 -0.104201816022396088 0.0330317020416259766
0.534234166145324707 -0.264801770448684692 -0.316339284181594849
0.0098589649423956871 0.197623103857040405 0.0275772586464881897
0.302297472953796387 0.0387307517230510712 -0.084490656852722168
-0.332109451293945312 -0.0161690562963485718 -0.107690460979938507
0.236640647053718567 0.0143298935145139694 0.321874886751174927
0.125207126140594482 0.0128807555884122849 0.299025386571884155
0.527683436870574951 -0.355440706014633179 0.0664247125387191772
0.467257708311080933 -0.310153782367706299 -0.233121052384376526
-0.651989877223968506 0.285439997911453247 0.104237519204616547
0.546742796897888184 -0.220187991857528687 0.163608431816101074
0.528202593326568604 -0.323655873537063599 -0.0159749798476696014
-0.382927834987640381 -0.0565684176981449127 0.0762689262628555298
0.457078129053115845 -0.311156988143920898 -0.292590081691741943
0.505130946636199951 -0.340150684118270874 -0.317924797534942627
0.478990226984024048 -0.314637660980224609 -0.299531787633895874
0.520528912544250488 -0.301614612340927124 -0.317351937294006348
-0.00212748488411307335 -0.140207856893539429 -0.0247876662760972977
0.397740095853805542 -0.273310691118240356 0.32360464334487915
0.401410222053527832 -0.271737843751907349 0.323909908533096313
0.506277680397033691 -0.332235664129257202 0.105955198407173157
-0.467484414577484131 0.0423806607723236084 0.170687660574913025
0.410254001617431641 -0.346106767654418945 0.156697377562522888
-0.360699355602264404 -0.0354744642972946167 -0.148086234927177429
-0.12804095447063446 -0.267924010753631592 0.112495802342891693
0.512792587280273438 -0.369313865900039673 -0.0145789971575140953
-0.213589698076248169 0.312630683183670044 0.0976936519145965576
0.25081336498260498 -0.287254929542541504 0.323040127754211426
0.20912565290927887 0.00928436312824487686 -0.0460983514785766602
0.0701639354228973389 -0.151728928089141846 -0.0171985886991024017
-0.169615179300308228 0.304856091737747192 0.118891045451164246
0.471324652433395386 -0.364621520042419434 0.00713331345468759537
-0.290785014629364014 -0.099664539098739624 -0.103150658309459686
0.0366487093269824982 -0.149892807006835938 -0.0216665714979171753
0.23238024115562439 0.0561552532017230988 0.309286981821060181
0.253619581460952759 -0.288817226886749268 0.320821583271026611
-0.471580296754837036 0.00105098343919962645 0.168710455298423767
0.24119924008846283 0.0626137405633926392 0.313185453414916992
0.509168148040771484 -0.35228303074836731 0.0640704706311225891
0.227648794651031494 -0.314971089363098145 0.31472817063331604
-0.375225812196731567 -0.093320794403553009 0.0862571001052856445
-0.062487967312335968 -0.241773739457130432 0.302700996398925781
-0.222510203719139099 -0.127878904342651367 -0.0530554577708244324
-0.409725546836853027 -0.0655900165438652039 0.0985833331942558289
-0.444840908050537109 -0.0448367558419704437 0.132794275879859924
0.239206880331039429 -0.294202864170074463 0.314597398042678833
0.154150381684303284 -0.32450750470161438 0.320280671119689941
0.425544291734695435 -0.256221890449523926 0.328757435083389282
0.438453555107116699 -0.343221485614776611 -0.292660802602767944
0.506549656391143799 -0.334851682186126709 -0.318070024251937866
0.445302754640579224 -0.352569431066513062 -0.286715239286422729
0.238464862108230591 0.0656782388687133789 0.312464535236358643
0.403485268354415894 -0.287667810916900635 0.32607683539390564
-0.494602233171463013 0.00664696795865893364 0.188435852527618408
0.485994070768356323 -0.0633828714489936829 0.131846249103546143
0.0127675412222743034 -0.170936211943626404 0.00990890152752399445
0.531784892082214355 -0.307861685752868652 -0.0621296949684619904
0.315071046352386475 -0.302515000104904175 -0.126771092414855957
0.446143567562103271 -0.291604131460189819 -0.285630226135253906
-0.336710244417190552 0.22475019097328186 0.125784769654273987
-0.400647103786468506 -0.0283011011779308319 -0.001856001908890903
0.403395712375640869 -0.271880894899368286 0.324293553829193115
-0.133062481880187988 0.195811107754707336 0.167831644415855408
0.399445861577987671 -0.271817207336425781 0.324106425046920776
-0.446306079626083374 -0.0250625666230916977 0.0214549526572227478
-0.137742519378662109 0.244906216859817505 0.191787004470825195
-0.612550437450408936 0.294171839952468872 0.183729439973831177
0.124818213284015656 0.116058014333248138 0.316805720329284668
-0.120679251849651337 0.250641316175460815 0.16191554069519043
-0.583061337471008301 0.348322659730911255 0.0581194423139095306
0.427160739898681641 -0.348282068967819214 0.153183102607727051
-0.566486895084381104 0.295217424631118774 -0.0690185427665710449
0.252157747745513916 0.0266495291143655777 -0.0795440003275871277
0.247946232557296753 0.100366882979869843 -0.0483092181384563446
-0.357172638177871704 -0.0558387525379657745 -0.141819760203361511
0.198994174599647522 0.120206497609615326 0.0358208157122135162
0.545852363109588623 -0.131662547588348389 0.112117186188697815
-0.5813751220703125 0.321925938129425049 -0.0228729415684938431
0.206454738974571228 0.0246233511716127396 0.176944881677627563
-0.595076918601989746 0.375337809324264526 0.172011807560920715
0.445131152868270874 -0.319371789693832397 0.12751045823097229
0.255421459674835205 -0.278781533241271973 0.316664129495620728
0.235855787992477417 0.0237691141664981842 0.316718846559524536
-0.362616896629333496 -0.0498349033296108246 -0.0237110275775194168
-0.182359799742698669 0.118165791034698486 0.042375221848487854
0.255136340856552124 -0.288221687078475952 0.319481849670410156
0.242291107773780823 0.0331483855843544006 0.321982473134994507
0.400155425071716309 0.0233075246214866638 0.115266516804695129
-0.340207904577255249 -0.0661997571587562561 -0.147263363003730774
0.0761374682188034058 -0.333008348941802979 0.2991524338722229
-0.386451989412307739 -0.0608175396919250488 0.093905322253704071
-0.447874277830123901 -0.0413103215396404266 0.12780115008354187
0.439689129590988159 -0.279350876808166504 0.333835959434509277
0.034796103835105896 -0.12293504923582077 -0.0255806390196084976
0.414658665657043457 -0.280802816152572632 0.32717585563659668
0.433365136384963989 -0.296102464199066162 0.333339810371398926
0.368267208337783813 -0.278809636831283569 -0.130236536264419556
-0.477078616619110107 0.00147819402627646923 0.188410490751266479
-0.29119873046875 -0.096371576189994812 -0.104483060538768768
0.241760566830635071 -0.312996029853820801 0.309844940900802612
0.473548352718353271 -0.354340612888336182 0.0071417693980038166
-0.296032428741455078 -0.0966191142797470093 -0.106936544179916382
0.245114222168922424 -0.288571000099182129 0.320235550403594971
0.062671370804309845 -0.329711347818374634 0.297236829996109009
0.158385679125785828 -0.26784825325012207 -0.105487987399101257
0.250495851039886475 0.0634241402149200439 0.315610796213150024
-0.482181191444396973 -0.00786367151886224747 0.17801232635974884
0.236636117100715637 0.0665951818227767944 0.314966380596160889
0.239100813865661621 -0.331803232431411743 0.321577340364456177
-0.381909310817718506 -0.092008933424949646 0.03680419921875
-0.215773433446884155 -0.140120223164558411 -0.0542883425951004028
-0.382355004549026489 -0.0636292994022369385 0.083619922399520874
0.150361359119415283 -0.33161693811416626 0.332073032855987549
0.446208685636520386 -0.279883235692977905 0.333760589361190796
0.407771587371826172 -0.280513674020767212 0.325287520885467529
-0.5016898512840271 0.00663108006119728088 0.188746079802513123
-0.3215828537940979 0.0972932353615760803 -0.0702181756496429443
0.532866060733795166 -0.207610741257667542 -0.0525623485445976257
0.451335877180099487 -0.294044286012649536 -0.290519237518310547
0.487790405750274658 -0.325397342443466187 -0.310933113098144531
0.446780115365982056 -0.309889167547225952 -0.290882766246795654
-0.577408790588378906 0.269358277320861816 0.365833550691604614
-0.461096405982971191 0.105846010148525238 -0.231007248163223267
0.375221759080886841 -0.318745017051696777 0.199214264750480652
-0.589447021484375 0.367087215185165405 0.131228089332580566
0.39293941855430603 -0.353589802980422974 -0.217501550912857056
0.441477209329605103 -0.310431241989135742 -0.289092302322387695
-0.200346648693084717 0.305550873279571533 0.0950203686952590942
-0.155185773968696594 0.26802295446395874 0.151728108525276184
0.530164182186126709 -0.338564187288284302 0.0719168931245803833
0.464190214872360229 -0.266276687383651733 -0.217687875032424927
-0.633170604705810547 0.275834709405899048 0.107011169195175171
0.438799083232879639 -0.30872306227684021 -0.287263274192810059
0.515833199024200439 -0.277351856231689453 -0.316894769668579102
0.516951084136962891 -0.340504705905914307 -0.320804506540298462
0.454741567373275757 -0.307204991579055786 -0.293317973613739014
0.491266518831253052 -0.322040855884552002 0.0944776982069015503
0.0209871567785739899 -0.275918692350387573 -0.0185134783387184143
-0.653707444667816162 0.172024011611938477 -0.108148440718650818
-0.224385097622871399 0.318658381700515747 0.12142346054315567
0.465721815824508667 -0.364226728677749634 0.00597031833603978157
0.481441468000411987 -0.336933314800262451 0.0503538623452186584
0.511854648590087891 -0.339564710855484009 -0.319464266300201416
0.440562009811401367 -0.356722712516784668 -0.297671884298324585
-0.269703954458236694 0.322131454944610596 0.041934773325920105
0.424522697925567627 -0.313444375991821289 -0.281957656145095825
0.415859371423721313 -0.295261412858963013 0.328624069690704346
-0.325758039951324463 -0.0754373297095298767 0.123575106263160706
-0.366545587778091431 -0.0667479559779167175 0.154784813523292542
-0.337962627410888672 0.214911624789237976 0.132923141121864319
0.0103937247768044472 0.119400143623352051 0.105206571519374847
0.542385995388031006 -0.309330284595489502 -0.0461566410958766937
0.0140128619968891144 -0.261887609958648682 0.0395852513611316681
-0.00317473802715539932 -0.236647635698318481 0.0943505391478538513
0.000582559558097273111 -0.21968570351600647 0.0816035494208335876
0.465300440788269043 -0.361076980829238892 0.0303771048784255981
-0.269046097993850708 -0.138066619634628296 0.177621781826019287
-0.344749301671981812 -0.0659232214093208313 0.141373440623283386
0.123852498829364777 -0.276765406131744385 0.129074916243553162
-0.133547231554985046 0.0787974074482917786 0.0903524532914161682
0.463829874992370605 -0.0544904917478561401 0.0176136940717697144
-0.0137570584192872047 -0.216998845338821411 0.0804448053240776062
-0.554427266120910645 0.391800820827484131 0.147761613130569458
0.496981143951416016 -0.366955041885375977 0.00530472118407487869
-0.610378861427307129 0.294169902801513672 0.186534151434898376
0.530363500118255615 -0.275414913892745972 -0.317729562520980835
0.370726197957992554 -0.264703154563903809 0.18162257969379425
0.420715957880020142 -0.344597458839416504 0.150947973132133484
0.252295613288879395 0.0391539260745048523 -0.0666728466749191284
0.549755275249481201 -0.150056406855583191 0.124310910701751709
-0.570206820964813232 0.284189105033874512 -0.00641372101381421089
0.501249074935913086 -0.362807035446166992 -0.001227550208568573
0.208522871136665344 0.11566055566072464 -0.0104337073862552643
-0.288855493068695068 -0.0857351347804069519 -0.0663314983248710632
0.159553632140159607 -0.0833249911665916443 -0.0361462309956550598
-0.339611917734146118 -0.105508282780647278 0.141419410705566406
0.511375129222869873 -0.281580656766891479 -0.31324729323387146
-0.338940232992172241 -0.0797111168503761292 0.0387118980288505554
-0.369054675102233887 0.280852735042572021 -0.0625240504741668701
0.510191440582275391 -0.341135293245315552 0.0651946738362312317
0.302622050046920776 -0.205987825989723206 0.248005300760269165
0.543126225471496582 -0.31221848726272583 -0.0607084780931472778
0.141831651329994202 0.0694911554455757141 0.336465567350387573
-0.594543814659118652 0.267647892236709595 0.0121885845437645912
0.222283795475959778 -0.00713060749694705009 0.295662134885787964
0.231134325265884399 0.0343042314052581787 0.312851190567016602
0.533837556838989258 -0.3198203444480896 -0.0127416262403130531
-0.388984441757202148 -0.0640275254845619202 0.105873130261898041
-0.447217494249343872 -0.040162205696105957 0.126652628183364868
0.496252000331878662 -0.091461673378944397 0.154521852731704712
0.251163244247436523 0.0631012767553329468 0.316728800535202026
-0.290999531745910645 -0.0927512422204017639 0.307884633541107178
-0.366204530000686646 -0.114825062453746796 0.104178845882415771
-0.563080370426177979 0.127344816923141479 -0.0784218758344650269
-0.501155853271484375 0.0234854593873023987 0.186789631843566895
0.518431365489959717 -0.297603756189346313 -0.314081400632858276
0.472897887229919434 -0.328509390354156494 -0.299936056137084961
-0.573942303657531738 0.269023269414901733 0.362761408090591431
-0.570856273174285889 0.355073213577270508 0.167093142867088318
-0.191427409648895264 0.304801076650619507 0.101381585001945496
-0.661733806133270264 0.239895597100257874 0.0416794270277023315
-0.504560708999633789 0.144510596990585327 0.353443175554275513
0.50743865966796875 -0.347433745861053467 -0.318361043930053711
-0.200256332755088806 0.305134594440460205 0.102042496204376221
0.475447535514831543 -0.357869505882263184 0.00472803134471178055
0.510077714920043945 -0.330951064825057983 0.0664699971675872803
-0.610392868518829346 0.367768019437789917 0.0878216996788978577
-0.562185049057006836 0.288433492183685303 -0.0559145770967006683
0.220215633511543274 0.0102369757369160652 0.309189409017562866
0.240781247615814209 0.00507016479969024658 0.321651071310043335
-0.359223544597625732 -0.0569834299385547638 -0.137815371155738831
0.399577528238296509 -0.252885729074478149 0.32203209400177002
0.399880200624465942 -0.26325872540473938 0.324786126613616943
0.224371179938316345 -0.324259549379348755 0.320807218551635742
0.411363065242767334 -0.268001645803451538 0.325207829475402832
-0.508794486522674561 0.0494686998426914215 0.195376753807067871
-0.630877673625946045 0.156579673290252686 -0.0526156313717365265
-0.50153350830078125 0.147076413035392761 0.345416903495788574
0.521239578723907471 -0.350994020700454712 -0.323103070259094238
0.495622038841247559 -0.348593533039093018 0.000248417229158803821
-0.197572514414787292 0.016086110845208168 -0.0499057956039905548
-0.557435512542724609 0.341952353715896606 -0.00568595901131629944
0.488835811614990234 -0.360719054937362671 0.0410809926688671112
0.449438005685806274 -0.0744194760918617249 0.00192934751976281404
-0.555955469608306885 0.38540688157081604 0.157882466912269592
0.374884903430938721 -0.0813828185200691223 -0.119981147348880768
-0.389391899108886719 0.319739013910293579 0.168909400701522827
-0.384352684020996094 0.328308582305908203 0.197610273957252502
-0.363845646381378174 0.238092496991157532 -0.0834287181496620178
-0.406980574131011963 0.199584409594535828 0.0409789979457855225
-0.644119143486022949 0.286970376968383789 0.0936439558863639832
0.408883213996887207 -0.347474217414855957 0.136463850736618042
0.222605466842651367 0.0827980339527130127 -0.0335730239748954773
0.498842000961303711 -0.161496207118034363 0.123836569488048553
0.500587344169616699 -0.0930750295519828796 0.134750396013259888
0.215626716613769531 0.00178840418811887503 0.299522638320922852
-0.352808475494384766 -0.0682569146156311035 -0.00900197681039571762
-0.385090112686157227 0.266102015972137451 -0.0716134756803512573
0.506758570671081543 -0.347358793020248413 0.0549446307122707367
-0.356644421815872192 -0.0564480461180210114 -0.145407482981681824
0.132458731532096863 0.0725500136613845825 0.322190761566162109
-0.0992548167705535889 -0.265779614448547363 0.00617544213309884071
0.242690578103065491 0.0232150238007307053 0.321955054998397827
-0.48004382848739624 -0.0117901954799890518 0.1853981614112854
0.242722615599632263 0.0482082925736904144 0.317133009433746338
-0.277871072292327881 0.3328094482421875 0.0407186746597290039
0.370086789131164551 -0.0310610421001911163 -0.0400130078196525574
0.520446181297302246 -0.348287463188171387 -0.0363255701959133148
0.29356008768081665 -0.0121379094198346138 0.0369696877896785736
-0.643806099891662598 0.284887790679931641 0.09249153733253479
0.0359874404966831207 0.136629417538642883 0.0851097777485847473
-0.397111088037490845 -0.0577269233763217926 0.125974074006080627
-0.441075563430786133 -0.0383138023316860199 0.131397783756256104
0.524116337299346924 -0.317877084016799927 -0.0654787570238113403
0.422717899084091187 -0.280193120241165161 0.331276863813400269
0.509922683238983154 -0.345253437757492065 0.0571133643388748169
0.404134899377822876 -0.259063810110092163 0.32368054986000061
-0.479957044124603271 0.0179810915142297745 0.176778733730316162
0.235763028264045715 0.0683982148766517639 0.314528137445449829
-0.479110270738601685 -0.00844297092407941818 0.167425334453582764
0.239387601613998413 0.0674068108201026917 0.314929991960525513
0.388401329517364502 0.0257735271006822586 0.105947427451610565
0.219894036650657654 -0.316260486841201782 0.310462445020675659
0.383222401142120361 0.0426898375153541565 0.068980783224105835
0.462920397520065308 0.0105012217536568642 0.175027221441268921
0.399759978055953979 -0.258854210376739502 0.327254593372344971
-0.499267160892486572 0.021062161773443222 0.180991888046264648
-0.573135733604431152 0.266295969486236572 0.359985679388046265
-0.664197325706481934 0.229953184723854065 0.0218242742121219635
-0.148957207798957825 0.275363951921463013 0.0790711790323257446
0.522280573844909668 -0.335414797067642212 -0.322719663381576538
-0.220074385404586792 0.315703123807907104 0.096768207848072052
0.50014883279800415 -0.346845000982284546 0.0670048147439956665
-0.189421609044075012 0.302779346704483032 0.114784449338912964
0.313906043767929077 -0.130369529128074646 0.300733983516693115
0.225360065698623657 -0.0354225374758243561 0.305167347192764282
0.0577205047011375427 -0.330985993146896362 0.291482478380203247
0.43551027774810791 -0.280229657888412476 0.332791000604629517
0.409238487482070923 -0.28602483868598938 0.330955296754837036
0.385947972536087036 -0.266053527593612671 0.318828612565994263
0.397682994604110718 -0.385037630796432495 -0.225794032216072083
-0.161935731768608093 0.278392493724822998 0.128631919622421265
0.380863100290298462 0.0437130443751811981 0.0769243761897087097
0.391073137521743774 -0.256011515855789185 0.318835079669952393
-0.499986618757247925 0.0243466924875974655 0.185829073190689087
0.49983823299407959 -0.326295763254165649 -0.313350915908813477
0.380863726139068604 -0.376327395439147949 -0.216406360268592834
0.521346032619476318 -0.349640250205993652 -0.325119972229003906
0.520905852317810059 -0.348779112100601196 -0.32205846905708313
0.513528764247894287 -0.320022642612457275 -0.318689525127410889
0.255249351263046265 -0.222650498151779175 0.0574199892580509186
0.186247393488883972 -0.142579331994056702 -0.105732545256614685
0.508042693138122559 -0.320545732975006104 0.0291507262736558914
-0.469140321016311646 -0.012044854462146759 0.181094825267791748
0.496428310871124268 -0.34933704137802124 -0.3100166916847229
0.52168726921081543 -0.327897757291793823 -0.322193711996078491
0.47623869776725769 -0.320616662502288818 -0.303302854299545288
-0.340871304273605347 0.229863345623016357 -0.0443257875740528107
0.201916709542274475 0.132659077644348145 0.112128876149654388
-0.172300100326538086 0.0220577958971261978 0.0255691241472959518
0.265856176614761353 -0.16609521210193634 0.00592981232330203056
0.544935166835784912 -0.328644543886184692 -0.0479572638869285583
-0.455982476472854614 -0.0532596409320831299 0.162210732698440552
0.469932734966278076 -0.356435775756835938 -0.307355254888534546
0.478679150342941284 -0.270166993141174316 -0.30179259181022644
0.467545688152313232 -0.362245082855224609 -0.308444678783416748
-0.319877743721008301 0.266675680875778198 0.0114933513104915619
0.0333713702857494354 0.0984310805797576904 0.128456622362136841
-0.284259200096130371 -0.100315771996974945 -0.0873612016439437866
-0.616425395011901855 0.217018753290176392 -0.104833431541919708
0.244593590497970581 0.104328535497188568 -0.0298827029764652252
0.466495245695114136 -0.235452502965927124 -0.228742435574531555
-0.293513625860214233 -0.0887635946273803711 -0.095915377140045166
0.249377727508544922 -0.27612641453742981 0.322570115327835083
0.222229480743408203 0.0666852295398712158 -0.028038516640663147
-0.250536620616912842 -0.130451023578643799 -0.055495724081993103
-0.211300894618034363 0.302030086517333984 0.14870239794254303
0.340047329664230347 -0.140813753008842468 0.318286538124084473
0.529919803142547607 -0.356891751289367676 0.0695934519171714783
-0.59952092170715332 0.356730848550796509 0.0603998340666294098
-0.345959275960922241 -0.0559741072356700897 -0.143645137548446655
-0.432430744171142578 0.157537907361984253 -0.0846414342522621155
0.526813685894012451 -0.332022100687026978 0.0202829279005527496
0.528385519981384277 -0.288279831409454346 -0.0702805593609809875
-0.498501092195510864 0.142624065279960632 -0.253908872604370117
0.146703377366065979 0.156626433134078979 0.0587028153240680695
0.253461718559265137 -0.00784937385469675064 0.327627360820770264
0.350191056728363037 -0.147399589419364929 0.320523709058761597
0.442516058683395386 -0.322836965322494507 -0.229546785354614258
-0.223765313625335693 -0.140265852212905884 -0.0538117289543151855
0.522744536399841309 -0.350523054599761963 0.0968672484159469604
-0.645705461502075195 0.253525227308273315 0.0238587688654661179
0.393439948558807373 -0.280324846506118774 0.322282701730728149
-0.474318385124206543 -0.00998869165778160095 0.164871856570243835
0.22465941309928894 -0.325262218713760376 0.319063723087310791
-0.363298773765563965 -0.121379591524600983 0.130421116948127747
-0.238211378455162048 -0.140892714262008667 -0.0539392344653606415
-0.113691076636314392 -0.0093362787738442421 -0.0167167969048023224
0.389665812253952026 -0.278595447540283203 0.32061275839805603
-0.50662761926651001 0.011165606789290905 0.201952993869781494
0.46285673975944519 -0.297218799591064453 -0.294508814811706543
0.351534575223922729 -0.148357570171356201 0.32138022780418396
0.45811009407043457 -0.304006040096282959 -0.229013547301292419
0.0247533805668354034 -0.143991798162460327 -0.0202217381447553635
0.369226157665252686 -0.327988564968109131 0.318762034177780151
0.391891568899154663 -0.281749159097671509 0.316874593496322632
0.128847941756248474 -0.319463163614273071 -0.0971671715378761292
-0.134220197796821594 0.278454840183258057 0.117487810552120209
-0.332979917526245117 0.0944358035922050476 -0.102391816675662994
0.374300211668014526 -0.376190483570098877 -0.214959800243377686
0.520123660564422607 -0.346028566360473633 -0.322736918926239014
0.523688971996307373 -0.358293801546096802 -0.326594233512878418
-0.068027980625629425 -0.255031943321228027 0.0989313870668411255
0.325985938310623169 -0.131055727601051331 0.314706623554229736
0.424558281898498535 -0.259988456964492798 0.328286319971084595
-0.47957533597946167 0.0318171791732311249 0.196712717413902283
0.526869475841522217 -0.299885869026184082 -0.322205454111099243
0.538303077220916748 -0.292734235525131226 -0.324618250131607056
0.378095626831054688 -0.374428302049636841 -0.213670358061790466
0.371601670980453491 -0.357364386320114136 -0.213677123188972473
0.524311423301696777 -0.351891875267028809 -0.324976712465286255
0.525617361068725586 -0.363669425249099731 -0.323062509298324585
0.515785574913024902 -0.327439576387405396 -0.320060551166534424
0.479736596345901489 -0.352593064308166504 -0.312197566032409668
0.47870248556137085 -0.365864336490631104 -0.312911778688430786
-0.361530512571334839 0.310524284839630127 0.239807739853858948
-0.320528000593185425 0.104054093360900879 0.0222408846020698547
-0.447307109832763672 0.204310342669487 -0.0403415001928806305
-0.37745329737663269 0.279442787170410156 -0.00725940056145191193
-0.0222738981246948242 -0.260935038328170776 0.143902316689491272
-0.591628015041351318 0.361604392528533936 0.0641986504197120667
0.36780133843421936 -0.373755693435668945 -0.212462931871414185
-0.123830661177635193 -0.0107824523001909256 0.00798347871750593185
0.396870315074920654 -0.353639721870422363 -0.218284711241722107
0.507599532604217529 -0.159753352403640747 0.125225037336349487
0.195645958185195923 0.124680109322071075 0.00637359451502561569
-0.0266787353903055191 0.166854202747344971 0.383056670427322388
-0.333785891532897949 -0.121229439973831177 0.100413225591182709
-0.32497069239616394 0.303014516830444336 -0.0366926081478595734
0.534353435039520264 -0.347054839134216309 0.0378735288977622986
0.52560347318649292 -0.332085609436035156 0.0345415659248828888
-0.595452845096588135 0.382259726524353027 0.113382227718830109
-0.0108440779149532318 -0.144415691494941711 -0.0268421843647956848
-0.23500591516494751 0.172054171562194824 -0.00162950984667986631
-0.485204935073852539 -0.010674402117729187 0.177292481064796448
-0.277792006731033325 0.336223125457763672 0.0422689579427242279
0.513699710369110107 -0.349310606718063354 0.0971282646059989929
-0.448322027921676636 -0.035846218466758728 0.11749102920293808
0.434637665748596191 -0.253435909748077393 0.331886827945709229
0.415126383304595947 -0.278547883033752441 0.327359408140182495
-0.468618214130401611 0.0344316475093364716 0.193652331829071045
0.502532720565795898 -0.339813321828842163 0.00798981357365846634
-0.481169760227203369 -0.00283412239514291286 0.177623957395553589
-0.377175211906433105 -0.10680871456861496 0.0930058211088180542
-0.500734865665435791 0.0221974793821573257 0.184390231966972351
0.360913097858428955 -0.287158668041229248 -0.141804620623588562
0.0018340239766985178 -0.231551006436347961 0.0901315063238143921
-0.14000527560710907 0.265154570341110229 0.0884581133723258972
-0.129319891333580017 0.254466533660888672 0.0714470893144607544
0.3128700852394104 -0.293519377708435059 -0.131160065531730652
0.428471952676773071 -0.255675405263900757 0.330385714769363403
-0.61508864164352417 0.306774556636810303 0.392258316278457642
0.411025732755661011 -0.358226269483566284 -0.226354897022247314
0.505379140377044678 -0.346756011247634888 -0.319835096597671509
0.508074104785919189 -0.352792590856552124 -0.322542250156402588
0.523853182792663574 -0.298746705055236816 -0.318626642227172852
0.510034441947937012 -0.347102195024490356 -0.320159614086151123
0.270288318395614624 -0.169596746563911438 -0.0795471668243408203
0.134005457162857056 0.120312251150608063 0.329191446304321289
0.25210726261138916 -0.285151362419128418 0.328313052654266357
0.324738115072250366 -0.120349124073982239 0.310739368200302124
0.302705854177474976 -0.204557806253433228 0.251273155212402344
0.250343590974807739 -0.00386116304434835911 0.325182229280471802
0.5075531005859375 -0.343347817659378052 0.08766193687915802
0.241993233561515808 0.0898365378379821777 0.310083150863647461
0.463159114122390747 -0.284311681985855103 -0.231134474277496338
-0.261945605278015137 0.314091384410858154 0.0458982214331626892
0.344386667013168335 -0.140107825398445129 0.329549521207809448
0.374147355556488037 -0.364114224910736084 -0.208669155836105347
0.337931722402572632 -0.129376545548439026 0.320789903402328491
0.526771843433380127 -0.347441524267196655 -0.323978841304779053
0.524538040161132812 -0.352298498153686523 -0.326533079147338867
0.480341643095016479 -0.372575968503952026 -0.313000619411468506
-0.359742641448974609 -0.0651076063513755798 0.0829924866557121277
-0.407210022211074829 0.0885982587933540344 -0.113117478787899017
0.0143536562100052834 0.0981008931994438171 0.217241674661636353
-0.378251850605010986 -0.0933408066630363464 -0.0282503589987754822
0.265729635953903198 0.068348124623298645 -0.0918216854333877563
-0.108005039393901825 -0.0152528164908289909 0.0460776723921298981
-0.357826650142669678 -0.0921639278531074524 0.0130171934142708778
-0.29011082649230957 0.304915785789489746 0.166680395603179932
-0.355271965265274048 -0.0736890658736228943 0.0407258793711662292
-0.598284900188446045 0.294691979885101318 0.186586007475852966
0.249661728739738464 0.0967235416173934937 -0.0342837423086166382
0.379430979490280151 -0.355165988206863403 -0.209342002868652344
0.470036298036575317 -0.324930518865585327 0.1380939781665802
0.464764595031738281 -0.27206122875213623 -0.0929409563541412354
-0.439367324113845825 -0.0431775562465190887 0.0843132138252258301
-0.33605581521987915 -0.124894775450229645 0.127723529934883118
0.528581678867340088 -0.342128455638885498 0.0511098988354206085
0.392991125583648682 0.0470268130302429199 0.133651956915855408
-0.185654371976852417 0.314189940690994263 0.107898317277431488
-0.441322952508926392 -0.0430653765797615051 0.117891229689121246
0.537614583969116211 -0.326409846544265747 -0.0555831305682659149
-0.35277983546257019 0.306502550840377808 0.11427018791437149
0.494402021169662476 -0.346321612596511841 0.0441871359944343567
-0.575261056423187256 0.305313587188720703 0.379401534795761108
0.431217461824417114 -0.281136751174926758 0.333848476409912109
-0.477353751659393311 0.00393743487074971199 0.164208903908729553
0.525225937366485596 -0.350094228982925415 -0.00249151303432881832
-0.0670490339398384094 -0.262997090816497803 0.298625767230987549
-0.511644721031188965 0.00450247433036565781 0.188131198287010193
0.390176177024841309 -0.360590517520904541 -0.215637475252151489
-0.118227876722812653 0.254438608884811401 0.0636712759733200073
-0.500160515308380127 0.00491755269467830658 0.193326219916343689
0.426700204610824585 -0.274638593196868896 0.330778747797012329
-0.333324909210205078 0.104085817933082581 -0.118475437164306641
-0.105586163699626923 0.25430026650428772 0.0936902910470962524
0.510954737663269043 -0.341994792222976685 -0.31963762640953064
-0.612550616264343262 0.30273708701133728 0.396281272172927856
-0.508726656436920166 0.0365186966955661774 0.188650012016296387
-0.290842264890670776 -0.0893484503030776978 -0.0785734131932258606
0.509809613227844238 -0.345274627208709717 -0.321063011884689331
0.0720717534422874451 0.139280855655670166 0.072558283805847168
0.245848521590232849 0.107164435088634491 0.32153022289276123
0.473436623811721802 -0.287074089050292969 -0.230662420392036438
0.305497616529464722 -0.314859628677368164 0.331882357597351074
0.512023508548736572 -0.350342601537704468 -0.322087377309799194
-0.315127760171890259 -0.0871692448854446411 -0.0342174582183361053
0.514635086059570312 -0.356047362089157104 -0.323052406311035156
-0.624943435192108154 0.180398106575012207 -0.0861878320574760437
-0.353309869766235352 -0.0560731738805770874 -0.14394494891166687
-0.33100399374961853 0.269619017839431763 -0.0550459064543247223
-0.177037507295608521 0.138900741934776306 0.00504227587953209877
0.545641839504241943 -0.217659085988998413 0.159283310174942017
0.030822480097413063 0.102476045489311218 0.0654091835021972656
0.51008230447769165 -0.331208556890487671 -0.319439113140106201
0.586106061935424805 -0.32548224925994873 -0.320015698671340942
0.249974921345710754 -0.288468450307846069 0.318532466888427734
0.255814731121063232 -0.00316707114689052105 0.328120529651641846
0.301796853542327881 -0.282730907201766968 0.331397444009780884
-0.343944907188415527 -0.0909666866064071655 0.0180446580052375793
-0.374126434326171875 -0.0901711583137512207 -0.0182072911411523819
-0.0651015937328338623 -0.273650318384170532 0.159516572952270508
-0.630209803581237793 0.275777906179428101 0.0759304463863372803
0.366888552904129028 -0.365937799215316772 -0.212241277098655701
-0.124160952866077423 -0.0293214526027441025 -0.00658335583284497261
-0.598314046859741211 0.342491596937179565 0.0905410125851631165
0.444215625524520874 -0.24975334107875824 -0.286319851875305176
0.382938504219055176 -0.348413407802581787 -0.212109923362731934
0.312675505876541138 -0.373029589653015137 -0.15610116720199585
-0.179287165403366089 0.312827348709106445 0.100084178149700165
0.535378932952880859 -0.319590657949447632 -0.0323884636163711548
-0.654900252819061279 0.238474279642105103 0.0140325184911489487
-0.452777177095413208 -0.0539865419268608093 0.163359940052032471
0.500209927558898926 -0.348868638277053833 0.0714192017912864685
0.440755069255828857 -0.261082589626312256 0.33445623517036438
0.507494211196899414 -0.344096004962921143 0.0299521870911121368
0.264753639698028564 0.121516905725002289 0.027123965322971344
0.400096595287322998 0.0324217453598976135 0.139821231365203857
-0.106198906898498535 0.252698391675949097 0.072713315486907959
0.316928178071975708 -0.381056606769561768 -0.156977295875549316
-0.566392123699188232 0.295680254697799683 -0.0514440499246120453
0.390633732080459595 -0.363106727600097656 -0.221018597483634949
0.359269171953201294 0.0333277992904186249 0.0485817417502403259
0.194859221577644348 -0.365772753953933716 -0.0957864969968795776
0.39151078462600708 -0.356031924486160278 -0.217144548892974854
0.519952535629272461 -0.335507184267044067 -0.322583615779876709
0.523156106472015381 -0.333691179752349854 -0.324024498462677002
0.244532749056816101 0.0240548849105834961 0.324042439460754395
0.212719395756721497 -0.338752418756484985 0.31873786449432373
0.237340539693832397 0.106018073856830597 0.31510511040687561
0.521912097930908203 -0.337416172027587891 -0.325673371553421021
0.318426966667175293 -0.380165994167327881 -0.151130333542823792
0.584434688091278076 -0.3183632493019104 -0.334237456321716309
-0.380735546350479126 -0.0936114713549613953 -0.0177126508206129074
0.458534359931945801 -0.325766593217849731 0.125102415680885315
0.38916429877281189 0.0534529052674770355 0.13164202868938446
-0.173520296812057495 0.307427048683166504 0.105965688824653625
-0.461923271417617798 -0.0301700402051210403 0.134577736258506775
0.439892977476119995 -0.261666417121887207 0.335234612226486206
0.400513350963592529 0.0246111750602722168 0.127949610352516174
0.427570849657058716 -0.2638111412525177 0.332164376974105835
-0.509502410888671875 0.00422656955197453499 0.190923407673835754
-0.130848512053489685 0.25367891788482666 0.0816257074475288391
-0.283726632595062256 0.335939496755599976 0.034338831901550293
0.455578207969665527 -0.259691804647445679 0.336761623620986938
-0.330551058053970337 0.0977490991353988647 -0.117674879729747772
-0.508228302001953125 0.0360321067273616791 0.188607484102249146
0.258319586515426636 0.00741658266633749008 0.327609837055206299
0.446150749921798706 -0.256208062171936035 0.333943963050842285
0.236480787396430969 0.109025411307811737 0.308875590562820435
0.302712678909301758 -0.329350143671035767 0.33452722430229187
-0.320282548666000366 0.26702880859375 -0.0469335690140724182
