ply
format ascii 1.0
element vertex 738
property float x
property float y
property float z
end_header
-0.638378381729125977 0.244918331503868103 -0.0382333807647228241
0.136252716183662415 0.0695616379380226135 0.337744325399398804
-0.577149152755737305 0.303897231817245483 -0.0556143224239349365
0.262439697980880737 0.030735313892364502 -0.0736159980297088623
0.541813135147094727 -0.216542527079582214 0.111455507576465607
-0.360227495431900024 -0.0357571877539157867 -0.134464815258979797
-0.574786663055419922 0.327580302953720093 -0.0296242926269769669
-0.361940264701843262 -0.0709165260195732117 -0.0341201759874820709
-0.130790919065475464 -0.267540335655212402 0.118956096470355988
0.494968205690383911 -0.365687757730484009 -0.00048387161223217845
0.373666554689407349 -0.359294593334197998 -0.210179910063743591
-0.378562599420547485 -0.10688985139131546 0.101197570562362671
-0.0673270672559738159 -0.263923406600952148 0.29639926552772522
0.519730031490325928 -0.243235453963279724 -0.309551060199737549
0.509303152561187744 -0.33041873574256897 0.0151581000536680222
-0.593403398990631104 0.369101792573928833 0.120543621480464935
-0.65545123815536499 0.175752714276313782 -0.103046827018260956
-0.223216220736503601 -0.144128262996673584 -0.0538913719356060028
-0.191322311758995056 0.316810756921768188 0.100555546581745148
0.256455361843109131 -0.283318847417831421 0.319620519876480103
0.239091873168945312 0.0325172804296016693 0.318999737501144409
-0.120267488062381744 -0.0459655337035655975 0.00713773863390088081
-0.641622245311737061 0.308763682842254639 0.101849563419818878
0.364550948143005371 -0.373841822147369385 -0.20709565281867981
0.537596583366394043 -0.217555299401283264 0.161746233701705933
-0.552791833877563477 0.382588088512420654 0.15791986882686615
-0.122580826282501221 0.259516745805740356 0.114931449294090271
0.119400173425674438 0.102744415402412415 0.0892754644155502319
-0.375494271516799927 0.265951186418533325 -0.0897302329540252686
0.516721129417419434 -0.348908960819244385 0.0986629799008369446
-0.293705165386199951 -0.107160270214080811 -0.109467543661594391
0.274975478649139404 0.103254251182079315 -0.0578221045434474945
-0.575164616107940674 0.219618558883666992 -0.21269601583480835
-0.115625083446502686 0.268809348344802856 0.179618939757347107
0.235809385776519775 -0.287804454565048218 0.314305126667022705
0.310002744197845459 -0.18711620569229126 0.240932255983352661
0.541602432727813721 -0.325709730386734009 -0.0210370831191539764
0.0787548571825027466 -0.337610870599746704 0.282128661870956421
-0.00658392813056707382 -0.171742767095565796 0.0040779532864689827
-0.282322108745574951 0.261878490447998047 0.00686069205403327942
0.512984037399291992 -0.237003326416015625 -0.309547990560531616
-0.646987020969390869 0.278384804725646973 0.0795266032218933105
-0.646381616592407227 0.1832684725522995 -0.0908981114625930786
0.513939440250396729 -0.322375982999801636 0.0241692382842302322
-0.407107174396514893 -0.063582003116607666 0.113406553864479065
0.516659736633300781 -0.355579346418380737 -0.020741194486618042
-0.566606700420379639 0.374461203813552856 0.152432277798652649
0.235851258039474487 0.0433309748768806458 0.313544780015945435
-0.664877414703369141 0.227244183421134949 0.0230824314057826996
-0.448246031999588013 -0.0384112894535064697 0.126963421702384949
0.502841532230377197 -0.302163094282150269 -0.178999841213226318
-0.58914494514465332 0.361158400774002075 0.0860453695058822632
-0.194164305925369263 0.315084904432296753 0.104673705995082855
0.246863037347793579 0.0242342781275510788 0.323688745498657227
0.530752241611480713 -0.323677957057952881 -0.0582027696073055267
-0.18291802704334259 0.307195752859115601 0.128288179636001587
0.247104212641716003 0.007306655403226614 0.32382318377494812
0.0585765279829502106 0.139951556921005249 0.345561176538467407
-0.505830347537994385 0.149550661444664001 0.356779277324676514
0.270507454872131348 -0.311075031757354736 0.326168417930603027
-0.253877609968185425 0.0236544683575630188 -0.0709159299731254578
0.240856185555458069 -0.295118957757949829 0.322410017251968384
0.248903661966323853 0.0441178269684314728 0.314274013042449951
0.468255758285522461 -0.101722553372383118 0.0344731509685516357
-0.124851271510124207 0.195333123207092285 0.115201734006404877
0.239743992686271667 -0.326453059911727905 0.317862987518310547
0.500074625015258789 -0.366455018520355225 0.0745355412364006042
0.523269295692443848 -0.324582338333129883 0.0260881409049034119
0.444424450397491455 -0.253065556287765503 0.332271188497543335
0.32138371467590332 -0.131255060434341431 -0.106828682124614716
0.0632379874587059021 -0.0104866428300738335 0.321535974740982056
0.511129438877105713 -0.360760748386383057 0.0473945029079914093
0.135579526424407959 -0.100485652685165405 0.040348447859287262
0.0494598597288131714 0.0117804612964391708 0.0295177251100540161
0.020720701664686203 0.0484740026295185089 0.0423784591257572174
0.0879960954189300537 -0.065822117030620575 0.289480686187744141
-0.162337973713874817 -0.265633851289749146 0.147856786847114563
0.264892518520355225 -0.0199046079069375992 0.0613740719854831696
-0.0290660448372364044 -0.0287931431084871292 0.295393168926239014
0.502052843570709229 -0.240245386958122253 -0.302134186029434204
0.475811809301376343 -0.314886718988418579 -0.302074193954467773
-0.630931556224822998 0.306411236524581909 0.167331114411354065
0.475308597087860107 -0.320673167705535889 0.12090349942445755
0.508937716484069824 -0.300737947225570679 -0.105674132704734802
0.528095781803131104 -0.274840295314788818 -0.317305922508239746
0.493425071239471436 -0.332363277673721313 -0.310821563005447388
0.503352999687194824 -0.319999516010284424 0.0978949293494224548
0.474057704210281372 -0.305716842412948608 -0.29822877049446106
-0.559389710426330566 0.268243074417114258 0.364428877830505371
0.124965913593769073 0.117129474878311157 0.314026474952697754
-0.633574128150939941 0.282350629568099976 0.0542501956224441528
-0.587333083152770996 0.362915158271789551 0.102384410798549652
0.371390432119369507 -0.373995155096054077 -0.21287122368812561
0.438301444053649902 -0.347853630781173706 0.154238447546958923
0.0580617785453796387 0.121577531099319458 0.320937305688858032
-0.574564933776855469 0.36894690990447998 0.215489134192466736
0.2646961510181427 0.0248455144464969635 -0.0588183589279651642
0.368650823831558228 -0.336669713258743286 0.160521775484085083
0.510380923748016357 -0.301459372043609619 -0.112122371792793274
0.133520931005477905 -0.32057604193687439 -0.097947441041469574
0.516438484191894531 -0.348702758550643921 -0.0203984230756759644
0.389184057712554932 -0.346716225147247314 -0.214227795600891113
-0.576998233795166016 0.319186657667160034 0.0407405570149421692
0.53591233491897583 -0.277814120054244995 -0.320708274841308594
0.467769771814346313 -0.310853958129882812 -0.299365073442459106
0.507057666778564453 -0.347033411264419556 0.0178229101002216339
-0.555892348289489746 0.309841156005859375 0.102201968431472778
0.193796291947364807 -0.339320868253707886 -0.059324704110622406
0.0700093433260917664 -0.282215356826782227 -0.0780770257115364075
0.252334922552108765 -0.250161111354827881 0.320080727338790894
0.239886090159416199 0.0311595536768436432 0.316777676343917847
-0.121129371225833893 -0.0477653108537197113 0.00799227412790060043
0.178724825382232666 -0.100041814148426056 -0.0149643057957291603
0.532332718372344971 -0.332229405641555786 -0.013278348371386528
0.37025749683380127 -0.349442034959793091 -0.209010392427444458
0.534845888614654541 -0.245724380016326904 0.177163690328598022
0.561040401458740234 -0.315784275531768799 -0.331033855676651001
0.554428398609161377 -0.211607068777084351 0.133809313178062439
-0.54325568675994873 0.380890041589736938 0.164455235004425049
0.122897453606128693 0.117405295372009277 0.132951885461807251
-0.582216143608093262 0.352036267518997192 0.0977727696299552917
-0.481581062078475952 0.186023235321044922 -0.0916223526000976562
0.515511989593505859 -0.339105337858200073 0.0387295335531234741
0.253336817026138306 -0.279092907905578613 0.32190471887588501
0.278433322906494141 -0.355939388275146484 -0.126199737191200256
0.507819950580596924 -0.286620438098907471 -0.313780933618545532
-0.432239323854446411 -0.0572590641677379608 0.116638116538524628
0.201988264918327332 0.0907097905874252319 0.22321397066116333
0.244319558143615723 0.104749873280525208 -0.0573941320180892944
-0.195763394236564636 0.201705142855644226 0.34914630651473999
0.250445246696472168 0.0251220334321260452 0.323213160037994385
0.239802196621894836 0.0192123334854841232 0.320904701948165894
-0.0314680300652980804 0.162911549210548401 0.382496505975723267
-0.482583820819854736 -0.015673389658331871 0.180140078067779541
0.483708769083023071 -0.369024157524108887 0.0459783636033535004
-0.643506705760955811 0.287199318408966064 0.0862429291009902954
0.275915026664733887 -0.165739104151725769 -0.0706318691372871399
-0.411902368068695068 -0.0569349080324172974 0.0788434296846389771
-0.643040835857391357 0.175734877586364746 -0.0819859430193901062
-0.22605268657207489 -0.134019523859024048 -0.0523506440222263336
0.254842609167098999 -0.265499413013458252 0.321065038442611694
-0.345395773649215698 0.0172583404928445816 -0.117023810744285583
-0.287220895290374756 -0.091667957603931427 -0.106638692319393158
-0.585065662860870361 0.209828823804855347 -0.217998519539833069
0.267493695020675659 -0.296968281269073486 0.315145790576934814
-0.0256904289126396179 -0.187315300107002258 -0.0436232089996337891
-0.618053138256072998 0.276988804340362549 0.0314207263290882111
-0.608827292919158936 0.298316478729248047 0.0924953818321228027
-0.397651374340057373 -0.0629323571920394897 0.11882474273443222
-0.451781183481216431 -0.0382419265806674957 0.119447916746139526
0.431001245975494385 -0.271700888872146606 0.329148828983306885
-0.0524413064122200012 0.140937596559524536 0.0915563851594924927
-0.503095686435699463 0.151175141334533691 0.355393886566162109
0.240705415606498718 -0.319274038076400757 0.322761416435241699
0.497086882591247559 -0.370846688747406006 0.0572973862290382385
0.399202346801757812 -0.256814509630203247 0.322426587343215942
-0.158492788672447205 -0.263611882925033569 0.18149992823600769
-0.499240607023239136 0.0139839146286249161 0.158067852258682251
0.417479217052459717 -0.29733806848526001 0.32870057225227356
0.535256803035736084 -0.34022289514541626 -0.0185076426714658737
0.344252169132232666 -0.26741945743560791 -0.127959534525871277
-0.496531695127487183 0.07196827232837677 0.203960910439491272
0.443541914224624634 -0.272146254777908325 0.333375513553619385
0.521991729736328125 -0.335420817136764526 0.032731618732213974
0.453333556652069092 -0.319987952709197998 -0.293108105659484863
0.474189668893814087 -0.311682283878326416 0.116641029715538025
0.517199695110321045 -0.278508663177490234 -0.312891930341720581
0.502635836601257324 -0.326048791408538818 -0.314386636018753052
0.518074929714202881 -0.327130347490310669 0.101858466863632202
0.479288965463638306 -0.311522006988525391 -0.302244454622268677
0.114566057920455933 0.118733882904052734 0.288881450891494751
-0.121935732662677765 0.268745869398117065 0.158634781837463379
-0.614807367324829102 0.265466392040252686 0.0521217100322246552
-0.479457080364227295 0.00300174346193671227 0.181315034627914429
0.426637828350067139 -0.355047941207885742 0.15852123498916626
-0.292403250932693481 -0.1107444167137146 -0.105892173945903778
0.130501493811607361 0.0656385347247123718 0.321107208728790283
0.253766864538192749 0.0387663803994655609 -0.0779334679245948792
0.235542565584182739 0.093973502516746521 -0.0532182231545448303
0.417657315731048584 -0.261607736349105835 -0.202439367771148682
0.521649539470672607 -0.354703992605209351 -0.01952354796230793
-0.608866333961486816 0.381112456321716309 0.181265890598297119
0.517551124095916748 -0.279410034418106079 -0.314814090728759766
0.499080568552017212 -0.350042104721069336 0.024015696719288826
-0.587818562984466553 0.369289219379425049 0.113068088889122009
0.505962789058685303 -0.104670248925685883 0.147198095917701721
-0.198025375604629517 0.311619848012924194 0.112792812287807465
0.263943850994110107 -0.286551326513290405 0.319734185934066772
0.236929237842559814 0.0622728094458580017 0.310434192419052124
-0.144572675228118896 -0.0435157343745231628 0.00405892170965671539
-0.657784104347229004 0.214643388986587524 -0.0461431071162223816
-0.288682878017425537 -0.0760982036590576172 -0.0687321275472640991
0.227287977933883667 0.0422467365860939026 -0.0482900217175483704
0.551519215106964111 -0.144462883472442627 0.131950005888938904
0.519724726676940918 -0.295391559600830078 0.0748252198100090027
0.517552495002746582 -0.28413701057434082 -0.18126310408115387
-0.35813981294631958 -0.017207099124789238 -0.028037387877702713
0.091513410210609436 0.0883240252733230591 0.085629098117351532
0.466603755950927734 -0.361941814422607422 -0.0107361273840069771
-0.432941943407058716 0.157683834433555603 -0.0665521025657653809
0.523753702640533447 -0.335686415433883667 0.0688340365886688232
0.262804031372070312 -0.285920292139053345 0.318457096815109253
0.00930266827344894409 -0.0909906700253486633 -0.0262591373175382614
0.0324812978506088257 -0.130395993590354919 0.0217302273958921432
-0.630719304084777832 0.264973878860473633 0.0290879569947719574
0.242135480046272278 0.074444308876991272 0.318701654672622681
0.240193068981170654 0.0296841878443956375 0.318791359663009644
-0.174821078777313232 0.300909936428070068 0.116167008876800537
0.304561525583267212 -0.151236876845359802 0.307736307382583618
0.261837273836135864 -0.290723323822021484 0.320943206548690796
-0.476290106773376465 -0.00827137380838394165 0.166191577911376953
0.242773562669754028 0.0818830430507659912 0.312058538198471069
0.520174086093902588 -0.351341575384140015 0.0818712115287780762
-0.0350390486419200897 -0.237668484449386597 0.123981818556785583
-0.638322770595550537 0.289982229471206665 0.0988660603761672974
-0.234367132186889648 -0.132996693253517151 -0.058134954422712326
-0.379412084817886353 -0.108967840671539307 0.10546623170375824
-0.236581712961196899 -0.14802628755569458 -0.0579803735017776489
-0.657996475696563721 0.214339420199394226 -0.0338469594717025757
0.528813421726226807 -0.352677255868911743 0.0778134316205978394
-0.621164381504058838 0.270241498947143555 0.0525207631289958954
-0.404270559549331665 -0.0644788891077041626 0.112000033259391785
-0.446443021297454834 -0.0416299179196357727 0.121950939297676086
0.267906039953231812 -0.285611718893051147 0.323418736457824707
0.127495169639587402 -0.326653003692626953 0.312517166137695312
0.152153760194778442 -0.343143284320831299 0.317794561386108398
0.447662711143493652 -0.335750967264175415 -0.293080419301986694
0.515684008598327637 -0.303038328886032104 -0.108042195439338684
0.515171945095062256 -0.280380547046661377 -0.312910407781600952
0.484801828861236572 -0.327811688184738159 -0.309871286153793335
0.464277446269989014 -0.346020817756652832 -0.3027476966381073
0.549540102481842041 -0.210335582494735718 -0.316062450408935547
0.524037957191467285 -0.300176918506622314 -0.322557508945465088
0.517902672290802002 -0.300985783338546753 -0.3184548020362854
0.246850907802581787 0.0571618787944316864 0.316298186779022217
0.241343691945075989 0.0876370593905448914 0.312624931335449219
-0.291849672794342041 -0.100751399993896484 -0.102026984095573425
-0.453703224658966064 -0.0521174222230911255 0.117047712206840515
0.404668867588043213 -0.272241115570068359 0.322471886873245239
-0.502508044242858887 0.0036817542277276516 0.189111888408660889
0.400957942008972168 -0.287225037813186646 0.32478940486907959
0.399109095335006714 -0.273536741733551025 0.323268085718154907
0.34216839075088501 -0.25896763801574707 0.090020887553691864
-0.0189379248768091202 -0.244458466768264771 0.128555193543434143
-0.464601308107376099 0.0359076671302318573 0.189516857266426086
-0.194452345371246338 0.221651330590248108 0.17191702127456665
0.366765856742858887 -0.329313784837722778 -0.0236063506454229355
0.323327451944351196 -0.390196651220321655 -0.158982396125793457
0.535345733165740967 -0.323686748743057251 -0.0583038628101348877
-0.441872954368591309 -0.00482963817194104195 0.152659684419631958
-0.0192200951278209686 -0.0594830214977264404 0.141604319214820862
-0.000373610411770641804 -0.236187338829040527 0.106268659234046936
0.526139318943023682 -0.201822713017463684 -0.0801271945238113403
0.44972112774848938 -0.30842822790145874 -0.292967438697814941
0.526767492294311523 -0.275542289018630981 -0.315761059522628784
0.499830931425094604 -0.324997454881668091 -0.312757015228271484
0.475137054920196533 -0.305146187543869019 -0.297481387853622437
-0.127502217888832092 0.246707648038864136 0.138819664716720581
-0.649025857448577881 0.282006233930587769 0.0942647606134414673
-0.199036896228790283 0.286745190620422363 0.335763692855834961
0.497950613498687744 -0.0866760909557342529 0.136564567685127258
0.200651049613952637 -0.359252303838729858 -0.0909485220909118652
0.505322098731994629 -0.367726802825927734 -0.0227813143283128738
0.527165532112121582 -0.242667630314826965 0.172867432236671448
-0.585978806018829346 0.379331350326538086 0.170650124549865723
0.44493788480758667 -0.315021365880966187 -0.287842780351638794
0.498521924018859863 -0.111048281192779541 0.112077146768569946
-0.655830025672912598 0.175436541438102722 -0.10374392569065094
-0.201996415853500366 0.308812588453292847 0.0890075266361236572
0.20126749575138092 -0.013480672612786293 0.295159786939620972
0.159999072551727295 -0.0621148794889450073 -0.04419722780585289
-0.579614877700805664 0.302289128303527832 0.368644922971725464
0.275073319673538208 0.0984955728054046631 -0.0292489882558584213
-0.435312181711196899 0.155382066965103149 -0.0860744044184684753
0.534358382225036621 -0.333082437515258789 0.0126651190221309662
-0.568782567977905273 0.197279319167137146 -0.229090899229049683
-0.497714340686798096 0.0449355058372020721 -0.0868740305304527283
0.0313509069383144379 -0.103984080255031586 0.032883666455745697
0.534021198749542236 -0.264580279588699341 -0.316406428813934326
0.00977818761020898819 0.197784468531608582 0.0274299457669258118
0.302162200212478638 0.0389780588448047638 -0.0846004411578178406
-0.332245945930480957 -0.0160654857754707336 -0.107789047062397003
0.236461654305458069 0.0145683838054537773 0.321710258722305298
0.125026777386665344 0.0131135517731308937 0.298840939998626709
0.527432501316070557 -0.355196684598922729 0.066260315477848053
0.467014819383621216 -0.309905916452407837 -0.233213424682617188
-0.652006328105926514 0.285347640514373779 0.10437244176864624
0.546508908271789551 -0.219944074749946594 0.163423001766204834
0.52795875072479248 -0.323407888412475586 -0.0161244366317987442
-0.383082181215286255 -0.0564693361520767212 0.0761687681078910828
0.45684128999710083 -0.310911238193511963 -0.292663782835006714
0.504907965660095215 -0.339925795793533325 -0.317990899085998535
0.478757172822952271 -0.314397811889648438 -0.299603521823883057
0.520309984683990479 -0.301391005516052246 -0.317419052124023438
-0.00234300270676612854 -0.140000894665718079 -0.0249332226812839508
0.397443234920501709 -0.27309456467628479 0.323443293571472168
0.401114076375961304 -0.271521210670471191 0.323747813701629639
0.50601804256439209 -0.33198586106300354 0.105786912143230438
-0.467591196298599243 0.0424438230693340302 0.170631363987922668
0.409972488880157471 -0.345865070819854736 0.156541734933853149
-0.360838234424591064 -0.0353689529001712799 -0.14816679060459137
-0.128324136137962341 -0.267780125141143799 0.112317003309726715
0.512540161609649658 -0.36906549334526062 -0.0147248832508921623
-0.213619187474250793 0.312609642744064331 0.0975418761372566223
0.25050652027130127 -0.287064880132675171 0.322880357503890991
0.20899103581905365 0.0095273507758975029 -0.0462231114506721497
0.0699474215507507324 -0.151508376002311707 -0.0173482410609722137
-0.169661983847618103 0.304863780736923218 0.118730641901493073
0.471054911613464355 -0.36435505747795105 0.00698844343423843384
-0.290969282388687134 -0.0995415598154067993 -0.103284657001495361
0.0364310257136821747 -0.149678915739059448 -0.0218148808926343918
0.232223689556121826 0.0563888996839523315 0.309118717908859253
0.253312855958938599 -0.288626819849014282 0.320662260055541992
-0.471703380346298218 0.0011263509513810277 0.168653488159179688
0.241044625639915466 0.0628462955355644226 0.313018321990966797
0.508911371231079102 -0.352033495903015137 0.0639098510146141052
0.227335765957832336 -0.314789026975631714 0.314564168453216553
-0.375398367643356323 -0.0932275280356407166 0.0861425548791885376
-0.062810063362121582 -0.241632148623466492 0.302510976791381836
-0.22271670401096344 -0.127729251980781555 -0.0531975887715816498
-0.409884363412857056 -0.0654961094260215759 0.098494403064250946
-0.444990187883377075 -0.0447518602013587952 0.132724404335021973
0.238899111747741699 -0.294014722108840942 0.314435720443725586
0.153827354311943054 -0.324340522289276123 0.320105433464050293
0.425253748893737793 -0.256001919507980347 0.32859000563621521
0.438216418027877808 -0.342978179454803467 -0.292734295129776001
0.50632709264755249 -0.334626734256744385 -0.318136245012283325
0.445064365863800049 -0.352326899766921997 -0.286790192127227783
0.238311782479286194 0.0659099221229553223 0.312296688556671143
0.403185218572616577 -0.287453889846801758 0.325913488864898682
-0.494726777076721191 0.00671603670343756676 0.18839302659034729
0.485807150602340698 -0.0630991309881210327 0.131692543625831604
0.0125362202525138855 -0.17072826623916626 0.00975166819989681244
0.531545400619506836 -0.307615667581558228 -0.0622708573937416077
0.314813345670700073 -0.302264660596847534 -0.1268930584192276
0.445905715227127075 -0.291353464126586914 -0.285705894231796265
-0.336741507053375244 0.224751591682434082 0.125659644603729248
-0.400779426097869873 -0.0282026361674070358 -0.00193240470252931118
0.403099685907363892 -0.271664172410964966 0.324130982160568237
-0.133157849311828613 0.195917472243309021 0.167653530836105347
0.399149507284164429 -0.271600782871246338 0.323944747447967529
-0.446433812379837036 -0.0249735787510871887 0.0214111004024744034
-0.137826502323150635 0.244975939393043518 0.191606685519218445
-0.612572968006134033 0.294087648391723633 0.18379366397857666
0.124679096043109894 0.116261444985866547 0.316615790128707886
-0.120758093893527985 0.250714629888534546 0.161741167306900024
-0.583043575286865234 0.348195075988769531 0.0581890009343624115
0.426880717277526855 -0.348038256168365479 0.153024598956108093
-0.566478848457336426 0.295109659433364868 -0.0689401179552078247
0.252023965120315552 0.0268913041800260544 -0.0796590298414230347
0.247840270400047302 0.10059773176908493 -0.0484355799853801727
-0.357321947813034058 -0.0557263568043708801 -0.141905024647712708
0.19890110194683075 0.120435729622840881 0.0356757603585720062
0.545651555061340332 -0.131397664546966553 0.111947737634181976
-0.581360459327697754 0.321804434061050415 -0.0227915272116661072
0.20631764829158783 0.0248781386762857437 0.17678360641002655
-0.595070898532867432 0.375206857919692993 0.172065272927284241
0.444859594106674194 -0.319118112325668335 0.127351343631744385
0.255117923021316528 -0.278588265180587769 0.31650543212890625
0.235682472586631775 0.0240074936300516129 0.316553413867950439
-0.362766683101654053 -0.0497265607118606567 -0.0238077286630868912
-0.182461872696876526 0.118285246193408966 0.0422281511127948761
0.254830062389373779 -0.288030773401260376 0.319322794675827026
0.242121040821075439 0.0333848781883716583 0.321817636489868164
0.400003582239151001 0.0235911011695861816 0.115130439400672913
-0.340363860130310059 -0.0660820528864860535 -0.147356361150741577
0.0758084952831268311 -0.332855790853500366 0.298968195915222168
-0.38660961389541626 -0.0607206970453262329 0.0938034951686859131
-0.448020428419113159 -0.0412258505821228027 0.127734899520874023
0.439393043518066406 -0.279134631156921387 0.333663225173950195
0.0345921963453292847 -0.122719623148441315 -0.025722818449139595
0.414361178874969482 -0.280587077140808105 0.327010035514831543
0.433065176010131836 -0.295888990163803101 0.333168119192123413
0.368013232946395874 -0.278549909591674805 -0.130352899432182312
-0.47716599702835083 0.00157673272769898176 0.188337132334709167
-0.291381210088729858 -0.0962486714124679565 -0.104615308344364166
0.241449907422065735 -0.312810689210891724 0.309683352708816528
0.473283529281616211 -0.354079276323318481 0.00699661159887909889
-0.296212941408157349 -0.0964938849210739136 -0.107062235474586487
0.244807198643684387 -0.288381636142730713 0.320074856281280518
0.0623422600328922272 -0.329560577869415283 0.297051906585693359
0.158128216862678528 -0.26761975884437561 -0.105634957551956177
0.250340938568115234 0.0636572986841201782 0.315445214509963989
-0.482307344675064087 -0.00778680993244051933 0.177959248423576355
0.236482903361320496 0.0668258592486381531 0.314798116683959961
0.238784357905387878 -0.33162379264831543 0.321414947509765625
-0.382081180810928345 -0.0919011235237121582 0.0367051847279071808
-0.215986341238021851 -0.139967247843742371 -0.0544327534735202789
-0.382513761520385742 -0.0635308548808097839 0.0835173428058624268
0.150034353137016296 -0.331453651189804077 0.331897228956222534
0.44591289758682251 -0.279666751623153687 0.333585917949676514
0.40747368335723877 -0.280298113822937012 0.325123518705368042
-0.501817405223846436 0.00669706147164106369 0.188710257411003113
-0.321668803691864014 0.0973562523722648621 -0.0703269019722938538
0.532642602920532227 -0.207354351878166199 -0.0527038350701332092
0.451097786426544189 -0.293794333934783936 -0.290593415498733521
0.487562388181686401 -0.325164079666137695 -0.31100127100944519
0.446543216705322266 -0.309642106294631958 -0.290957003831863403
-0.577475607395172119 0.269295930862426758 0.365836292505264282
-0.461161285638809204 0.105861857533454895 -0.231000706553459167
0.374935448169708252 -0.318512141704559326 0.199060648679733276
-0.58943486213684082 0.366957396268844604 0.131286755204200745
0.39268609881401062 -0.353339165449142456 -0.217598035931587219
0.441240072250366211 -0.31018364429473877 -0.289167165756225586
-0.20038093626499176 0.305542588233947754 0.0948676466941833496
-0.155252054333686829 0.268067091703414917 0.15155830979347229
0.529914975166320801 -0.338319242000579834 0.0717504397034645081
0.463948279619216919 -0.266022443771362305 -0.21778436005115509
-0.63319087028503418 0.27575308084487915 0.107110455632209778
0.438561707735061646 -0.30847477912902832 -0.287338733673095703
0.515614748001098633 -0.277124375104904175 -0.316961288452148438
0.516731441020965576 -0.340284407138824463 -0.320870101451873779
0.454504638910293579 -0.306958317756652832 -0.293391436338424683
0.491003990173339844 -0.321784377098083496 0.0943140685558319092
0.0207205433398485184 -0.275721549987792969 -0.0186817441135644913
-0.653762578964233398 0.171973049640655518 -0.108026675879955292
-0.22441372275352478 0.318629324436187744 0.121267974376678467
0.465452313423156738 -0.363961607217788696 0.00582646206021308899
0.481180071830749512 -0.336676418781280518 0.0502000264823436737
0.511633515357971191 -0.339342325925827026 -0.319530129432678223
0.440325409173965454 -0.356481462717056274 -0.297743380069732666
-0.269706755876541138 0.322071224451065063 0.0418017953634262085
0.424283981323242188 -0.31319466233253479 -0.282034993171691895
0.415558695793151855 -0.29504808783531189 0.328457236289978027
-0.325936734676361084 -0.0753307417035102844 0.123440459370613098
-0.366717904806137085 -0.0666514039039611816 0.154661431908607483
-0.337998569011688232 0.214919686317443848 0.13279685378074646
0.0102923521772027016 0.119605697691440582 0.105044208467006683
0.542149186134338379 -0.309086322784423828 -0.04630235955119133
0.0137473903596401215 -0.26169779896736145 0.039414186030626297
-0.00344013446010649204 -0.236465469002723694 0.0941767469048500061
0.000325129833072423935 -0.219497665762901306 0.0814319103956222534
0.465033918619155884 -0.360818803310394287 0.0302297007292509079
-0.269275486469268799 -0.137954428791999817 0.177459642291069031
-0.344922453165054321 -0.0658215433359146118 0.141243577003479004
0.123581208288669586 -0.276568353176116943 0.128904223442077637
-0.133669048547744751 0.0789581909775733948 0.0901952758431434631
0.463646739721298218 -0.0542008355259895325 0.0174828972667455673
-0.0140145542100071907 -0.216813400387763977 0.0802731513977050781
-0.554405689239501953 0.39166027307510376 0.147785216569900513
0.49672052264213562 -0.366698235273361206 0.0051571517251431942
-0.610401391983032227 0.29408612847328186 0.186596378684043884
0.530148744583129883 -0.275192975997924805 -0.317796438932418823
0.370453715324401855 -0.264458507299423218 0.181472837924957275
0.420436263084411621 -0.344353407621383667 0.150790974497795105
0.252167165279388428 0.0393954776227474213 -0.0667908787727355957
0.549547553062438965 -0.149797558784484863 0.12413729727268219
-0.570186078548431396 0.284108877182006836 -0.00627648923546075821
0.500991582870483398 -0.362552732229232788 -0.00137463794089853764
0.208429530262947083 0.115889661014080048 -0.0105712180957198143
-0.289033412933349609 -0.0856089144945144653 -0.0664579495787620544
0.159374728798866272 -0.0830856785178184509 -0.0362800396978855133
-0.339806795120239258 -0.105406045913696289 0.141285568475723267
0.511154353618621826 -0.281351029872894287 -0.313315033912658691
-0.339111566543579102 -0.0795985609292984009 0.0385943762958049774
-0.369048207998275757 0.280784010887145996 -0.0626083165407180786
0.509936034679412842 -0.340884983539581299 0.0650333389639854431
0.30235561728477478 -0.205760985612869263 0.247855991125106812
0.542889833450317383 -0.31197589635848999 -0.0608514659106731415
0.141670197248458862 0.0697059556841850281 0.336281090974807739
-0.594552040100097656 0.267568767070770264 0.012279474176466465
0.222100973129272461 -0.00688554253429174423 0.295495688915252686
0.230966836214065552 0.034541204571723938 0.312684178352355957
0.533595681190490723 -0.319573372602462769 -0.0128927873447537422
-0.389144957065582275 -0.0639320239424705505 0.105770386755466461
-0.44736286997795105 -0.0400776751339435577 0.126586273312568665
0.496052145957946777 -0.0911845415830612183 0.154360949993133545
0.251007914543151855 0.063334338366985321 0.31656336784362793
-0.291238516569137573 -0.0926530808210372925 0.307711660861968994
-0.36639404296875 -0.114725202322006226 0.10406002402305603
-0.563142478466033936 0.127341181039810181 -0.0783518701791763306
-0.501275956630706787 0.0235467627644538879 0.186755657196044922
0.518211483955383301 -0.297378420829772949 -0.31414949893951416
0.472665071487426758 -0.328270792961120605 -0.300007462501525879
-0.574008285999298096 0.268961399793624878 0.362761646509170532
-0.570848405361175537 0.354955077171325684 0.16713280975818634
-0.191465005278587341 0.304798543453216553 0.101226627826690674
-0.661767482757568359 0.239825382828712463 0.0417911484837532043
-0.5046730637550354 0.144517511129379272 0.353381931781768799
0.507216274738311768 -0.347210466861724854 -0.318426907062530518
-0.200291872024536133 0.305127263069152832 0.101888231933116913
0.475181758403778076 -0.357606828212738037 0.00458303419873118401
0.509823143482208252 -0.330699682235717773 0.0663081854581832886
-0.610379278659820557 0.367630928754806519 0.0879027694463729858
-0.562179923057556152 0.288333415985107422 -0.0558433979749679565
0.220037773251533508 0.0104776564985513687 0.309021651744842529
0.240597888827323914 0.0053100287914276123 0.321487784385681152
-0.359373390674591064 -0.0568710491061210632 -0.137900426983833313
0.399286746978759766 -0.25266575813293457 0.321871191263198853
0.399586141109466553 -0.26304095983505249 0.32462465763092041
0.224054992198944092 -0.324080795049667358 0.320642560720443726
0.411068648099899292 -0.267783790826797485 0.325043469667434692
-0.508905589580535889 0.0495201125741004944 0.195349186658859253
-0.630934774875640869 0.156548827886581421 -0.0525111891329288483
-0.501642286777496338 0.14708322286605835 0.345354735851287842
0.521021366119384766 -0.350776731967926025 -0.323167860507965088
0.495364725589752197 -0.348337769508361816 0.000101411649666260928
-0.197715103626251221 0.0162211339920759201 -0.0500339530408382416
-0.55740886926651001 0.341819554567337036 -0.00562251266092061996
0.488574087619781494 -0.360464960336685181 0.0409283451735973358
0.449244767427444458 -0.0741302967071533203 0.00180176540743559599
-0.555936276912689209 0.385270893573760986 0.157908037304878235
0.374691188335418701 -0.0811168625950813293 -0.120084911584854126
-0.389379650354385376 0.319662421941757202 0.168804138898849487
-0.384343385696411133 0.32822844386100769 0.197495937347412109
-0.363860875368118286 0.238055452704429626 -0.0835147276520729065
-0.407006710767745972 0.199584245681762695 0.040904216468334198
-0.644134283065795898 0.286878377199172974 0.0937649160623550415
0.408604264259338379 -0.347229182720184326 0.136310651898384094
0.222498148679733276 0.0830322727560997009 -0.0337028689682483673
0.498617112636566162 -0.161226123571395874 0.12367374449968338
0.500389456748962402 -0.0927964895963668823 0.134591132402420044
0.215447649359703064 0.0020329868420958519 0.299354076385498047
-0.35297006368637085 -0.0681443288922309875 -0.00910729169845581055
-0.385088086128234863 0.266040503978729248 -0.0716882422566413879
0.506502389907836914 -0.347108066082000732 0.0547860302031040192
-0.356793791055679321 -0.0563352778553962708 -0.145492538809776306
0.132301181554794312 0.0727662369608879089 0.322004646062850952
-0.0995324999094009399 -0.265603870153427124 0.00600069202482700348
0.242515817284584045 0.0234531499445438385 0.321790963411331177
-0.480170220136642456 -0.0117104966193437576 0.185339957475662231
0.242560550570487976 0.048443131148815155 0.316967159509658813
-0.277867734432220459 0.332737237215042114 0.0405875444412231445
0.369916409254074097 -0.0307881496846675873 -0.0401232987642288208
0.520199298858642578 -0.348041057586669922 -0.0364690497517585754
0.293410331010818481 -0.0118703246116638184 0.0368451736867427826
-0.643821835517883301 0.284796983003616333 0.092612043023109436
0.0358920246362686157 0.136827841401100159 0.0849510803818702698
-0.397270172834396362 -0.0576337166130542755 0.12587323784828186
-0.441220998764038086 -0.0382289253175258636 0.131326153874397278
0.523873805999755859 -0.317630261182785034 -0.0656178593635559082
0.422420769929885864 -0.279977500438690186 0.331108838319778442
0.509667456150054932 -0.345003336668014526 0.0569537356495857239
0.403842508792877197 -0.258844763040542603 0.323518335819244385
-0.480073630809783936 0.018050462007522583 0.176727861166000366
0.235610738396644592 0.0686284676194190979 0.314359605312347412
-0.479239463806152344 -0.00836800970137119293 0.167374312877655029
0.23923473060131073 0.0676376670598983765 0.314762204885482788
0.388251811265945435 0.0260572042316198349 0.105814814567565918
0.219580799341201782 -0.31607934832572937 0.310297131538391113
0.383080273866653442 0.0429674014449119568 0.0688514560461044312
0.462760478258132935 0.0107897417619824409 0.174872919917106628
0.399466872215270996 -0.258636206388473511 0.327093243598937988
-0.499386847019195557 0.0211248695850372314 0.180957421660423279
-0.573202073574066162 0.266235470771789551 0.359984308481216431
-0.664234042167663574 0.2298860102891922 0.0219395570456981659
-0.149011477828025818 0.2754020094871521 0.078918851912021637
0.522062420845031738 -0.335196167230606079 -0.322784960269927979
-0.220101028680801392 0.315676301717758179 0.0966174229979515076
0.499889552593231201 -0.346592724323272705 0.0668450444936752319
-0.189462900161743164 0.302779823541641235 0.114626325666904449
0.313660800457000732 -0.130133971571922302 0.300584137439727783
0.225159913301467896 -0.0351823791861534119 0.305003255605697632
0.0573921240866184235 -0.330835908651351929 0.291297435760498047
0.43521389365196228 -0.280013531446456909 0.332619428634643555
0.408938825130462646 -0.285811096429824829 0.330790519714355469
0.385652601718902588 -0.265836596488952637 0.318670034408569336
0.397430568933486938 -0.384791970252990723 -0.225886508822441101
-0.161993563175201416 0.278425097465515137 0.12846839427947998
0.380721449851989746 0.0439906641840934753 0.0767938718199729919
0.390781193971633911 -0.255792319774627686 0.318675845861434937
-0.500105977058410645 0.0244080852717161179 0.185794368386268616
0.499613255262374878 -0.326066821813583374 -0.313418596982955933
0.380606919527053833 -0.376077950000762939 -0.21650327742099762
0.521128177642822266 -0.349423229694366455 -0.325184077024459839
0.520687341690063477 -0.348561286926269531 -0.322123616933822632
0.51330798864364624 -0.319798588752746582 -0.318755954504013062
0.255007892847061157 -0.222407624125480652 0.0572762563824653625
0.186035960912704468 -0.142339915037155151 -0.105861157178878784
0.507790744304656982 -0.320291459560394287 0.028995973989367485
-0.469268351793289185 -0.0119643937796354294 0.181030169129371643
0.496201634407043457 -0.349108666181564331 -0.310084879398345947
0.521468937397003174 -0.327678054571151733 -0.322259247303009033
0.476006746292114258 -0.320378154516220093 -0.303373336791992188
-0.340894311666488647 0.229844227433204651 -0.0444281548261642456
0.201824143528938293 0.132886782288551331 0.11197187751531601
-0.172441557049751282 0.0222096946090459824 0.025429828092455864
0.265636801719665527 -0.165840193629264832 0.00579633563756942749
0.544697701930999756 -0.328403353691101074 -0.0481022931635379791
-0.456141173839569092 -0.0531778708100318909 0.162141278386116028
0.4696999192237854 -0.35619962215423584 -0.307423561811447144
0.478447645902633667 -0.269921481609344482 -0.301862806081771851
0.467312395572662354 -0.362008839845657349 -0.308512359857559204
-0.319887667894363403 0.266641169786453247 0.0113769546151161194
0.0332611575722694397 0.0986446961760520935 0.128288924694061279
-0.284447640180587769 -0.100196942687034607 -0.0875069200992584229
-0.6164589524269104 0.216951668262481689 -0.104733072221279144
0.244490087032318115 0.104561366140842438 -0.0300125181674957275
0.466262370347976685 -0.235198453068733215 -0.228834688663482666
-0.29369315505027771 -0.0886433720588684082 -0.0960478037595748901
0.24907366931438446 -0.275934159755706787 0.322410315275192261
0.222116813063621521 0.0669237151741981506 -0.0281678661704063416
-0.250740021467208862 -0.130307897925376892 -0.0556340478360652924
-0.211342796683311462 0.30202186107635498 0.148539081215858459
0.339795053005218506 -0.140580028295516968 0.318136155605316162
0.529669284820556641 -0.35664859414100647 0.069427981972694397
-0.599505007266998291 0.35659712553024292 0.0604780577123165131
-0.346110075712203979 -0.0558603107929229736 -0.143735021352767944
-0.432475894689559937 0.157542973756790161 -0.0846825465559959412
0.52656710147857666 -0.331774085760116577 0.0201269537210464478
0.528147101402282715 -0.28803136944770813 -0.0704200118780136108
-0.498550713062286377 0.142609432339668274 -0.253869771957397461
0.146618708968162537 0.156835258007049561 0.0585484020411968231
0.253270834684371948 -0.00760870566591620445 0.327467262744903564
0.349935591220855713 -0.147166118025779724 0.320373028516769409
0.442270100116729736 -0.32258722186088562 -0.229639500379562378
-0.223977133631706238 -0.140114903450012207 -0.0539552271366119385
0.522489428520202637 -0.350278675556182861 0.096697591245174408
-0.645730137825012207 0.253446877002716064 0.023970307782292366
0.393140971660614014 -0.280110090970993042 0.322122097015380859
-0.474448680877685547 -0.00991296116262674332 0.164817899465560913
0.224343359470367432 -0.325083374977111816 0.31889912486076355
-0.363496333360671997 -0.121280357241630554 0.13029789924621582
-0.238421261310577393 -0.140745237469673157 -0.0540808103978633881
-0.11384456604719162 -0.00915663782507181168 -0.0168457403779029846
0.389367014169692993 -0.278380513191223145 0.320453077554702759
-0.506757974624633789 0.011227843351662159 0.201919347047805786
0.46261674165725708 -0.296969115734100342 -0.294581860303878784
0.351278603076934814 -0.148124247789382935 0.321229487657546997
0.457865804433822632 -0.303755700588226318 -0.2291068434715271
0.0245378650724887848 -0.143779709935188293 -0.0203688293695449829
0.368917495012283325 -0.327784329652786255 0.318602979183197021
0.391592323780059814 -0.281533777713775635 0.316714733839035034
0.128578543663024902 -0.319247990846633911 -0.0973210707306861877
-0.134281754493713379 0.278500467538833618 0.11732637882232666
-0.333064675331115723 0.0944937542080879211 -0.102491371333599091
0.374042689800262451 -0.375941067934036255 -0.215057551860809326
0.519905030727386475 -0.345810294151306152 -0.322801917791366577
0.523472070693969727 -0.358078807592391968 -0.326657712459564209
-0.0683057382702827454 -0.254869401454925537 0.0987541154026985168
0.325738400220870972 -0.130821362137794495 0.314556479454040527
0.424266725778579712 -0.259769022464752197 0.32811892032623291
-0.479691773653030396 0.0318808481097221375 0.196658611297607422
0.526652932167053223 -0.299665331840515137 -0.322271138429641724
0.538089871406555176 -0.292517811059951782 -0.324683547019958496
0.377837717533111572 -0.3741779625415802 -0.213768407702445984
0.371345967054367065 -0.357114106416702271 -0.213775813579559326
0.524094283580780029 -0.351676136255264282 -0.325040966272354126
0.525400459766387939 -0.36345517635345459 -0.323127090930938721
0.515565454959869385 -0.327217370271682739 -0.320126533508300781
0.479506820440292358 -0.35236021876335144 -0.312264531850814819
0.478471934795379639 -0.365631908178329468 -0.31297793984413147
-0.361543655395507812 0.310464143753051758 0.239674881100654602
-0.320609718561172485 0.104124963283538818 0.0221220236271619797
-0.447330713272094727 0.204290315508842468 -0.0403758697211742401
-0.377424806356430054 0.279389321804046631 -0.00735674519091844559
-0.022557256743311882 -0.260769098997116089 0.143723264336585999
-0.591608703136444092 0.361468315124511719 0.064272664487361908
0.367543339729309082 -0.373506456613540649 -0.212561830878257751
-0.123985916376113892 -0.010605362243950367 0.00784866511821746826
0.396617412567138672 -0.353389352560043335 -0.218380793929100037
0.507377386093139648 -0.159485384821891785 0.125060155987739563
0.19555586576461792 0.124906480312347412 0.00623177038505673409
-0.0268294010311365128 0.167001023888587952 0.382853329181671143
-0.333983689546585083 -0.121121682226657867 0.100282154977321625
-0.324963629245758057 0.302941292524337769 -0.0367991030216217041
0.5341072678565979 -0.346810847520828247 0.0377134419977664948
0.525355756282806396 -0.331837564706802368 0.0343831628561019897
-0.595434606075286865 0.382117867469787598 0.113450519740581512
-0.0110624730587005615 -0.144210994243621826 -0.0269886944442987442
-0.235078617930412292 0.172117620706558228 -0.00177188822999596596
-0.485335022211074829 -0.0105991857126355171 0.177242770791053772
-0.277787655591964722 0.336148262023925781 0.0421374812722206116
0.51344144344329834 -0.349063456058502197 0.0969604030251502991
-0.448463171720504761 -0.0357616245746612549 0.11742796003818512
0.434348136186599731 -0.253215700387954712 0.331717103719711304
0.414829432964324951 -0.278331786394119263 0.327193558216094971
-0.468732744455337524 0.0344967953860759735 0.193590536713600159
0.502278268337249756 -0.339559227228164673 0.0078401835635304451
-0.48129156231880188 -0.00275693414732813835 0.177569940686225891
-0.377355396747589111 -0.106715060770511627 0.0928905382752418518
-0.500854909420013428 0.0222593657672405243 0.184356361627578735
0.360658615827560425 -0.286900877952575684 -0.141919448971748352
0.00157143641263246536 -0.231366097927093506 0.0899585112929344177
-0.14006572961807251 0.265205949544906616 0.0883030518889427185
-0.129383519291877747 0.254529774188995361 0.0712951570749282837
0.31261405348777771 -0.293268352746963501 -0.131281286478042603
0.428181558847427368 -0.255455493927001953 0.330217510461807251
-0.615150988101959229 0.306689649820327759 0.392272382974624634
0.410775303840637207 -0.357977837324142456 -0.226448044180870056
0.505156576633453369 -0.346532195806503296 -0.319900393486022949
0.507852613925933838 -0.352570801973342896 -0.322606563568115234
0.523635327816009521 -0.298524290323257446 -0.318693429231643677
0.509813010692596436 -0.346880078315734863 -0.320224970579147339
0.270065635442733765 -0.169342562556266785 -0.0796717628836631775
0.133865788578987122 0.120512016117572784 0.32900276780128479
0.25180014967918396 -0.28496137261390686 0.328153401613235474
0.324495881795883179 -0.120112083852291107 0.310589522123336792
0.302439063787460327 -0.204331338405609131 0.251123875379562378
0.250155180692672729 -0.00362040032632648945 0.325021266937255859
0.507294356822967529 -0.3430977463722229 0.0874968618154525757
0.241850852966308594 0.0900633260607719421 0.309914290904998779
0.462917149066925049 -0.284060150384902954 -0.231227174401283264
-0.261953830718994141 0.314041316509246826 0.0457631014287471771
0.344133138656616211 -0.13987557590007782 0.329398870468139648
0.373889178037643433 -0.363862782716751099 -0.208769127726554871
0.337684065103530884 -0.129141479730606079 0.320639729499816895
0.526555061340332031 -0.347225964069366455 -0.324043691158294678
0.524321258068084717 -0.352083146572113037 -0.32659679651260376
0.480111151933670044 -0.372344374656677246 -0.313066393136978149
-0.359905391931533813 -0.0650050714612007141 0.0828787758946418762
-0.407285451889038086 0.0886436253786087036 -0.11317308247089386
0.0142249278724193573 0.0983092784881591797 0.217052862048149109
-0.378422200679779053 -0.0932257920503616333 -0.0283447131514549255
0.265610426664352417 0.0685825273394584656 -0.0919363126158714294
-0.108163699507713318 -0.0150684481486678123 0.045933745801448822
-0.358000993728637695 -0.0920499637722969055 0.0129076642915606499
-0.290127545595169067 0.30487215518951416 0.166530430316925049
-0.355437785387039185 -0.0735801160335540771 0.0406157076358795166
-0.598304033279418945 0.294609695672988892 0.186641395092010498
0.249555304646492004 0.0969584956765174866 -0.0344117209315299988
0.379174739122390747 -0.354914426803588867 -0.209441483020782471
0.469766020774841309 -0.324679374694824219 0.137928038835525513
0.464505940675735474 -0.271795004606246948 -0.0930674299597740173
-0.439509719610214233 -0.0430882759392261505 0.084249541163444519
-0.336258769035339355 -0.124790497124195099 0.127589508891105652
0.528333187103271484 -0.341882765293121338 0.0509480871260166168
0.392847239971160889 0.0473038852214813232 0.13351033627986908
-0.18569260835647583 0.31418183445930481 0.107741542160511017
-0.441469073295593262 -0.0429789870977401733 0.117822259664535522
0.537375330924987793 -0.326166927814483643 -0.0557257868349552155
-0.352771520614624023 0.30643889307975769 0.114155985414981842
0.494143187999725342 -0.346067667007446289 0.0440325438976287842
-0.575317263603210449 0.30523371696472168 0.379400402307510376
0.430920451879501343 -0.280921220779418945 0.333678066730499268
-0.477476328611373901 0.00401011109352111816 0.164158567786216736
0.524978578090667725 -0.349847584962844849 -0.00264252186752855778
-0.0673762112855911255 -0.262862145900726318 0.298436522483825684
-0.511775791645050049 0.00456576142460107803 0.188104972243309021
0.389921456575393677 -0.360339999198913574 -0.215734511613845825
-0.118292167782783508 0.254506468772888184 0.0635213255882263184
-0.500289320945739746 0.004984311293810606 0.193287640810012817
0.426404774188995361 -0.274421751499176025 0.330609947443008423
-0.333405584096908569 0.10413680225610733 -0.118572026491165161
-0.105655431747436523 0.254378020763397217 0.093533731997013092
0.510733425617218018 -0.341772347688674927 -0.319703340530395508
-0.61261439323425293 0.302654743194580078 0.396293133497238159
-0.50884246826171875 0.0365741364657878876 0.188623398542404175
